# .PCD v0.7 - Point Cloud Data file format
VERSION 0.7
FIELDS x y z rgb
SIZE 4 4 4 4
TYPE F F F F
COUNT 1 1 1 1
WIDTH 1013
HEIGHT 1
VIEWPOINT 0 0 0 1 0 0 0
POINTS 1013
DATA ascii
-0.07363715 -0.61364287 2.3430002 -2.2486404e+38
-0.06917429 -0.61364287 2.3430002 -2.2486404e+38
-0.064711429 -0.61364287 2.3430002 -2.24864e+38
-0.059837148 -0.60945243 2.3270001 -2.2352956e+38
-0.055404767 -0.60945243 2.3270001 -2.2221069e+38
-0.050972383 -0.60945243 2.3270001 -2.195626e+38
-0.046540003 -0.60945243 2.3270001 -2.1689895e+38
-0.042107623 -0.60945243 2.3270001 -2.1689893e+38
-0.037675239 -0.60945243 2.3270001 -2.1556457e+38
-0.033242859 -0.60945243 2.3270001 -2.1555944e+38
-0.028810479 -0.60945243 2.3270001 -2.1554904e+38
-0.024378097 -0.60945243 2.3270001 -2.1687824e+38
-0.019945716 -0.60945243 2.3270001 -2.168782e+38
-0.015513334 -0.60945243 2.3270001 -2.1687295e+38
-0.011080953 -0.60945243 2.3270001 -2.1687812e+38
-0.0066485717 -0.60945243 2.3270001 -2.1688329e+38
-0.0022161906 -0.60945243 2.3270001 -2.1687812e+38
0.0022314286 -0.61364287 2.3430002 -2.182022e+38
0.0066485717 -0.60945243 2.3270001 -2.1820743e+38
0.011080953 -0.60945243 2.3270001 -2.1820749e+38
0.015513334 -0.60945243 2.3270001 -2.1820751e+38
0.020082859 -0.61364287 2.3430002 -2.1554908e+38
0.024545716 -0.61364287 2.3430002 -2.128906e+38
0.029008573 -0.61364287 2.3430002 -2.1423019e+38
0.033471432 -0.61364287 2.3430002 -2.1555415e+38
0.037934288 -0.61364287 2.3430002 -2.1688329e+38
0.042397145 -0.61364287 2.3430002 -2.1687289e+38
0.046860002 -0.61364287 2.3430002 -2.1685729e+38
0.051322859 -0.61364287 2.3430002 -2.1552289e+38
0.055785719 -0.61364287 2.3430002 -2.141833e+38
0.060248576 -0.61364287 2.3430002 -2.128645e+38
0.064711429 -0.61364287 2.3430002 -2.1419894e+38
0.06917429 -0.61364287 2.3430002 -2.1553336e+38
0.07363715 -0.61364287 2.3430002 -2.1553338e+38
0.078100003 -0.61364287 2.3430002 -2.1420934e+38
0.081999056 -0.60945243 2.3270001 -2.1553857e+38
0.086431436 -0.60945243 2.3270001 -2.168782e+38
0.090863816 -0.60945243 2.3270001 -2.1821786e+38
0.095296197 -0.60945243 2.3270001 -2.1822307e+38
0.099728577 -0.60945243 2.3270001 -2.1956272e+38
0.10416096 -0.60945243 2.3270001 -2.2089195e+38
0.10789334 -0.60552382 2.312 -2.2221601e+38
0.11229715 -0.60552382 2.312 -2.2356606e+38
0.11670096 -0.60552382 2.312 -2.2756419e+38
0.12110477 -0.60552382 2.312 -2.3024346e+38
0.12550858 -0.60552382 2.312 -2.3557597e+38
0.12906954 -0.60159528 2.2970002 -2.3956897e+38
0.13344477 -0.60159528 2.2970002 -2.4090868e+38
0.13782001 -0.60159528 2.2970002 -2.4092957e+38
0.14312382 -0.60552382 2.312 -2.4492776e+38
0.14657049 -0.60159528 2.2970002 -2.4760188e+38
0.15193143 -0.60552382 2.312 -2.516156e+38
0.15633525 -0.60552382 2.312 -2.5428966e+38
0.16073906 -0.60552382 2.312 -2.662735e+38
0.16514286 -0.60552382 2.312 -2.7695442e+38
0.16954668 -0.60552382 2.312 -2.7705863e+38
0.17395049 -0.60552382 2.312 -2.7705889e+38
0.17951144 -0.60945243 2.3270001 -2.7707992e+38
0.18394382 -0.60945243 2.3270001 -2.7721024e+38
0.1883762 -0.60945243 2.3270001 nan
0.19280858 -0.60945243 2.3270001 nan
0.19724096 -0.60945243 2.3270001 nan
0.20167334 -0.60945243 2.3270001 nan
-0.23424287 -0.67314005 2.5890002 nan
-0.22931144 -0.67314005 2.5890002 nan
-0.22438002 -0.67314005 2.5890002 nan
-0.21783811 -0.66820002 2.5700002 nan
-0.21136859 -0.66326004 2.5510001 -2.8870306e+38
-0.20497145 -0.65832007 2.5320001 -1.7147686e+38
-0.19872573 -0.65364003 2.5140002 -2.0624996e+38
-0.19254859 -0.64896005 2.4960001 -2.4220653e+38
-0.18644001 -0.64428002 2.4780002 -2.3953242e+38
-0.18172002 -0.64428002 2.4780002 -2.3818244e+38
-0.1757143 -0.63960004 2.46 -2.3551879e+38
-0.17102858 -0.63960004 2.46 -2.3418961e+38
-0.16519335 -0.63518006 2.4430001 -2.3556558e+38
-0.16054001 -0.63518006 2.4430001 -2.3692601e+38
-0.15588668 -0.63518006 2.4430001 -2.3427276e+38
-0.15123335 -0.63518006 2.4430001 -2.3291755e+38
-0.14556001 -0.63076001 2.4260001 -2.3024867e+38
-0.14093906 -0.63076001 2.4260001 -2.2757458e+38
-0.1363181 -0.63076001 2.4260001 -2.2755375e+38
-0.13169715 -0.63076001 2.4260001 -2.2754332e+38
-0.12707619 -0.63076001 2.4260001 -2.275329e+38
-0.12245525 -0.63076001 2.4260001 -2.2885691e+38
-0.11700858 -0.62634003 2.4090002 -2.2753286e+38
-0.11242001 -0.62634003 2.4090002 -2.2620365e+38
-0.10783143 -0.62634003 2.4090002 -2.2487444e+38
-0.10251429 -0.62192005 2.3920002 -2.2487446e+38
-0.097958103 -0.62192005 2.3920002 -2.2486929e+38
-0.093401909 -0.62192005 2.3920002 -2.2352968e+38
-0.088251434 -0.61776006 2.3760002 -2.2352966e+38
-0.083725721 -0.61776006 2.3760002 -2.2352962e+38
-0.079200007 -0.61776006 2.3760002 -2.2353475e+38
-0.074140005 -0.61334002 2.3590002 -2.2485882e+38
-0.06917429 -0.60918003 2.3430002 -2.2353481e+38
-0.064711429 -0.60918003 2.3430002 -2.2353994e+38
-0.059837148 -0.60502005 2.3270001 -2.2221065e+38
-0.055404767 -0.60502005 2.3270001 -2.2222106e+38
-0.050972383 -0.60502005 2.3270001 -2.1955743e+38
-0.046540003 -0.60502005 2.3270001 -2.1689378e+38
-0.042107623 -0.60502005 2.3270001 -2.1556455e+38
-0.037675239 -0.60502005 2.3270001 -2.155594e+38
-0.033242859 -0.60502005 2.3270001 -2.1555425e+38
-0.028810479 -0.60502005 2.3270001 -2.1554384e+38
-0.024378097 -0.60502005 2.3270001 -2.1687303e+38
-0.019945716 -0.60502005 2.3270001 -2.1820224e+38
-0.015513334 -0.60502005 2.3270001 -2.1687297e+38
-0.011080953 -0.60502005 2.3270001 -2.1554376e+38
-0.0066485717 -0.60502005 2.3270001 -2.1554896e+38
-0.0022161906 -0.60502005 2.3270001 -2.1688857e+38
0.0022314286 -0.60918003 2.3430002 -2.1687818e+38
0.0066942861 -0.60918003 2.3430002 -2.1687305e+38
0.011080953 -0.60502005 2.3270001 -2.1554908e+38
0.015513334 -0.60502005 2.3270001 -2.1421985e+38
0.020082859 -0.60918003 2.3430002 -2.128906e+38
0.024545716 -0.60918003 2.3430002 -2.1022695e+38
0.029008573 -0.60918003 2.3430002 -2.1156657e+38
0.033471432 -0.60918003 2.3430002 -2.115665e+38
0.037934288 -0.60918003 2.3430002 -2.1289048e+38
0.042397145 -0.60918003 2.3430002 -2.141989e+38
0.046860002 -0.60918003 2.3430002 -2.1553328e+38
0.051322859 -0.60918003 2.3430002 -2.1685733e+38
0.055785719 -0.60918003 2.3430002 -2.155281e+38
0.060248576 -0.60918003 2.3430002 -2.1419892e+38
0.064711429 -0.60918003 2.3430002 -2.1552819e+38
0.06917429 -0.60918003 2.3430002 -2.1553338e+38
0.07363715 -0.60918003 2.3430002 -2.1553857e+38
0.078100003 -0.60918003 2.3430002 -2.1553859e+38
0.081999056 -0.60502005 2.3270001 -2.1820226e+38
0.086431436 -0.60502005 2.3270001 -2.2086595e+38
0.090863816 -0.60502005 2.3270001 -2.2087118e+38
0.095296197 -0.60502005 2.3270001 -2.2220043e+38
0.099728577 -0.60502005 2.3270001 -2.2221603e+38
0.10416096 -0.60502005 2.3270001 -2.2354525e+38
0.10789334 -0.60112005 2.312 -2.23566e+38
0.11229715 -0.60112005 2.312 -2.2358681e+38
0.11670096 -0.60112005 2.312 -2.2757971e+38
0.12110477 -0.60112005 2.312 -2.3157784e+38
0.12550858 -0.60112005 2.312 -2.3558114e+38
0.12906954 -0.59722006 2.2970002 -2.3957939e+38
0.13344477 -0.59722006 2.2970002 -2.4224842e+38
0.13782001 -0.59722006 2.2970002 -2.4493295e+38
0.14219525 -0.59722006 2.2970002 -2.4759672e+38
0.14657049 -0.59722006 2.2970002 -2.4895199e+38
0.15193143 -0.60112005 2.312 -2.5293976e+38
0.15633525 -0.60112005 2.312 -2.5695347e+38
0.15969621 -0.59722006 2.2970002 -2.6365159e+38
0.16514286 -0.60112005 2.312 -2.7167923e+38
0.16954668 -0.60112005 2.312 -2.7838281e+38
0.17395049 -0.60112005 2.312 -2.8503436e+38
0.17835429 -0.60112005 2.312 -2.7709554e+38
0.18394382 -0.60502005 2.3270001 -2.6924552e+38
0.1883762 -0.60502005 2.3270001 nan
0.19156572 -0.60112005 2.312 nan
0.19724096 -0.60502005 2.3270001 nan
0.20167334 -0.60502005 2.3270001 nan
-0.23605239 -0.67337054 2.6090002 nan
-0.22931144 -0.6682086 2.5890002 nan
-0.22438002 -0.6682086 2.5890002 nan
-0.21944858 -0.6682086 2.5890002 nan
-0.21136859 -0.65840101 2.5510001 -2.8978259e+38
-0.20497145 -0.65349716 2.5320001 -1.7155452e+38
-0.19872573 -0.64885145 2.5140002 -2.0765707e+38
-0.19254859 -0.64420575 2.4960001 -2.4353059e+38
-0.18644001 -0.63956004 2.4780002 -2.421857e+38
-0.18172002 -0.63956004 2.4780002 -2.3951167e+38
-0.1757143 -0.63491434 2.46 -2.3683244e+38
-0.17102858 -0.63491434 2.46 -2.328863e+38
-0.16634287 -0.63491434 2.46 -2.3425706e+38
-0.16054001 -0.63052672 2.4430001 -2.3559151e+38
-0.15588668 -0.63052672 2.4430001 -2.3427268e+38
-0.15123335 -0.63052672 2.4430001 -2.3158305e+38
-0.14658001 -0.63052672 2.4430001 -2.3023305e+38
-0.14093906 -0.6261391 2.4260001 -2.288934e+38
-0.1363181 -0.6261391 2.4260001 -2.2754338e+38
-0.13169715 -0.6261391 2.4260001 -2.248797e+38
-0.12707619 -0.6261391 2.4260001 -2.2620371e+38
-0.12245525 -0.6261391 2.4260001 -2.2752773e+38
-0.11700858 -0.62175149 2.4090002 -2.261985e+38
-0.11242001 -0.62175149 2.4090002 -2.2354004e+38
-0.10707048 -0.61736387 2.3920002 -2.2486408e+38
-0.10251429 -0.61736387 2.3920002 -2.2486408e+38
-0.097958103 -0.61736387 2.3920002 -2.2352966e+38
-0.093401909 -0.61736387 2.3920002 -2.2220558e+38
-0.088251434 -0.61323434 2.3760002 -2.2220556e+38
-0.083725721 -0.61323434 2.3760002 -2.2220554e+38
-0.079200007 -0.61323434 2.3760002 -2.2353473e+38
-0.074140005 -0.60884672 2.3590002 -2.2353475e+38
-0.06917429 -0.6047172 2.3430002 -2.2353994e+38
-0.064711429 -0.6047172 2.3430002 -2.2221069e+38
-0.059837148 -0.60058767 2.3270001 -2.2221069e+38
-0.055404767 -0.60058767 2.3270001 -2.2088146e+38
-0.050972383 -0.60058767 2.3270001 -2.1822301e+38
-0.046540003 -0.60058767 2.3270001 -2.1556457e+38
-0.042107623 -0.60058767 2.3270001 -2.155594e+38
-0.037675239 -0.60058767 2.3270001 -2.1555942e+38
-0.033242859 -0.60058767 2.3270001 -2.1555944e+38
-0.028810479 -0.60058767 2.3270001 -2.1554904e+38
-0.024378097 -0.60058767 2.3270001 -2.1686269e+38
-0.019945716 -0.60058767 2.3270001 -2.1819707e+38
-0.015513334 -0.60058767 2.3270001 -2.1686263e+38
-0.011080953 -0.60058767 2.3270001 -2.1421456e+38
-0.0066485717 -0.60058767 2.3270001 -2.155438e+38
-0.0022161906 -0.60058767 2.3270001 -2.15549e+38
0.0022314286 -0.6047172 2.3430002 -2.1554382e+38
0.0066942861 -0.6047172 2.3430002 -2.1421981e+38
0.011157144 -0.6047172 2.3430002 -2.1290099e+38
0.015513334 -0.60058767 2.3270001 -2.1023734e+38
0.020082859 -0.6047172 2.3430002 -2.089133e+38
0.024545716 -0.6047172 2.3430002 -2.0757886e+38
0.029008573 -0.6047172 2.3430002 -2.0757886e+38
0.033471432 -0.6047172 2.3430002 -2.075788e+38
0.037934288 -0.6047172 2.3430002 -2.1023722e+38
0.042397145 -0.6047172 2.3430002 -2.1156123e+38
0.046860002 -0.6047172 2.3430002 -2.1421447e+38
0.051322859 -0.6047172 2.3430002 -2.1686255e+38
0.055785719 -0.6047172 2.3430002 -2.1686255e+38
0.060248576 -0.6047172 2.3430002 -2.1552815e+38
0.064711429 -0.6047172 2.3430002 -2.1552299e+38
0.06917429 -0.6047172 2.3430002 -2.1553338e+38
0.07363715 -0.6047172 2.3430002 -2.1686782e+38
0.078100003 -0.6047172 2.3430002 -2.1687305e+38
0.082562864 -0.6047172 2.3430002 -2.2087116e+38
0.086431436 -0.60058767 2.3270001 -2.2352966e+38
0.090863816 -0.60058767 2.3270001 -2.2485893e+38
0.095296197 -0.60058767 2.3270001 -2.2486933e+38
0.099728577 -0.60058767 2.3270001 -2.2487976e+38
0.10348953 -0.59671623 2.312 -2.2489012e+38
0.10789334 -0.59671623 2.312 -2.249057e+38
0.11229715 -0.59671623 2.312 -2.2359203e+38
0.11670096 -0.59671623 2.312 -2.2759007e+38
0.12110477 -0.59671623 2.312 -2.3158303e+38
0.1246943 -0.59284478 2.2970002 -2.3558116e+38
0.12906954 -0.59284478 2.2970002 -2.3957937e+38
0.13344477 -0.59284478 2.2970002 -2.4490162e+38
0.13782001 -0.59284478 2.2970002 -2.4891023e+38
0.14312382 -0.59671623 2.312 -2.5024999e+38
0.14752764 -0.59671623 2.312 -2.5026049e+38
0.15193143 -0.59671623 2.312 -2.542379e+38
0.15633525 -0.59671623 2.312 -2.5829326e+38
0.16073906 -0.59671623 2.312 -2.6235903e+38
0.16514286 -0.59671623 2.312 -2.6638333e+38
0.16954668 -0.59671623 2.312 -2.7974856e+38
0.17395049 -0.59671623 2.312 -2.9301498e+38
0.17835429 -0.59671623 2.312 -2.7701242e+38
0.18394382 -0.60058767 2.3270001 -2.5992005e+38
0.1883762 -0.60058767 2.3270001 nan
0.19156572 -0.59671623 2.312 nan
0.19724096 -0.60058767 2.3270001 nan
0.20306002 -0.6047172 2.3430002 nan
-0.23605239 -0.668401 2.6090002 nan
-0.22931144 -0.66327721 2.5890002 nan
-0.22611335 -0.668401 2.6090002 nan
-0.21944858 -0.66327721 2.5890002 nan
-0.21294287 -0.6584096 2.5700002 -2.8870732e+38
-0.20497145 -0.64867431 2.5320001 -1.7281082e+38
-0.19872573 -0.64406288 2.5140002 -2.0492073e+38
-0.19254859 -0.63945144 2.4960001 -2.3820848e+38
-0.18644001 -0.63484007 2.4780002 -2.3553958e+38
-0.18172002 -0.63484007 2.4780002 -2.3419995e+38
-0.1757143 -0.63022864 2.46 -2.3287589e+38
-0.17102858 -0.63022864 2.46 -2.3290703e+38
-0.16634287 -0.63022864 2.46 -2.3291739e+38
-0.16165715 -0.63022864 2.46 -2.3424143e+38
-0.15588668 -0.62587339 2.4430001 -2.3158297e+38
-0.15123335 -0.62587339 2.4430001 -2.3023819e+38
-0.14658001 -0.62587339 2.4430001 -2.288934e+38
-0.14093906 -0.62151814 2.4260001 -2.2755379e+38
-0.1363181 -0.62151814 2.4260001 -2.2621416e+38
-0.13169715 -0.62151814 2.4260001 -2.2487972e+38
-0.12707619 -0.62151814 2.4260001 -2.2486931e+38
-0.12159715 -0.61716288 2.4090002 -2.2486412e+38
-0.11700858 -0.61716288 2.4090002 -2.2353489e+38
-0.11242001 -0.61716288 2.4090002 -2.2353489e+38
-0.10707048 -0.61280763 2.3920002 -2.2353487e+38
-0.10251429 -0.61280763 2.3920002 -2.2352966e+38
-0.097958103 -0.61280763 2.3920002 -2.2087116e+38
-0.093401909 -0.61280763 2.3920002 -2.1954708e+38
-0.088251434 -0.60870862 2.3760002 -2.1954704e+38
-0.083725721 -0.60870862 2.3760002 -2.1954185e+38
-0.078633338 -0.60435337 2.3590002 -2.1954702e+38
-0.074140005 -0.60435337 2.3590002 -2.1955222e+38
-0.06917429 -0.6002543 2.3430002 -2.195522e+38
-0.064711429 -0.6002543 2.3430002 -2.1955224e+38
-0.059837148 -0.59615529 2.3270001 -2.1955226e+38
-0.055404767 -0.59615529 2.3270001 -2.1821784e+38
-0.050972383 -0.59615529 2.3270001 -2.1688859e+38
-0.046540003 -0.59615529 2.3270001 -2.1423017e+38
-0.042107623 -0.59615529 2.3270001 -2.1290097e+38
-0.037675239 -0.59615529 2.3270001 -2.1156654e+38
-0.033242859 -0.59615529 2.3270001 -2.1289577e+38
-0.028810479 -0.59615529 2.3270001 -2.1422502e+38
-0.024378097 -0.59615529 2.3270001 -2.1554386e+38
-0.019945716 -0.59615529 2.3270001 -2.1687307e+38
-0.015513334 -0.59615529 2.3270001 -2.1553863e+38
-0.011080953 -0.59615529 2.3270001 -2.142146e+38
-0.0066485717 -0.59615529 2.3270001 -2.1553863e+38
-0.0022161906 -0.59615529 2.3270001 -2.1554386e+38
0.0022314286 -0.6002543 2.3430002 -2.1421985e+38
0.0066942861 -0.6002543 2.3430002 -2.1422502e+38
0.011157144 -0.6002543 2.3430002 -2.1289577e+38
0.015620001 -0.6002543 2.3430002 -2.1156657e+38
0.020082859 -0.6002543 2.3430002 -2.1156657e+38
0.024545716 -0.6002543 2.3430002 -2.1023732e+38
0.029008573 -0.6002543 2.3430002 -2.1024247e+38
0.033471432 -0.6002543 2.3430002 -2.0891322e+38
0.037934288 -0.6002543 2.3430002 -2.1024241e+38
0.042397145 -0.6002543 2.3430002 -2.1290086e+38
0.046860002 -0.6002543 2.3430002 -2.1421449e+38
0.051322859 -0.6002543 2.3430002 -2.1686257e+38
0.056166671 -0.60435337 2.3590002 -2.1552813e+38
0.060248576 -0.6002543 2.3430002 -2.1552295e+38
0.064711429 -0.6002543 2.3430002 -2.1552817e+38
0.06917429 -0.6002543 2.3430002 -2.1552821e+38
0.07363715 -0.6002543 2.3430002 -2.1686784e+38
0.078100003 -0.6002543 2.3430002 -2.1819713e+38
0.082562864 -0.6002543 2.3430002 -2.1953678e+38
0.086431436 -0.59615529 2.3270001 -2.2220049e+38
0.090863816 -0.59615529 2.3270001 -2.2353495e+38
0.095296197 -0.59615529 2.3270001 -2.2620383e+38
0.099728577 -0.59615529 2.3270001 -2.2488501e+38
0.10348953 -0.5923124 2.312 -2.248902e+38
0.10789334 -0.5923124 2.312 -2.2491095e+38
0.11229715 -0.5923124 2.312 -2.2492647e+38
0.11670096 -0.5923124 2.312 -2.2758486e+38
0.12110477 -0.5923124 2.312 -2.3158303e+38
0.1246943 -0.58846956 2.2970002 -2.3424676e+38
0.12906954 -0.58846956 2.2970002 -2.3824493e+38
0.13344477 -0.58846956 2.2970002 -2.4356714e+38
0.13872001 -0.5923124 2.312 -2.4889981e+38
0.14312382 -0.5923124 2.312 -2.4758115e+38
0.14657049 -0.58846956 2.2970002 -2.4759687e+38
0.15094572 -0.58846956 2.2970002 -2.4494894e+38
0.15633525 -0.5923124 2.312 -2.4233754e+38
0.16073906 -0.5923124 2.312 -2.5434762e+38
0.16514286 -0.5923124 2.312 -2.6636799e+38
0.16954668 -0.5923124 2.312 -2.757195e+38
0.17395049 -0.5923124 2.312 -2.8638967e+38
0.17835429 -0.5923124 2.312 -2.7174739e+38
0.18394382 -0.59615529 2.3270001 -2.5715765e+38
0.1883762 -0.59615529 2.3270001 -2.9190509e+38
0.19280858 -0.59615529 2.3270001 -3.2676649e+38
0.19724096 -0.59615529 2.3270001 nan
0.20167334 -0.59615529 2.3270001 nan
-0.23605239 -0.66343147 2.6090002 nan
-0.23108287 -0.66343147 2.6090002 nan
-0.22611335 -0.66343147 2.6090002 nan
-0.21944858 -0.65834576 2.5890002 nan
-0.21294287 -0.65351433 2.5700002 -2.8712915e+38
-0.20497145 -0.64385146 2.5320001 -1.7287844e+38
-0.19730286 -0.6346972 2.4960001 -2.0232975e+38
-0.19116001 -0.63012004 2.4780002 -2.3156228e+38
-0.18644001 -0.63012004 2.4780002 -2.302122e+38
-0.18040001 -0.62554288 2.46 -2.2755896e+38
-0.1757143 -0.62554288 2.46 -2.3021746e+38
-0.17102858 -0.62554288 2.46 -2.3157265e+38
-0.16634287 -0.62554288 2.46 -2.3158305e+38
-0.16165715 -0.62554288 2.46 -2.3157267e+38
-0.15588668 -0.62122005 2.4430001 -2.3024342e+38
-0.15123335 -0.62122005 2.4430001 -2.2889859e+38
-0.14658001 -0.62122005 2.4430001 -2.2755375e+38
-0.14192668 -0.62122005 2.4430001 -2.2621414e+38
-0.1363181 -0.61689717 2.4260001 -2.2619854e+38
-0.13169715 -0.61689717 2.4260001 -2.2486929e+38
-0.12707619 -0.61689717 2.4260001 -2.2352968e+38
-0.12159715 -0.61257434 2.4090002 -2.2087641e+38
-0.11700858 -0.61257434 2.4090002 -2.2220047e+38
-0.11242001 -0.61257434 2.4090002 -2.2353487e+38
-0.10707048 -0.60825145 2.3920002 -2.2220045e+38
-0.10251429 -0.60825145 2.3920002 -2.2087639e+38
-0.097958103 -0.60825145 2.3920002 -2.1954195e+38
-0.092777148 -0.6041829 2.3760002 -2.1688867e+38
-0.088251434 -0.6041829 2.3760002 -2.1689384e+38
-0.083725721 -0.6041829 2.3760002 -2.1556457e+38
-0.078633338 -0.59986001 2.3590002 -2.1556455e+38
-0.074140005 -0.59986001 2.3590002 -2.1556457e+38
-0.06917429 -0.59579146 2.3430002 -2.1689382e+38
-0.064711429 -0.59579146 2.3430002 -2.1689382e+38
-0.059837148 -0.59172291 2.3270001 -2.1688865e+38
-0.055404767 -0.59172291 2.3270001 -2.155594e+38
-0.050972383 -0.59172291 2.3270001 -2.1423017e+38
-0.046540003 -0.59172291 2.3270001 -2.1290094e+38
-0.042107623 -0.59172291 2.3270001 -2.1023732e+38
-0.037675239 -0.59172291 2.3270001 -2.0757886e+38
-0.033242859 -0.59172291 2.3270001 -2.1023734e+38
-0.028810479 -0.59172291 2.3270001 -2.1156657e+38
-0.024378097 -0.59172291 2.3270001 -2.1288541e+38
-0.019945716 -0.59172291 2.3270001 -2.1420942e+38
-0.015513334 -0.59172291 2.3270001 -2.1419902e+38
-0.011080953 -0.59172291 2.3270001 -2.1420938e+38
-0.0066485717 -0.59172291 2.3270001 -2.1552821e+38
-0.0022161906 -0.59172291 2.3270001 -2.155438e+38
0.0022314286 -0.59579146 2.3430002 -2.1421981e+38
0.0066942861 -0.59579146 2.3430002 -2.1289058e+38
0.011157144 -0.59579146 2.3430002 -2.1289579e+38
0.015620001 -0.59579146 2.3430002 -2.1289579e+38
0.020082859 -0.59579146 2.3430002 -2.1289579e+38
0.024545716 -0.59579146 2.3430002 -2.1289575e+38
0.029008573 -0.59579146 2.3430002 -2.1157687e+38
0.033471432 -0.59579146 2.3430002 -2.1024243e+38
0.037934288 -0.59579146 2.3430002 -2.1156644e+38
0.042397145 -0.59579146 2.3430002 -2.1289048e+38
0.046860002 -0.59579146 2.3430002 -2.1421451e+38
0.051322859 -0.59579146 2.3430002 -2.1553336e+38
0.056166671 -0.59986001 2.3590002 -2.1551776e+38
0.060660005 -0.59986001 2.3590002 -2.1553334e+38
0.064711429 -0.59579146 2.3430002 -2.1553855e+38
0.06917429 -0.59579146 2.3430002 -2.1553859e+38
0.07363715 -0.59579146 2.3430002 -2.1686786e+38
0.078100003 -0.59579146 2.3430002 -2.1819713e+38
0.082562864 -0.59579146 2.3430002 -2.195264e+38
0.086431436 -0.59172291 2.3270001 -2.1954201e+38
0.090863816 -0.59172291 2.3270001 -2.2353493e+38
0.095296197 -0.59172291 2.3270001 -2.26209e+38
0.099728577 -0.59172291 2.3270001 -2.248902e+38
0.10348953 -0.58790863 2.312 -2.2357134e+38
0.10789334 -0.58790863 2.312 -2.2491095e+38
0.11229715 -0.58790863 2.312 -2.2624016e+38
0.11670096 -0.58790863 2.312 -2.2889857e+38
0.12110477 -0.58790863 2.312 -2.3023825e+38
0.1246943 -0.58409435 2.2970002 -2.3423118e+38
0.12906954 -0.58409435 2.2970002 -2.369053e+38
0.13344477 -0.58409435 2.2970002 -2.4222746e+38
0.13782001 -0.58409435 2.2970002 -2.4756007e+38
0.14312382 -0.58790863 2.312 -2.4624137e+38
0.14752764 -0.58790863 2.312 -2.4492786e+38
0.15193143 -0.58790863 2.312 -2.3562343e+38
0.15633525 -0.58790863 2.312 -2.250366e+38
0.16073906 -0.58790863 2.312 -2.4633049e+38
0.16514286 -0.58790863 2.312 -2.6630019e+38
0.16954668 -0.58790863 2.312 -2.7302436e+38
0.17395049 -0.58790863 2.312 -2.7837769e+38
0.17951144 -0.59172291 2.3270001 -2.6642511e+38
0.18394382 -0.59172291 2.3270001 -2.5445196e+38
0.1883762 -0.59172291 2.3270001 -2.3710478e+38
0.19280858 -0.59172291 2.3270001 -2.1885975e+38
0.19724096 -0.59172291 2.3270001 nan
0.20167334 -0.59172291 2.3270001 nan
-0.24102192 -0.65846193 2.6090002 nan
-0.23605239 -0.65846193 2.6090002 nan
-0.23108287 -0.65846193 2.6090002 nan
-0.22611335 -0.65846193 2.6090002 nan
-0.21944858 -0.65341431 2.5890002 nan
-0.21294287 -0.64861912 2.5700002 -2.7008829e+38
-0.20497145 -0.63902861 2.5320001 -1.7280587e+38
-0.19872573 -0.63448578 2.5140002 -2.0225702e+38
-0.19254859 -0.62994289 2.4960001 -2.3156224e+38
-0.18644001 -0.62540007 2.4780002 -2.3022251e+38
-0.18172002 -0.62540007 2.4780002 -2.302174e+38
-0.1757143 -0.62085718 2.46 -2.3155707e+38
-0.17102858 -0.62085718 2.46 -2.3423636e+38
-0.16634287 -0.62085718 2.46 -2.3290717e+38
-0.16165715 -0.62085718 2.46 -2.3155715e+38
-0.15588668 -0.61656672 2.4430001 -2.2889868e+38
-0.15123335 -0.61656672 2.4430001 -2.2622975e+38
-0.14658001 -0.61656672 2.4430001 -2.2489006e+38
-0.14192668 -0.61656672 2.4430001 -2.2488487e+38
-0.1363181 -0.61227626 2.4260001 -2.2354523e+38
-0.13169715 -0.61227626 2.4260001 -2.2354004e+38
-0.12707619 -0.61227626 2.4260001 -2.222056e+38
-0.12159715 -0.60798573 2.4090002 -2.2087639e+38
-0.11700858 -0.60798573 2.4090002 -2.2087122e+38
-0.11242001 -0.60798573 2.4090002 -2.2087641e+38
-0.10707048 -0.60369527 2.3920002 -2.1954719e+38
-0.10251429 -0.60369527 2.3920002 -2.1822315e+38
-0.097302862 -0.59965718 2.3760002 -2.1555429e+38
-0.092777148 -0.59965718 2.3760002 -2.1289583e+38
-0.088251434 -0.59965718 2.3760002 -2.1290622e+38
-0.083725721 -0.59965718 2.3760002 -2.1424058e+38
-0.078633338 -0.59536672 2.3590002 -2.1423532e+38
-0.074140005 -0.59536672 2.3590002 -2.1555942e+38
-0.06917429 -0.59132862 2.3430002 -2.1556467e+38
-0.064711429 -0.59132862 2.3430002 -2.1689388e+38
-0.060248576 -0.59132862 2.3430002 -2.1555944e+38
-0.055404767 -0.58729053 2.3270001 -2.1555944e+38
-0.050972383 -0.58729053 2.3270001 -2.1290097e+38
-0.046540003 -0.58729053 2.3270001 -2.1023732e+38
-0.042107623 -0.58729053 2.3270001 -2.0891326e+38
-0.037675239 -0.58729053 2.3270001 -2.0758405e+38
-0.033242859 -0.58729053 2.3270001 -2.0890292e+38
-0.028810479 -0.58729053 2.3270001 -2.1023734e+38
-0.024378097 -0.58729053 2.3270001 -2.1155618e+38
-0.019945716 -0.58729053 2.3270001 -2.1420942e+38
-0.015513334 -0.58729053 2.3270001 -2.142094e+38
-0.011080953 -0.58729053 2.3270001 -2.1421456e+38
-0.0066485717 -0.58729053 2.3270001 -2.142093e+38
-0.0022161906 -0.58729053 2.3270001 -2.1554896e+38
0.0022314286 -0.59132862 2.3430002 -2.1421456e+38
0.0066942861 -0.59132862 2.3430002 -2.142146e+38
0.011157144 -0.59132862 2.3430002 -2.1422502e+38
0.015620001 -0.59132862 2.3430002 -2.1422502e+38
0.020082859 -0.59132862 2.3430002 -2.1289577e+38
0.024545716 -0.59132862 2.3430002 -2.1289054e+38
0.029008573 -0.59132862 2.3430002 -2.1156646e+38
0.033471432 -0.59132862 2.3430002 -2.1156646e+38
0.037934288 -0.59132862 2.3430002 -2.1023202e+38
0.042397145 -0.59132862 2.3430002 -2.0889762e+38
0.046860002 -0.59132862 2.3430002 -2.0889762e+38
0.051322859 -0.59132862 2.3430002 -2.0889243e+38
0.056166671 -0.59536672 2.3590002 -2.1155087e+38
0.060248576 -0.59132862 2.3430002 -2.1289048e+38
0.064711429 -0.59132862 2.3430002 -2.142093e+38
0.06917429 -0.59132862 2.3430002 -2.1553859e+38
0.07363715 -0.59132862 2.3430002 -2.1553865e+38
0.078100003 -0.59132862 2.3430002 -2.168679e+38
0.081999056 -0.58729053 2.3270001 -2.1953157e+38
0.086431436 -0.58729053 2.3270001 -2.2220564e+38
0.090863816 -0.58729053 2.3270001 -2.235453e+38
0.095296197 -0.58729053 2.3270001 -2.2488495e+38
0.099085718 -0.5835048 2.312 -2.2489018e+38
0.10348953 -0.5835048 2.312 -2.2490057e+38
0.10789334 -0.5835048 2.312 -2.2490057e+38
0.11156858 -0.57971907 2.2970002 -2.2490057e+38
0.11594382 -0.57971907 2.2970002 -2.2756421e+38
0.12031905 -0.57971907 2.2970002 -2.302331e+38
0.1246943 -0.57971907 2.2970002 -2.3289676e+38
0.12906954 -0.57971907 2.2970002 -2.3556565e+38
0.13344477 -0.57971907 2.2970002 -2.3956375e+38
0.13782001 -0.57971907 2.2970002 -2.4357229e+38
0.14312382 -0.5835048 2.312 -2.4490677e+38
0.14657049 -0.57971907 2.2970002 -2.4625176e+38
0.15193143 -0.5835048 2.312 -2.4095058e+38
0.15633525 -0.5835048 2.312 -2.3700466e+38
0.16073906 -0.5835048 2.312 -2.502764e+38
0.16514286 -0.5835048 2.312 -2.6353241e+38
0.16954668 -0.5835048 2.312 -2.6898958e+38
0.17395049 -0.5835048 2.312 -2.7305013e+38
0.17951144 -0.58729053 2.3270001 -2.7306587e+38
0.18394382 -0.58729053 2.3270001 -2.7173663e+38
0.1883762 -0.58729053 2.3270001 -2.3975204e+38
0.19280858 -0.58729053 2.3270001 -2.0787762e+38
0.19724096 -0.58729053 2.3270001 nan
0.20167334 -0.58729053 2.3270001 nan
-0.24599144 -0.65349245 2.6090002 nan
-0.24102192 -0.65349245 2.6090002 nan
-0.23605239 -0.65349245 2.6090002 nan
-0.23108287 -0.65349245 2.6090002 nan
-0.22611335 -0.65349245 2.6090002 nan
-0.21944858 -0.64848292 2.5890002 -3.3166048e+38
-0.21294287 -0.64372385 2.5700002 -2.5123007e+38
-0.20497145 -0.63420576 2.5320001 -1.7155462e+38
-0.19872573 -0.6296972 2.5140002 -2.010057e+38
-0.19254859 -0.62518859 2.4960001 -2.3023827e+38
-0.18644001 -0.62068003 2.4780002 -2.3156222e+38
-0.18040001 -0.61617148 2.46 -2.3154149e+38
-0.1757143 -0.61617148 2.46 -2.3420516e+38
-0.17102858 -0.61617148 2.46 -2.3688443e+38
-0.16634287 -0.61617148 2.46 -2.3424157e+38
-0.16165715 -0.61617148 2.46 -2.3156228e+38
-0.15588668 -0.61191338 2.4430001 -2.2756415e+38
-0.15123335 -0.61191338 2.4430001 -2.2223676e+38
-0.14658001 -0.61191338 2.4430001 -2.222211e+38
-0.14192668 -0.61191338 2.4430001 -2.2221591e+38
-0.1363181 -0.60765529 2.4260001 -2.2220554e+38
-0.13169715 -0.60765529 2.4260001 -2.2087633e+38
-0.12707619 -0.60765529 2.4260001 -2.2086597e+38
-0.12159715 -0.60339719 2.4090002 -2.2087118e+38
-0.11700858 -0.60339719 2.4090002 -2.1953159e+38
-0.11242001 -0.60339719 2.4090002 -2.1688352e+38
-0.10707048 -0.59913909 2.3920002 -2.1556469e+38
-0.10251429 -0.59913909 2.3920002 -2.1422506e+38
-0.097958103 -0.59913909 2.3920002 -2.1155103e+38
-0.092777148 -0.59513146 2.3760002 -2.075789e+38
-0.088251434 -0.59513146 2.3760002 -2.1024253e+38
-0.083725721 -0.59513146 2.3760002 -2.1157691e+38
-0.078633338 -0.59087336 2.3590002 -2.1423534e+38
-0.074140005 -0.59087336 2.3590002 -2.1556979e+38
-0.06917429 -0.58686572 2.3430002 -2.15575e+38
-0.064711429 -0.58686572 2.3430002 -2.1556461e+38
-0.060248576 -0.58686572 2.3430002 -2.1555942e+38
-0.055785719 -0.58686572 2.3430002 -2.1423019e+38
-0.050972383 -0.58285815 2.3270001 -2.1156657e+38
-0.046540003 -0.58285815 2.3270001 -2.0757888e+38
-0.042107623 -0.58285815 2.3270001 -2.0758407e+38
-0.037675239 -0.58285815 2.3270001 -2.0757371e+38
-0.033242859 -0.58285815 2.3270001 -2.0755815e+38
-0.028810479 -0.58285815 2.3270001 -2.075685e+38
-0.024378097 -0.58285815 2.3270001 -2.1022693e+38
-0.019945716 -0.58285815 2.3270001 -2.1288539e+38
-0.015513334 -0.58285815 2.3270001 -2.1421462e+38
-0.011080953 -0.58285815 2.3270001 -2.1421456e+38
-0.0066485717 -0.58285815 2.3270001 -2.142093e+38
-0.0022161906 -0.58285815 2.3270001 -2.1420934e+38
0.0022314286 -0.58686572 2.3430002 -2.1553861e+38
0.0066942861 -0.58686572 2.3430002 -2.15549e+38
0.011157144 -0.58686572 2.3430002 -2.155594e+38
0.015620001 -0.58686572 2.3430002 -2.1423017e+38
0.020082859 -0.58686572 2.3430002 -2.1423537e+38
0.024545716 -0.58686572 2.3430002 -2.1289569e+38
0.029008573 -0.58686572 2.3430002 -2.1289046e+38
0.033471432 -0.58686572 2.3430002 -2.1156123e+38
0.037934288 -0.58686572 2.3430002 -2.0756835e+38
0.042397145 -0.58686572 2.3430002 -2.0358069e+38
0.046860002 -0.58686572 2.3430002 -2.0357552e+38
0.051673338 -0.59087336 2.3590002 -2.0224627e+38
0.056166671 -0.59087336 2.3590002 -2.0623395e+38
0.060660005 -0.59087336 2.3590002 -2.1022164e+38
0.065153338 -0.59087336 2.3590002 -2.1286452e+38
0.06917429 -0.58686572 2.3430002 -2.1420934e+38
0.07363715 -0.58686572 2.3430002 -2.155438e+38
0.078100003 -0.58686572 2.3430002 -2.1554384e+38
0.081999056 -0.58285815 2.3270001 -2.1953155e+38
0.086431436 -0.58285815 2.3270001 -2.2353485e+38
0.090863816 -0.58285815 2.3270001 -2.235453e+38
0.094681911 -0.57910097 2.312 -2.2221609e+38
0.099085718 -0.57910097 2.312 -2.2355055e+38
0.10348953 -0.57910097 2.312 -2.2488497e+38
0.10789334 -0.57910097 2.312 -2.2488497e+38
0.11156858 -0.57534385 2.2970002 -2.2356093e+38
0.11594382 -0.57534385 2.2970002 -2.262246e+38
0.12031905 -0.57534385 2.2970002 -2.2889346e+38
0.1246943 -0.57534385 2.2970002 -2.3155194e+38
0.12906954 -0.57534385 2.2970002 -2.3289676e+38
0.13344477 -0.57534385 2.2970002 -2.3689487e+38
0.13782001 -0.57534385 2.2970002 -2.3957416e+38
0.14219525 -0.57534385 2.2970002 -2.4356712e+38
0.14657049 -0.57534385 2.2970002 -2.4624127e+38
0.15193143 -0.57910097 2.312 -2.475862e+38
0.15633525 -0.57910097 2.312 -2.489364e+38
0.16073906 -0.57910097 2.312 -2.5557236e+38
0.16514286 -0.57910097 2.312 -2.6092576e+38
0.16954668 -0.57910097 2.312 -2.6502781e+38
0.17395049 -0.57910097 2.312 -2.6771237e+38
0.17951144 -0.58285815 2.3270001 -2.783879e+38
0.18394382 -0.58285815 2.3270001 -2.8897497e+38
0.1883762 -0.58285815 2.3270001 -2.4229622e+38
0.19280858 -0.58285815 2.3270001 -1.9599227e+38
0.19724096 -0.58285815 2.3270001 -3.3207815e+38
0.20167334 -0.58285815 2.3270001 nan
-0.2578924 -0.65349436 2.6290002 nan
-0.25096098 -0.64852291 2.6090002 nan
-0.24599144 -0.64852291 2.6090002 nan
-0.24102192 -0.64852291 2.6090002 nan
-0.23605239 -0.64852291 2.6090002 nan
-0.23108287 -0.64852291 2.6090002 nan
-0.22611335 -0.64852291 2.6090002 nan
-0.21944858 -0.64355147 2.5890002 nan
-0.21294287 -0.63882864 2.5700002 -2.5674967e+38
-0.20650953 -0.63410574 2.5510001 -1.7150282e+38
-0.19872573 -0.62490863 2.5140002 -2.0093303e+38
-0.19254859 -0.62043434 2.4960001 -2.3023314e+38
-0.18644001 -0.61596006 2.4780002 -2.3153636e+38
-0.18040001 -0.61148578 2.46 -2.3151559e+38
-0.1757143 -0.61148578 2.46 -2.3287595e+38
-0.17102858 -0.61148578 2.46 -2.3422597e+38
-0.16634287 -0.61148578 2.46 -2.3156752e+38
-0.16165715 -0.61148578 2.46 -2.3022261e+38
-0.15588668 -0.60726005 2.4430001 -2.2755884e+38
-0.15123335 -0.60726005 2.4430001 -2.235555e+38
-0.14658001 -0.60726005 2.4430001 -2.2222098e+38
-0.14192668 -0.60726005 2.4430001 -2.2088658e+38
-0.1363181 -0.60303432 2.4260001 -2.208814e+38
-0.13262001 -0.60726005 2.4430001 -2.2221069e+38
-0.12707619 -0.60303432 2.4260001 -2.2087114e+38
-0.12245525 -0.60303432 2.4260001 -2.1954193e+38
-0.11700858 -0.59880859 2.4090002 -2.1821273e+38
-0.11242001 -0.59880859 2.4090002 -2.1688352e+38
-0.10707048 -0.59458292 2.3920002 -2.1688352e+38
-0.10251429 -0.59458292 2.3920002 -2.155491e+38
-0.097958103 -0.59458292 2.3920002 -2.1156661e+38
-0.092777148 -0.59060574 2.3760002 -2.0892369e+38
-0.088251434 -0.59060574 2.3760002 -2.1157691e+38
-0.083725721 -0.59060574 2.3760002 -2.1423537e+38
-0.078633338 -0.58638006 2.3590002 -2.1424054e+38
-0.074140005 -0.58638006 2.3590002 -2.1557494e+38
-0.06917429 -0.58240288 2.3430002 -2.142405e+38
-0.064711429 -0.58240288 2.3430002 -2.1290612e+38
-0.060248576 -0.58240288 2.3430002 -2.1290094e+38
-0.055785719 -0.58240288 2.3430002 -2.1156654e+38
-0.050972383 -0.57842577 2.3270001 -2.1023734e+38
-0.046540003 -0.57842577 2.3270001 -2.1023217e+38
-0.042107623 -0.57842577 2.3270001 -2.1023217e+38
-0.037675239 -0.57842577 2.3270001 -2.1022699e+38
-0.033242859 -0.57842577 2.3270001 -2.0889779e+38
-0.028810479 -0.57842577 2.3270001 -2.0756852e+38
-0.024378097 -0.57842577 2.3270001 -2.0889249e+38
-0.019945716 -0.57842577 2.3270001 -2.1022174e+38
-0.015513334 -0.57842577 2.3270001 -2.1022174e+38
-0.011080953 -0.57842577 2.3270001 -2.1022687e+38
-0.0066485717 -0.57842577 2.3270001 -2.1022162e+38
-0.0022161906 -0.57842577 2.3270001 -2.1154571e+38
0.0022314286 -0.58240288 2.3430002 -2.1288537e+38
0.0066942861 -0.58240288 2.3430002 -2.1422496e+38
0.011157144 -0.58240288 2.3430002 -2.1421973e+38
0.015620001 -0.58240288 2.3430002 -2.1421975e+38
0.020082859 -0.58240288 2.3430002 -2.1156648e+38
0.024545716 -0.58240288 2.3430002 -2.1023722e+38
0.029008573 -0.58240288 2.3430002 -2.0890273e+38
0.033471432 -0.58240288 2.3430002 -2.0756831e+38
0.037934288 -0.58240288 2.3430002 -2.0623909e+38
0.042397145 -0.58240288 2.3430002 -2.0357548e+38
0.046860002 -0.58240288 2.3430002 -2.035755e+38
0.051322859 -0.58240288 2.3430002 -2.035755e+38
0.056166671 -0.58638006 2.3590002 -2.0756318e+38
0.060660005 -0.58638006 2.3590002 -2.1154567e+38
0.065153338 -0.58638006 2.3590002 -2.128749e+38
0.06917429 -0.58240288 2.3430002 -2.1288011e+38
0.07363715 -0.58240288 2.3430002 -2.1421454e+38
0.078100003 -0.58240288 2.3430002 -2.155438e+38
0.082562864 -0.58240288 2.3430002 -2.1820749e+38
0.086431436 -0.57842577 2.3270001 -2.208712e+38
0.090863816 -0.57842577 2.3270001 -2.2087643e+38
0.094681911 -0.5746972 2.312 -2.222057e+38
0.099085718 -0.5746972 2.312 -2.2221611e+38
0.10348953 -0.5746972 2.312 -2.222213e+38
0.10719334 -0.57096863 2.2970002 -2.2355053e+38
0.11156858 -0.57096863 2.2970002 -2.2355574e+38
0.11594382 -0.57096863 2.2970002 -2.2489016e+38
0.12031905 -0.57096863 2.2970002 -2.2755902e+38
0.1246943 -0.57096863 2.2970002 -2.2889344e+38
0.12906954 -0.57096863 2.2970002 -2.3023827e+38
0.13344477 -0.57096863 2.2970002 -2.3290713e+38
0.13782001 -0.57096863 2.2970002 -2.3558643e+38
0.14219525 -0.57096863 2.2970002 -2.409086e+38
0.14657049 -0.57096863 2.2970002 -2.4490675e+38
0.15094572 -0.57096863 2.2970002 -2.4624644e+38
0.15633525 -0.5746972 2.312 -2.4759662e+38
0.15969621 -0.57096863 2.2970002 -2.515793e+38
0.16514286 -0.5746972 2.312 -2.5691199e+38
0.16954668 -0.5746972 2.312 -2.583245e+38
0.17395049 -0.5746972 2.312 -2.6102982e+38
0.17951144 -0.57842577 2.3270001 -2.7170012e+38
0.18394382 -0.57842577 2.3270001 -2.8238588e+38
0.1883762 -0.57842577 2.3270001 -2.5167864e+38
0.19280858 -0.57842577 2.3270001 -2.2235859e+38
0.19724096 -0.57842577 2.3270001 -3.3988189e+38
0.20306002 -0.58240288 2.3430002 nan
-0.26490003 -0.65342003 2.6490002 nan
-0.25985432 -0.65342003 2.6490002 nan
-0.25288478 -0.64848673 2.6290002 nan
-0.24787717 -0.64848673 2.6290002 nan
-0.24102192 -0.64355338 2.6090002 nan
-0.23605239 -0.64355338 2.6090002 nan
-0.23108287 -0.64355338 2.6090002 nan
-0.22611335 -0.64355338 2.6090002 nan
-0.21944858 -0.63862002 2.5890002 nan
-0.21451716 -0.63862002 2.5890002 -2.6053491e+38
-0.20650953 -0.62924671 2.5510001 -1.7155477e+38
-0.19872573 -0.62012005 2.5140002 -2.0097978e+38
-0.19254859 -0.61568004 2.4960001 -2.3021241e+38
-0.18644001 -0.61124003 2.4780002 -2.3151048e+38
-0.18040001 -0.60680002 2.46 -2.3153646e+38
-0.1757143 -0.60680002 2.46 -2.3156245e+38
-0.17102858 -0.60680002 2.46 -2.3024354e+38
-0.16634287 -0.60680002 2.46 -2.3023312e+38
-0.16165715 -0.60680002 2.46 -2.288934e+38
-0.15588668 -0.60260671 2.4430001 -2.2755369e+38
-0.15123335 -0.60260671 2.4430001 -2.2487957e+38
-0.14658001 -0.60260671 2.4430001 -2.2221065e+38
-0.14192668 -0.60260671 2.4430001 -2.1822297e+38
-0.1363181 -0.59841335 2.4260001 -2.2088144e+38
-0.13169715 -0.59841335 2.4260001 -2.222055e+38
-0.12707619 -0.59841335 2.4260001 -2.1953666e+38
-0.12245525 -0.59841335 2.4260001 -2.168782e+38
-0.11700858 -0.59422004 2.4090002 -2.168834e+38
-0.11162668 -0.59002668 2.3920002 -2.168834e+38
-0.10707048 -0.59002668 2.3920002 -2.1688338e+38
-0.10251429 -0.59002668 2.3920002 -2.1688344e+38
-0.097958103 -0.59002668 2.3920002 -2.1289579e+38
-0.092777148 -0.58608001 2.3760002 -2.0891328e+38
-0.088251434 -0.58608001 2.3760002 -2.1290097e+38
-0.083725721 -0.58608001 2.3760002 -2.1556459e+38
-0.079200007 -0.58608001 2.3760002 -2.1556977e+38
-0.074140005 -0.58188671 2.3590002 -2.1556974e+38
-0.069646671 -0.58188671 2.3590002 -2.1290608e+38
-0.065153338 -0.58188671 2.3590002 -2.1024762e+38
-0.060248576 -0.57794005 2.3430002 -2.1024762e+38
-0.055785719 -0.57794005 2.3430002 -2.089132e+38
-0.051322859 -0.57794005 2.3430002 -2.1023726e+38
-0.046540003 -0.57399338 2.3270001 -2.1156131e+38
-0.042107623 -0.57399338 2.3270001 -2.1155614e+38
-0.037675239 -0.57399338 2.3270001 -2.1155614e+38
-0.033242859 -0.57399338 2.3270001 -2.0890288e+38
-0.028810479 -0.57399338 2.3270001 -2.0623402e+38
-0.024378097 -0.57399338 2.3270001 -2.0755805e+38
-0.019945716 -0.57399338 2.3270001 -2.0755803e+38
-0.015513334 -0.57399338 2.3270001 -2.0755284e+38
-0.011080953 -0.57399338 2.3270001 -2.06234e+38
-0.0066485717 -0.57399338 2.3270001 -2.0755803e+38
-0.0022161906 -0.57399338 2.3270001 -2.0756844e+38
0.0022314286 -0.57794005 2.3430002 -2.102321e+38
0.0066942861 -0.57794005 2.3430002 -2.1289054e+38
0.011157144 -0.57794005 2.3430002 -2.1288014e+38
0.015620001 -0.57794005 2.3430002 -2.1288011e+38
0.020082859 -0.57794005 2.3430002 -2.1022164e+38
0.024545716 -0.57794005 2.3430002 -2.0623911e+38
0.029008573 -0.57794005 2.3430002 -2.0490465e+38
0.033471432 -0.57794005 2.3430002 -2.035754e+38
0.037934288 -0.57794005 2.3430002 -2.0358059e+38
0.042397145 -0.57794005 2.3430002 -2.0358059e+38
0.046860002 -0.57794005 2.3430002 -2.0358057e+38
0.051322859 -0.57794005 2.3430002 -2.0357538e+38
0.056166671 -0.58188671 2.3590002 -2.0889746e+38
0.060660005 -0.58188671 2.3590002 -2.1287999e+38
0.064711429 -0.57794005 2.3430002 -2.1288003e+38
0.06917429 -0.57794005 2.3430002 -2.1155083e+38
0.07363715 -0.57794005 2.3430002 -2.1420932e+38
0.078100003 -0.57794005 2.3430002 -2.1554376e+38
0.082562864 -0.57794005 2.3430002 -2.1687822e+38
0.086431436 -0.57399338 2.3270001 -2.1821266e+38
0.090863816 -0.57399338 2.3270001 -2.1954191e+38
0.094681911 -0.57029337 2.312 -2.2088159e+38
0.099085718 -0.57029337 2.312 -2.2088163e+38
0.10348953 -0.57029337 2.312 -2.1955757e+38
0.10789334 -0.57029337 2.312 -2.2221601e+38
0.11156858 -0.56659335 2.2970002 -2.2355045e+38
0.11594382 -0.56659335 2.2970002 -2.2487448e+38
0.12110477 -0.57029337 2.312 -2.2489529e+38
0.1246943 -0.56659335 2.2970002 -2.2622456e+38
0.12906954 -0.56659335 2.2970002 -2.2757462e+38
0.13344477 -0.56659335 2.2970002 -2.3024352e+38
0.13782001 -0.56659335 2.2970002 -2.3158321e+38
0.14219525 -0.56659335 2.2970002 -2.3823461e+38
0.14657049 -0.56659335 2.2970002 -2.4356196e+38
0.15094572 -0.56659335 2.2970002 -2.4489645e+38
0.15532096 -0.56659335 2.2970002 -2.4624137e+38
0.15969621 -0.56659335 2.2970002 -2.4889997e+38
0.16407144 -0.56659335 2.2970002 -2.5159498e+38
0.16954668 -0.57029337 2.312 -2.5298671e+38
0.17282191 -0.56659335 2.2970002 -2.5301801e+38
0.17835429 -0.57029337 2.312 -2.6366236e+38
0.18275811 -0.57029337 2.312 -2.7434283e+38
0.18716192 -0.57029337 2.312 -2.6233295e+38
0.19156572 -0.57029337 2.312 -2.491247e+38
0.19724096 -0.57399338 2.3270001 nan
0.20167334 -0.57399338 2.3270001 nan
-0.25985432 -0.64837432 2.6490002 nan
-0.25480857 -0.64837432 2.6490002 nan
-0.24787717 -0.64347911 2.6290002 nan
-0.24286954 -0.64347911 2.6290002 nan
-0.23605239 -0.63858384 2.6090002 nan
-0.23108287 -0.63858384 2.6090002 nan
-0.22611335 -0.63858384 2.6090002 nan
-0.21944858 -0.63368863 2.5890002 -2.7725048e+38
-0.21451716 -0.63368863 2.5890002 -2.2621906e+38
-0.20804763 -0.62903816 2.5700002 -1.768198e+38
-0.20165049 -0.62438768 2.5510001 -2.0490515e+38
-0.19393715 -0.61533147 2.5140002 -2.3286571e+38
-0.18644001 -0.60652006 2.4780002 -2.3286056e+38
-0.18040001 -0.60211432 2.46 -2.3288137e+38
-0.1757143 -0.60211432 2.46 -2.3158334e+38
-0.17102858 -0.60211432 2.46 -2.3026958e+38
-0.16634287 -0.60211432 2.46 -2.2891427e+38
-0.16165715 -0.60211432 2.46 -2.2889861e+38
-0.15588668 -0.59795338 2.4430001 -2.2621412e+38
-0.15123335 -0.59795338 2.4430001 -2.2485884e+38
-0.14658001 -0.59795338 2.4430001 -2.222055e+38
-0.14192668 -0.59795338 2.4430001 -2.1953668e+38
-0.13727334 -0.59795338 2.4430001 -2.1954706e+38
-0.13169715 -0.59379244 2.4260001 -2.2087106e+38
-0.12707619 -0.59379244 2.4260001 -2.1820737e+38
-0.12245525 -0.59379244 2.4260001 -2.1686774e+38
-0.11700858 -0.58963144 2.4090002 -2.168781e+38
-0.11162668 -0.5854705 2.3920002 -2.182125e+38
-0.10707048 -0.5854705 2.3920002 -2.1688323e+38
-0.10251429 -0.5854705 2.3920002 -2.1687814e+38
-0.097958103 -0.5854705 2.3920002 -2.1555421e+38
-0.092777148 -0.58155435 2.3760002 -2.14225e+38
-0.088251434 -0.58155435 2.3760002 -2.1423019e+38
-0.083725721 -0.58155435 2.3760002 -2.155594e+38
-0.079200007 -0.58155435 2.3760002 -2.1424054e+38
-0.074140005 -0.57739335 2.3590002 -2.1424571e+38
-0.069646671 -0.57739335 2.3590002 -2.1291127e+38
-0.065153338 -0.57739335 2.3590002 -2.1157162e+38
-0.060248576 -0.57347721 2.3430002 -2.1157157e+38
-0.055785719 -0.57347721 2.3430002 -2.1289563e+38
-0.051322859 -0.57347721 2.3430002 -2.1421967e+38
-0.046540003 -0.569561 2.3270001 -2.1554372e+38
-0.042107623 -0.569561 2.3270001 -2.1554374e+38
-0.037675239 -0.569561 2.3270001 -2.1421451e+38
-0.033242859 -0.569561 2.3270001 -2.1022162e+38
-0.028810479 -0.569561 2.3270001 -2.0622876e+38
-0.024378097 -0.569561 2.3270001 -2.0622878e+38
-0.019945716 -0.569561 2.3270001 -2.0622357e+38
-0.015513334 -0.569561 2.3270001 -2.0489951e+38
-0.011080953 -0.569561 2.3270001 -2.0490477e+38
-0.0066485717 -0.569561 2.3270001 -2.0491e+38
-0.0022161906 -0.569561 2.3270001 -2.0358596e+38
0.0022314286 -0.57347721 2.3430002 -2.0623923e+38
0.0066942861 -0.57347721 2.3430002 -2.0757363e+38
0.011157144 -0.57347721 2.3430002 -2.0889245e+38
0.015620001 -0.57347721 2.3430002 -2.1021645e+38
0.020082859 -0.57347721 2.3430002 -2.0755793e+38
0.024545716 -0.57347721 2.3430002 -2.0623387e+38
0.029008573 -0.57347721 2.3430002 -2.0623383e+38
0.033471432 -0.57347721 2.3430002 -2.0622864e+38
0.037934288 -0.57347721 2.3430002 -2.0623381e+38
0.042397145 -0.57347721 2.3430002 -2.0756819e+38
0.046860002 -0.57347721 2.3430002 -2.0756294e+38
0.051322859 -0.57347721 2.3430002 -2.0755773e+38
0.055785719 -0.57347721 2.3430002 -2.1021616e+38
0.060660005 -0.57739335 2.3590002 -2.1287989e+38
0.064711429 -0.57347721 2.3430002 -2.1287995e+38
0.06917429 -0.57347721 2.3430002 -2.1288521e+38
0.07363715 -0.57347721 2.3430002 -2.1288007e+38
0.078100003 -0.57347721 2.3430002 -2.1289048e+38
0.082562864 -0.57347721 2.3430002 -2.1289048e+38
0.086431436 -0.569561 2.3270001 -2.142249e+38
0.090863816 -0.569561 2.3270001 -2.1555932e+38
0.094681911 -0.56588954 2.312 -2.1689901e+38
0.099085718 -0.56588954 2.312 -2.1689907e+38
0.10348953 -0.56588954 2.312 -2.1690423e+38
0.10789334 -0.56588954 2.312 -2.1823341e+38
0.11229715 -0.56588954 2.312 -2.2089189e+38
0.11594382 -0.56221813 2.2970002 -2.2356073e+38
0.12110477 -0.56588954 2.312 -2.2756405e+38
0.1246943 -0.56221813 2.2970002 -2.2756411e+38
0.12906954 -0.56221813 2.2970002 -2.2889865e+38
0.13344477 -0.56221813 2.2970002 -2.315676e+38
0.13782001 -0.56221813 2.2970002 -2.3423652e+38
0.14219525 -0.56221813 2.2970002 -2.3822426e+38
0.14657049 -0.56221813 2.2970002 -2.4089314e+38
0.15094572 -0.56221813 2.2970002 -2.4355683e+38
0.15532096 -0.56221813 2.2970002 -2.4623095e+38
0.15969621 -0.56221813 2.2970002 -2.4888946e+38
0.16407144 -0.56221813 2.2970002 -2.5155853e+38
0.16844667 -0.56221813 2.2970002 -2.5161065e+38
0.17282191 -0.56221813 2.2970002 -2.5299197e+38
0.17835429 -0.56588954 2.312 -2.6366747e+38
0.18275811 -0.56588954 2.312 -2.7569265e+38
0.18716192 -0.56588954 2.312 -2.5430537e+38
0.19156572 -0.56588954 2.312 -2.3427457e+38
0.19596954 -0.56588954 2.312 nan
0.20167334 -0.569561 2.3270001 nan
-0.25985432 -0.64332861 2.6490002 nan
-0.25480857 -0.64332861 2.6490002 nan
-0.24787717 -0.63847148 2.6290002 nan
-0.24286954 -0.63847148 2.6290002 nan
-0.23605239 -0.6336143 2.6090002 nan
-0.23108287 -0.6336143 2.6090002 nan
-0.22438002 -0.62875718 2.5890002 -3.3163559e+38
-0.21944858 -0.62875718 2.5890002 -2.0254351e+38
-0.21451716 -0.62875718 2.5890002 -1.9159695e+38
-0.20804763 -0.62414289 2.5700002 -1.8095282e+38
-0.20165049 -0.61952859 2.5510001 -2.0762575e+38
-0.19532573 -0.6149143 2.5320001 -2.3417401e+38
-0.1877943 -0.60617149 2.4960001 -2.3417407e+38
-0.18172002 -0.60180002 2.4780002 -2.3421569e+38
-0.1757143 -0.59742862 2.46 -2.3293846e+38
-0.17102858 -0.59742862 2.46 -2.3025395e+38
-0.16634287 -0.59742862 2.46 -2.2890906e+38
-0.16054001 -0.59330004 2.4430001 -2.2755381e+38
-0.15588668 -0.59330004 2.4430001 -2.2619858e+38
-0.15123335 -0.59330004 2.4430001 -2.2487446e+38
-0.14658001 -0.59330004 2.4430001 -2.2221593e+38
-0.14192668 -0.59330004 2.4430001 -2.1955228e+38
-0.13727334 -0.59330004 2.4430001 -2.1955226e+38
-0.13262001 -0.59330004 2.4430001 -2.182126e+38
-0.12707619 -0.58917147 2.4260001 -2.1820739e+38
-0.12245525 -0.58917147 2.4260001 -2.1687293e+38
-0.11700858 -0.58504289 2.4090002 -2.1820212e+38
-0.11242001 -0.58504289 2.4090002 -2.182125e+38
-0.10707048 -0.58091432 2.3920002 -2.1688327e+38
-0.10251429 -0.58091432 2.3920002 -2.155593e+38
-0.097958103 -0.58091432 2.3920002 -2.182178e+38
-0.092777148 -0.57702863 2.3760002 -2.1955224e+38
-0.088251434 -0.57702863 2.3760002 -2.1689901e+38
-0.083725721 -0.57702863 2.3760002 -2.1424054e+38
-0.079200007 -0.57702863 2.3760002 -2.1424571e+38
-0.074140005 -0.57290006 2.3590002 -2.1291646e+38
-0.069646671 -0.57290006 2.3590002 -2.1291123e+38
-0.065153338 -0.57290006 2.3590002 -2.1290604e+38
-0.060248576 -0.56901431 2.3430002 -2.1423007e+38
-0.055785719 -0.56901431 2.3430002 -2.1555407e+38
-0.051322859 -0.56901431 2.3430002 -2.1820731e+38
-0.046540003 -0.56512862 2.3270001 -2.1953135e+38
-0.042107623 -0.56512862 2.3270001 -2.1819693e+38
-0.037675239 -0.56512862 2.3270001 -2.168625e+38
-0.033242859 -0.56512862 2.3270001 -2.1154559e+38
-0.028810479 -0.56512862 2.3270001 -2.0622351e+38
-0.024378097 -0.56512862 2.3270001 -2.0489432e+38
-0.019945716 -0.56512862 2.3270001 -2.0357546e+38
-0.015513334 -0.56512862 2.3270001 -2.0358065e+38
-0.011080953 -0.56512862 2.3270001 -2.0358069e+38
-0.0066485717 -0.56512862 2.3270001 -2.022567e+38
-0.0022161906 -0.56512862 2.3270001 -1.9958786e+38
0.0022314286 -0.56901431 2.3430002 -2.009067e+38
0.0066942861 -0.56901431 2.3430002 -2.022411e+38
0.011157144 -0.56901431 2.3430002 -2.0489951e+38
0.015620001 -0.56901431 2.3430002 -2.062287e+38
0.020082859 -0.56901431 2.3430002 -2.0622347e+38
0.024545716 -0.56901431 2.3430002 -2.0489941e+38
0.029008573 -0.56901431 2.3430002 -2.0623381e+38
0.033471432 -0.56901431 2.3430002 -2.0755785e+38
0.037934288 -0.56901431 2.3430002 -2.1021113e+38
0.042397145 -0.56901431 2.3430002 -2.1154551e+38
0.046860002 -0.56901431 2.3430002 -2.1154549e+38
0.051322859 -0.56901431 2.3430002 -2.1153507e+38
0.056166671 -0.57290006 2.3590002 -2.1285906e+38
0.060660005 -0.57290006 2.3590002 -2.1286431e+38
0.065153338 -0.57290006 2.3590002 -2.128644e+38
0.06917429 -0.56901431 2.3430002 -2.1287482e+38
0.07363715 -0.56901431 2.3430002 -2.1154046e+38
0.078100003 -0.56901431 2.3430002 -2.102216e+38
0.081999056 -0.56512862 2.3270001 -2.1022677e+38
0.086431436 -0.56512862 2.3270001 -2.0890795e+38
0.090278104 -0.56148577 2.312 -2.1157681e+38
0.094681911 -0.56148577 2.312 -2.1291127e+38
0.099085718 -0.56148577 2.312 -2.1423537e+38
0.10348953 -0.56148577 2.312 -2.1424573e+38
0.10789334 -0.56148577 2.312 -2.1558013e+38
0.11156858 -0.55784291 2.2970002 -2.1691457e+38
0.11594382 -0.55784291 2.2970002 -2.2356071e+38
0.12031905 -0.55784291 2.2970002 -2.2888807e+38
0.1246943 -0.55784291 2.2970002 -2.3021736e+38
0.12906954 -0.55784291 2.2970002 -2.3022265e+38
0.13251525 -0.55395716 2.2810001 -2.3421044e+38
0.13686001 -0.55395716 2.2810001 -2.3687416e+38
0.14219525 -0.55784291 2.2970002 -2.3820347e+38
0.14657049 -0.55784291 2.2970002 -2.3821388e+38
0.15094572 -0.55784291 2.2970002 -2.4220676e+38
0.15532096 -0.55784291 2.2970002 -2.4488083e+38
