# .PCD v0.7 - Point Cloud Data file format
VERSION 0.7
FIELDS x y z rgb
SIZE 4 4 4 4
TYPE F F F F
COUNT 1 1 1 1
WIDTH 1073
HEIGHT 1
VIEWPOINT 0 0 0 1 0 0 0
POINTS 1073
DATA ascii
2.8837495 0.98741412 1.5858216 -2.5286611e+38
2.8837371 0.98229039 1.5858216 -2.5287133e+38
2.8627052 0.968997 1.5831217 -2.5022328e+38
2.8626928 0.9639132 1.5831217 -2.4755963e+38
2.8626807 0.9588294 1.5831217 -2.4757003e+38
2.8626685 0.9537456 1.5831217 -2.4622521e+38
2.8426378 0.94103372 1.5805502 -2.4885768e+38
2.8426256 0.93598807 1.5805502 -2.5152133e+38
2.8426135 0.9309423 1.5805502 -2.5151097e+38
2.8426015 0.9258967 1.5805502 -2.5151612e+38
2.8425894 0.92085093 1.5805502 -2.5152129e+38
2.8425772 0.91580522 1.5805502 -2.5018687e+38
2.8425651 0.91075957 1.5805502 -2.4752843e+38
2.8425529 0.90571386 1.5805502 -2.4354077e+38
2.8425407 0.90066814 1.5805502 -2.4088235e+38
2.8425286 0.89562243 1.5805502 -2.3688946e+38
2.8425164 0.89057678 1.5805502 -2.3821869e+38
2.8425045 0.88553107 1.5805502 -2.3821867e+38
2.8424923 0.88048536 1.5805502 -2.3688425e+38
2.8424802 0.87543964 1.5805502 -2.35555e+38
2.842468 0.87039399 1.5805502 -2.3554978e+38
2.8424559 0.86534828 1.5805502 -2.3554976e+38
2.8424437 0.86030257 1.5805502 -2.3686861e+38
2.8424315 0.85525686 1.5805502 -2.3686337e+38
2.8424194 0.8502112 1.5805502 -2.3552893e+38
2.8424075 0.84516549 1.5805502 -2.3286009e+38
2.8423953 0.84011972 1.5805502 -2.3020164e+38
2.8223665 0.828246 1.5779788 -2.2754835e+38
2.8223546 0.82323837 1.5779788 -2.2888275e+38
2.8223424 0.81823075 1.5779788 -2.2888793e+38
2.8223305 0.81322312 1.5779788 -2.2889312e+38
2.8223183 0.80821556 1.5779788 -2.275691e+38
2.8223064 0.80320799 1.5779788 -2.3023277e+38
2.8222942 0.79820037 1.5779788 -2.3156204e+38
2.8222823 0.79319274 1.5779788 -2.3156208e+38
2.8422861 0.79470843 1.5805502 -2.315621e+38
2.842274 0.78966272 1.5805502 -2.3289135e+38
2.8422618 0.78461707 1.5805502 -2.3289652e+38
2.8422496 0.77957135 1.5805502 -2.3157766e+38
2.8422375 0.77452564 1.5805502 -2.3023804e+38
2.8422253 0.76947993 1.5805502 -2.3423092e+38
2.8422132 0.76443428 1.5805502 -2.3687378e+38
2.8622162 0.76564521 1.5831217 -2.3686339e+38
2.8622041 0.76056141 1.5831217 -2.3686339e+38
2.8621919 0.75547761 1.5831217 -2.3819262e+38
2.8621795 0.75039381 1.5831217 -2.3819779e+38
2.8621674 0.74531001 1.5831217 -2.381926e+38
2.8421404 0.73416007 1.5805502 -2.3819258e+38
2.8421283 0.72911435 1.5805502 -2.3553413e+38
2.8421161 0.72406864 1.5805502 -2.3154127e+38
2.8421042 0.71902293 1.5805502 -2.3020687e+38
2.842092 0.71397722 1.5805502 -2.2887764e+38
2.8420799 0.70893151 1.5805502 -2.3020687e+38
2.8420677 0.70388585 1.5805502 -2.3153089e+38
2.8420556 0.69884014 1.5805502 -2.3152565e+38
2.8420434 0.69379443 1.5805502 -2.3020164e+38
2.8420312 0.68874872 1.5805502 -2.3153608e+38
2.8220055 0.67801785 1.5779788 -2.3153608e+38
2.8420069 0.67865735 1.5805502 -2.3286009e+38
2.841995 0.67361164 1.5805502 -2.3418934e+38
2.8419828 0.66856593 1.5805502 -2.3418417e+38
2.8419707 0.66352028 1.5805502 -2.3419453e+38
2.8419585 0.65847456 1.5805502 -2.3553413e+38
2.8619597 0.65888548 1.5831217 -2.3686333e+38
2.8619473 0.65380168 1.5831217 -2.3818735e+38
2.8619351 0.64871788 1.5831217 -2.3951143e+38
2.861923 0.64363408 1.5831217 -2.4083031e+38
2.8829241 0.6441198 1.5858216 -2.4084067e+38
2.8829119 0.63899601 1.5858216 -2.3950106e+38
2.8828995 0.63387221 1.5858216 -2.3817701e+38
2.8828871 0.62874842 1.5858216 -2.3817699e+38
2.882875 0.62362462 1.5858216 -2.3817699e+38
2.9038756 0.62387031 1.5885217 -2.3817696e+38
2.903863 0.61870658 1.5885217 -2.3817696e+38
2.9038506 0.61354274 1.5885217 -2.3949581e+38
2.9038382 0.60837895 1.5885217 -2.3951143e+38
2.9258389 0.60867274 1.5913502 -2.4482838e+38
2.9048562 1.03181 1.5833578 nan
2.9048438 1.0266464 1.5833578 nan
2.9048314 1.0214826 1.5833578 nan
2.8837988 1.0079093 1.5806978 nan
2.8837864 1.0027856 1.5806978 -3.3014832e+38
2.883774 0.99766171 1.5806978 -2.887341e+38
2.8837619 0.99253786 1.5806978 -2.4882109e+38
2.8627295 0.9791646 1.5780379 -2.5152125e+38
2.8627174 0.9740808 1.5780379 -2.5551934e+38
2.8627052 0.968997 1.5780379 -2.5153167e+38
2.8626928 0.9639132 1.5780379 -2.4886805e+38
2.8626807 0.9588294 1.5780379 -2.4620959e+38
2.8626685 0.9537456 1.5780379 -2.4487515e+38
2.8426378 0.94103372 1.5755045 -2.4619914e+38
2.8426256 0.93598807 1.5755045 -2.4752318e+38
2.8426135 0.9309423 1.5755045 -2.4752837e+38
2.8426015 0.9258967 1.5755045 -2.4885758e+38
2.8425894 0.92085093 1.5755045 -2.4886275e+38
2.8425772 0.91580522 1.5755045 -2.488576e+38
2.8425651 0.91075957 1.5755045 -2.4486994e+38
2.8425529 0.90571386 1.5755045 -2.4220633e+38
2.8425407 0.90066814 1.5755045 -2.4087714e+38
2.8425286 0.89562243 1.5755045 -2.3954791e+38
2.8425164 0.89057678 1.5755045 -2.3821867e+38
2.8224869 0.87832201 1.5729711 -2.3822386e+38
2.8424923 0.88048536 1.5755045 -2.3688942e+38
2.8424802 0.87543964 1.5755045 -2.3555496e+38
2.842468 0.87039399 1.5755045 -2.342205e+38
2.8424559 0.86534828 1.5755045 -2.3422048e+38
2.8424437 0.86030257 1.5755045 -2.3421526e+38
2.8424315 0.85525686 1.5755045 -2.355393e+38
2.8424194 0.8502112 1.5755045 -2.3419967e+38
2.8424075 0.84516549 1.5755045 -2.3418411e+38
2.8423953 0.84011972 1.5755045 -2.3286009e+38
2.8223665 0.828246 1.5729711 -2.3020164e+38
2.8223546 0.82323837 1.5729711 -2.3021719e+38
2.8223424 0.81823075 1.5729711 -2.2889316e+38
2.8223305 0.81322312 1.5729711 -2.2890874e+38
2.8223183 0.80821556 1.5729711 -2.3024318e+38
2.8223064 0.80320799 1.5729711 -2.3157242e+38
2.8222942 0.79820037 1.5729711 -2.3289129e+38
2.8222823 0.79319274 1.5729711 -2.3422052e+38
2.8422861 0.79470843 1.5755045 -2.3422054e+38
2.842274 0.78966272 1.5755045 -2.3422575e+38
2.8422618 0.78461707 1.5755045 -2.3423092e+38
2.8422496 0.77957135 1.5755045 -2.3289646e+38
2.8422375 0.77452564 1.5755045 -2.3288612e+38
2.8622408 0.77581275 1.5780379 -2.3422056e+38
2.8622284 0.77072895 1.5780379 -2.3553938e+38
2.8622162 0.76564521 1.5780379 -2.3553936e+38
2.8622041 0.76056141 1.5780379 -2.3553417e+38
2.8621919 0.75547761 1.5780379 -2.3686339e+38
2.8421648 0.74425149 1.5755045 -2.3819262e+38
2.8621674 0.74531001 1.5780379 -2.3818741e+38
2.8421404 0.73416007 1.5755045 -2.3818741e+38
2.8421283 0.72911435 1.5755045 -2.3552376e+38
2.8421161 0.72406864 1.5755045 -2.3286013e+38
2.8421042 0.71902293 1.5755045 -2.3020168e+38
2.842092 0.71397722 1.5755045 -2.2886728e+38
2.8420799 0.70893151 1.5755045 -2.2887249e+38
2.8420677 0.70388585 1.5755045 -2.3020168e+38
2.8420556 0.69884014 1.5755045 -2.2887239e+38
2.8420434 0.69379443 1.5755045 -2.2754839e+38
2.8420312 0.68874872 1.5755045 -2.2887764e+38
2.8420191 0.68370306 1.5755045 -2.3021206e+38
2.8420069 0.67865735 1.5755045 -2.315361e+38
2.841995 0.67361164 1.5755045 -2.3286533e+38
2.8419828 0.66856593 1.5755045 -2.3419453e+38
2.8419707 0.66352028 1.5755045 -2.3552893e+38
2.8419585 0.65847456 1.5755045 -2.3686331e+38
2.8419464 0.65342885 1.5755045 -2.3952696e+38
2.8419342 0.64838314 1.5755045 -2.40851e+38
2.8619351 0.64871788 1.5780379 -2.4216988e+38
2.861923 0.64363408 1.5780379 -2.4217509e+38
2.8829241 0.6441198 1.5806978 -2.4218029e+38
2.8829119 0.63899601 1.5806978 -2.4217507e+38
2.8828995 0.63387221 1.5806978 -2.4084061e+38
2.8828871 0.62874842 1.5806978 -2.4084057e+38
2.882875 0.62362462 1.5806978 -2.4083019e+38
2.9038756 0.62387031 1.5833578 -2.4083538e+38
2.903863 0.61870658 1.5833578 -2.3950096e+38
2.9038506 0.61354274 1.5833578 -2.3950613e+38
2.9038382 0.60837895 1.5833578 -2.3951656e+38
2.9048562 1.03181 1.578194 nan
2.9048438 1.0266464 1.578194 nan
2.9048314 1.0214826 1.578194 nan
2.904819 1.0163188 1.578194 nan
2.9048066 1.011155 1.578194 -3.3408909e+38
2.883774 0.99766171 1.575574 -2.8864039e+38
2.8837619 0.99253786 1.575574 -2.4349885e+38
2.8627295 0.9791646 1.5729541 -2.5019719e+38
2.8837371 0.98229039 1.575574 -2.5683816e+38
2.8627052 0.968997 1.5729541 -2.5284013e+38
2.8626928 0.9639132 1.5729541 -2.4885764e+38
2.8626807 0.9588294 1.5729541 -2.4618882e+38
2.8626685 0.9537456 1.5729541 -2.4221669e+38
2.8426378 0.94103372 1.5704588 -2.4221667e+38
2.8426256 0.93598807 1.5704588 -2.4222187e+38
2.8426135 0.9309423 1.5704588 -2.4488553e+38
2.8426015 0.9258967 1.5704588 -2.4620953e+38
2.8425894 0.92085093 1.5704588 -2.4753874e+38
2.8425772 0.91580522 1.5704588 -2.4752839e+38
2.8425651 0.91075957 1.5704588 -2.4353556e+38
2.8425529 0.90571386 1.5704588 -2.3954787e+38
2.8425407 0.90066814 1.5704588 -2.4087712e+38
2.8425286 0.89562243 1.5704588 -2.4220116e+38
2.822499 0.88332963 1.5679636 -2.3953751e+38
2.8224869 0.87832201 1.5679636 -2.3688422e+38
2.8424923 0.88048536 1.5704588 -2.368842e+38
2.8424802 0.87543964 1.5704588 -2.3554974e+38
2.842468 0.87039399 1.5704588 -2.342205e+38
2.8424559 0.86534828 1.5704588 -2.3155683e+38
2.8424437 0.86030257 1.5704588 -2.3288084e+38
2.8424315 0.85525686 1.5704588 -2.3288082e+38
2.8424194 0.8502112 1.5704588 -2.3419967e+38
2.8424075 0.84516549 1.5704588 -2.3552889e+38
2.8423953 0.84011972 1.5704588 -2.3419967e+38
2.8223665 0.828246 1.5679636 -2.3287563e+38
2.8223546 0.82323837 1.5679636 -2.3155159e+38
2.8223424 0.81823075 1.5679636 -2.2890874e+38
2.8223305 0.81322312 1.5679636 -2.3025875e+38
2.8223183 0.80821556 1.5679636 -2.3157762e+38
2.8223064 0.80320799 1.5679636 -2.3291206e+38
2.8222942 0.79820037 1.5679636 -2.3422571e+38
2.8222823 0.79319274 1.5679636 -2.3554976e+38
2.8422861 0.79470843 1.5704588 -2.3688418e+38
2.842274 0.78966272 1.5704588 -2.3556015e+38
2.8422618 0.78461707 1.5704588 -2.3422573e+38
2.8422496 0.77957135 1.5704588 -2.3555496e+38
2.8422375 0.77452564 1.5704588 -2.3554976e+38
2.8422253 0.76947993 1.5704588 -2.3554978e+38
2.8622284 0.77072895 1.5729541 -2.3421534e+38
2.8622162 0.76564521 1.5729541 -2.3421013e+38
2.8622041 0.76056141 1.5729541 -2.3420492e+38
2.8421769 0.74929714 1.5704588 -2.3685818e+38
2.8421648 0.74425149 1.5704588 -2.3818222e+38
2.8421526 0.73920578 1.5704588 -2.3817185e+38
2.8421404 0.73416007 1.5704588 -2.3817703e+38
2.8421283 0.72911435 1.5704588 -2.3550818e+38
2.8421161 0.72406864 1.5704588 -2.3285492e+38
2.8421042 0.71902293 1.5704588 -2.3152569e+38
2.842092 0.71397722 1.5704588 -2.2886724e+38
2.8420799 0.70893151 1.5704588 -2.2886207e+38
2.8420677 0.70388585 1.5704588 -2.2753801e+38
2.8420556 0.69884014 1.5704588 -2.2621397e+38
2.8420434 0.69379443 1.5704588 -2.2356073e+38
2.8420312 0.68874872 1.5704588 -2.2621401e+38
2.8420191 0.68370306 1.5704588 -2.2754843e+38
2.8420069 0.67865735 1.5704588 -2.2887766e+38
2.841995 0.67361164 1.5704588 -2.3021206e+38
2.8419828 0.66856593 1.5704588 -2.3419973e+38
2.8419707 0.66352028 1.5704588 -2.3686335e+38
2.8419585 0.65847456 1.5704588 -2.3952698e+38
2.8419464 0.65342885 1.5704588 -2.4085623e+38
2.8419342 0.64838314 1.5704588 -2.4350949e+38
2.8619351 0.64871788 1.5729541 -2.4483874e+38
2.861923 0.64363408 1.5729541 -2.4484396e+38
2.8829241 0.6441198 1.575574 -2.4351992e+38
2.8829119 0.63899601 1.575574 -2.4352509e+38
2.8828995 0.63387221 1.575574 -2.4351986e+38
2.8828871 0.62874842 1.575574 -2.4351463e+38
2.882875 0.62362462 1.575574 -2.4351463e+38
2.8828626 0.61850083 1.575574 -2.4218021e+38
2.8828502 0.61337703 1.575574 -2.4084579e+38
2.9038506 0.61354274 1.578194 -2.4084059e+38
2.9038382 0.60837895 1.578194 -2.3952177e+38
2.8838358 1.0232807 1.5704502 nan
2.9048438 1.0266464 1.5730302 nan
2.9048314 1.0214826 1.5730302 nan
2.8837988 1.0079093 1.5704502 nan
2.8837864 1.0027856 1.5704502 nan
2.883774 0.99766171 1.5704502 -2.9537454e+38
2.8837619 0.99253786 1.5704502 -2.4215909e+38
2.8837495 0.98741412 1.5704502 -2.5018158e+38
2.8837371 0.98229039 1.5704502 -2.5816737e+38
2.8627052 0.968997 1.5678703 -2.5683299e+38
2.8626928 0.9639132 1.5678703 -2.5416936e+38
2.8426621 0.95112503 1.5654131 -2.5019208e+38
2.8626685 0.9537456 1.5678703 -2.4621476e+38
2.8426378 0.94103372 1.5654131 -2.4621474e+38
2.8426256 0.93598807 1.5654131 -2.4621995e+38
2.8426135 0.9309423 1.5654131 -2.4620959e+38
2.8426015 0.9258967 1.5654131 -2.4753361e+38
2.8425894 0.92085093 1.5654131 -2.4752837e+38
2.8425772 0.91580522 1.5654131 -2.4751803e+38
2.8425651 0.91075957 1.5654131 -2.4353558e+38
2.8425529 0.90571386 1.5654131 -2.4088231e+38
2.8425407 0.90066814 1.5654131 -2.4087191e+38
2.8425286 0.89562243 1.5654131 -2.4087191e+38
2.822499 0.88332963 1.562956 -2.3953749e+38
2.8224869 0.87832201 1.562956 -2.3687382e+38
2.8424923 0.88048536 1.5654131 -2.3554455e+38
2.8424802 0.87543964 1.5654131 -2.3421013e+38
2.842468 0.87039399 1.5654131 -2.3288088e+38
2.8424559 0.86534828 1.5654131 -2.3155163e+38
2.8424437 0.86030257 1.5654131 -2.3155161e+38
2.8424315 0.85525686 1.5654131 -2.3288082e+38
2.8424194 0.8502112 1.5654131 -2.3421003e+38
2.8424075 0.84516549 1.5654131 -2.3421003e+38
2.8423953 0.84011972 1.5654131 -2.3421001e+38
2.8223665 0.828246 1.562956 -2.3421003e+38
2.8223546 0.82323837 1.562956 -2.3421522e+38
2.8223424 0.81823075 1.562956 -2.3422565e+38
2.8223305 0.81322312 1.562956 -2.3422567e+38
2.8223183 0.80821556 1.562956 -2.3554453e+38
2.8223064 0.80320799 1.562956 -2.3555494e+38
2.8222942 0.79820037 1.562956 -2.3554976e+38
2.8422983 0.79975414 1.5654131 -2.3688938e+38
2.8422861 0.79470843 1.5654131 -2.3688938e+38
2.842274 0.78966272 1.5654131 -2.3688416e+38
2.8622773 0.79106414 1.5678703 -2.3554976e+38
2.8622651 0.7859804 1.5678703 -2.3554978e+38
2.8422375 0.77452564 1.5654131 -2.3421536e+38
2.8622408 0.77581275 1.5678703 -2.3422056e+38
2.8622284 0.77072895 1.5678703 -2.3289131e+38
2.8622162 0.76564521 1.5678703 -2.3154646e+38
2.8622041 0.76056141 1.5678703 -2.3153608e+38
2.8421769 0.74929714 1.5654131 -2.3153606e+38
2.8421648 0.74425149 1.5654131 -2.3153608e+38
2.8421526 0.73920578 1.5654131 -2.3153091e+38
2.8421404 0.73416007 1.5654131 -2.3286011e+38
2.8421283 0.72911435 1.5654131 -2.3152567e+38
2.8421161 0.72406864 1.5654131 -2.3019645e+38
2.8421042 0.71902293 1.5654131 -2.3019125e+38
2.842092 0.71397722 1.5654131 -2.3152048e+38
2.8420799 0.70893151 1.5654131 -2.3019123e+38
2.8420677 0.70388585 1.5654131 -2.2886724e+38
2.8420556 0.69884014 1.5654131 -2.2754322e+38
2.8420434 0.69379443 1.5654131 -2.2754843e+38
2.8420312 0.68874872 1.5654131 -2.2621923e+38
2.8420191 0.68370306 1.5654131 -2.2622442e+38
2.8420069 0.67865735 1.5654131 -2.2888288e+38
2.841995 0.67361164 1.5654131 -2.3154131e+38
2.8419828 0.66856593 1.5654131 -2.3420492e+38
2.8419707 0.66352028 1.5654131 -2.3553415e+38
2.8419585 0.65847456 1.5654131 -2.3687374e+38
2.8419464 0.65342885 1.5654131 -2.3953741e+38
2.8419342 0.64838314 1.5654131 -2.4086146e+38
2.8619351 0.64871788 1.5678703 -2.4351475e+38
2.861923 0.64363408 1.5678703 -2.4352513e+38
2.8619108 0.63855034 1.5678703 -2.4353032e+38
2.8618984 0.63346654 1.5678703 -2.435303e+38
2.8828995 0.63387221 1.5704502 -2.4353546e+38
2.8828871 0.62874842 1.5704502 -2.4354059e+38
2.882875 0.62362462 1.5704502 -2.4221657e+38
2.8828626 0.61850083 1.5704502 -2.4220619e+38
2.903863 0.61870658 1.5730302 -2.421958e+38
2.9038506 0.61354274 1.5730302 -2.4086138e+38
2.9038382 0.60837895 1.5730302 -2.3952696e+38
2.8838358 1.0232807 1.5653265 nan
2.9048438 1.0266464 1.5678664 nan
2.9048314 1.0214826 1.5678664 nan
2.8837988 1.0079093 1.5653265 nan
2.8837864 1.0027856 1.5653265 nan
2.883774 0.99766171 1.5653265 -3.0325149e+38
2.8837619 0.99253786 1.5653265 -2.4081439e+38
2.8837495 0.98741412 1.5653265 -2.5019713e+38
2.8837371 0.98229039 1.5653265 -2.5949658e+38
2.8627052 0.968997 1.5627863 -2.5949662e+38
2.8626928 0.9639132 1.5627863 -2.5950183e+38
2.8426621 0.95112503 1.5603673 -2.5420053e+38
2.8626685 0.9537456 1.5627863 -2.4887841e+38
2.8426378 0.94103372 1.5603673 -2.5020764e+38
2.8426256 0.93598807 1.5603673 -2.5019725e+38
2.8426135 0.9309423 1.5603673 -2.4885764e+38
2.8426015 0.9258967 1.5603673 -2.475232e+38
2.8425894 0.92085093 1.5603673 -2.4751799e+38
2.8425772 0.91580522 1.5603673 -2.4618878e+38
2.8425651 0.91075957 1.5603673 -2.4353034e+38
2.8425529 0.90571386 1.5603673 -2.408667e+38
2.8425407 0.90066814 1.5603673 -2.408615e+38
2.8425286 0.89562243 1.5603673 -2.3953228e+38
2.822499 0.88332963 1.5579484 -2.3820303e+38
2.8224869 0.87832201 1.5579484 -2.3686859e+38
2.8424923 0.88048536 1.5603673 -2.3554455e+38
2.8424802 0.87543964 1.5603673 -2.3288088e+38
2.842468 0.87039399 1.5603673 -2.3154644e+38
2.8424559 0.86534828 1.5603673 -2.3022241e+38
2.8424437 0.86030257 1.5603673 -2.3154125e+38
2.8424315 0.85525686 1.5603673 -2.3288084e+38
2.8424194 0.8502112 1.5603673 -2.3288084e+38
2.8223906 0.83826119 1.5579484 -2.3288082e+38
2.8223786 0.83325356 1.5579484 -2.3421003e+38
2.8223665 0.828246 1.5579484 -2.3421524e+38
2.8223546 0.82323837 1.5579484 -2.3687374e+38
2.8223424 0.81823075 1.5579484 -2.3820297e+38
2.8223305 0.81322312 1.5579484 -2.3819779e+38
2.8223183 0.80821556 1.5579484 -2.3820301e+38
2.8223064 0.80320799 1.5579484 -2.3820822e+38
2.8423102 0.80479985 1.5603673 -2.3688938e+38
2.8422983 0.79975414 1.5603673 -2.3689978e+38
2.8623018 0.80123174 1.5627863 -2.368894e+38
2.8622897 0.79614794 1.5627863 -2.3687901e+38
2.8622773 0.79106414 1.5627863 -2.3687901e+38
2.8622651 0.7859804 1.5627863 -2.3554461e+38
2.862253 0.7808966 1.5627863 -2.3289133e+38
2.8622408 0.77581275 1.5627863 -2.3289131e+38
2.8622284 0.77072895 1.5627863 -2.3155168e+38
2.8622162 0.76564521 1.5627863 -2.3021202e+38
2.8622041 0.76056141 1.5627863 -2.2755355e+38
2.8421769 0.74929714 1.5603673 -2.2621913e+38
2.8421648 0.74425149 1.5603673 -2.2356067e+38
2.8421526 0.73920578 1.5603673 -2.2487953e+38
2.8421404 0.73416007 1.5603673 -2.2620874e+38
2.8421283 0.72911435 1.5603673 -2.2620355e+38
2.8421161 0.72406864 1.5603673 -2.2620355e+38
2.8421042 0.71902293 1.5603673 -2.3018604e+38
2.842092 0.71397722 1.5603673 -2.3417892e+38
2.8420799 0.70893151 1.5603673 -2.3284969e+38
2.8420677 0.70388585 1.5603673 -2.3020164e+38
2.8220415 0.69304061 1.5579484 -2.3020685e+38
2.8420434 0.69379443 1.5603673 -2.3020689e+38
2.8420312 0.68874872 1.5603673 -2.2755365e+38
2.8220055 0.67801785 1.5579484 -2.2357116e+38
2.8420069 0.67865735 1.5603673 -2.2888805e+38
2.841995 0.67361164 1.5603673 -2.3287571e+38
2.8419828 0.66856593 1.5603673 -2.3420494e+38
2.8419707 0.66352028 1.5603673 -2.342153e+38
2.8419585 0.65847456 1.5603673 -2.355497e+38
2.8419464 0.65342885 1.5603673 -2.3687895e+38
2.8419342 0.64838314 1.5603673 -2.3954264e+38
2.8619351 0.64871788 1.5627863 -2.4087187e+38
2.861923 0.64363408 1.5627863 -2.4220631e+38
2.8619108 0.63855034 1.5627863 -2.4353554e+38
2.8618984 0.63346654 1.5627863 -2.4353036e+38
2.8618863 0.62838268 1.5627863 -2.435459e+38
2.8618741 0.62329888 1.5627863 -2.422374e+38
2.8618617 0.61821514 1.5627863 -2.4090296e+38
2.8828626 0.61850083 1.5653265 -2.4223217e+38
2.8828502 0.61337703 1.5653265 -2.4221659e+38
2.882838 0.60825324 1.5653265 -2.4088219e+38
2.9038382 0.60837895 1.5678664 -2.3822893e+38
2.8838358 1.0232807 1.5602026 nan
2.8838234 1.018157 1.5602026 nan
2.883811 1.0130332 1.5602026 nan
2.8837988 1.0079093 1.5602026 nan
2.8837864 1.0027856 1.5602026 nan
2.883774 0.99766171 1.5602026 -3.1270689e+38
2.8837619 0.99253786 1.5602026 -2.4075737e+38
2.8627295 0.9791646 1.5577025 -2.5017113e+38
2.8837371 0.98229039 1.5602026 -2.6082057e+38
2.8627052 0.968997 1.5577025 -2.5950177e+38
2.8626928 0.9639132 1.5577025 -2.5818299e+38
2.8626807 0.9588294 1.5577025 -2.5286092e+38
2.8626685 0.9537456 1.5577025 -2.4753882e+38
2.8426378 0.94103372 1.5553217 -2.4886803e+38
2.8426256 0.93598807 1.5553217 -2.5018687e+38
2.8626318 0.93849432 1.5577025 -2.4885243e+38
2.8426015 0.9258967 1.5553217 -2.4751799e+38
2.8425894 0.92085093 1.5553217 -2.4485951e+38
2.8425772 0.91580522 1.5553217 -2.4352511e+38
2.8425651 0.91075957 1.5553217 -2.4219588e+38
2.8425529 0.90571386 1.5553217 -2.4218552e+38
2.8425407 0.90066814 1.5553217 -2.4085629e+38
2.8425286 0.89562243 1.5553217 -2.4085108e+38
2.8425164 0.89057678 1.5553217 -2.3952183e+38
2.8224869 0.87832201 1.5529407 -2.3818741e+38
2.8424923 0.88048536 1.5553217 -2.3553415e+38
2.8424802 0.87543964 1.5553217 -2.3287048e+38
2.842468 0.87039399 1.5553217 -2.3155161e+38
2.8424559 0.86534828 1.5553217 -2.3155683e+38
2.8424437 0.86030257 1.5553217 -2.3155165e+38
2.8424315 0.85525686 1.5553217 -2.3288608e+38
2.8424194 0.8502112 1.5553217 -2.3288605e+38
2.8424075 0.84516549 1.5553217 -2.3288084e+38
2.8423953 0.84011972 1.5553217 -2.3288601e+38
2.8223665 0.828246 1.5529407 -2.3288605e+38
2.8223546 0.82323837 1.5529407 -2.3421532e+38
2.8223424 0.81823075 1.5529407 -2.3553936e+38
2.8223305 0.81322312 1.5529407 -2.3686859e+38
2.8223183 0.80821556 1.5529407 -2.3820303e+38
2.8223064 0.80320799 1.5529407 -2.3687899e+38
2.8423102 0.80479985 1.5553217 -2.3556017e+38
2.8422983 0.79975414 1.5553217 -2.3556017e+38
2.8623018 0.80123174 1.5577025 -2.35555e+38
2.8622897 0.79614794 1.5577025 -2.3422577e+38
2.8622773 0.79106414 1.5577025 -2.3289656e+38
2.8422496 0.77957135 1.5553217 -2.3156214e+38
2.862253 0.7808966 1.5577025 -2.3156729e+38
2.8622408 0.77581275 1.5577025 -2.3022245e+38
2.8622284 0.77072895 1.5577025 -2.2754839e+38
2.8622162 0.76564521 1.5577025 -2.2622432e+38
2.8421891 0.75434285 1.5553217 -2.2490026e+38
2.8421769 0.74929714 1.5553217 -2.2488986e+38
2.8421648 0.74425149 1.5553217 -2.2488986e+38
2.8421526 0.73920578 1.5553217 -2.262087e+38
2.8421404 0.73416007 1.5553217 -2.2620353e+38
2.8421283 0.72911435 1.5553217 -2.2753795e+38
2.8421161 0.72406864 1.5553217 -2.2753276e+38
2.8421042 0.71902293 1.5553217 -2.3019121e+38
2.842092 0.71397722 1.5553217 -2.3152565e+38
2.8420799 0.70893151 1.5553217 -2.3153085e+38
2.8220537 0.69804823 1.5529407 -2.3153606e+38
2.8220415 0.69304061 1.5529407 -2.288776e+38
2.8420434 0.69379443 1.5553217 -2.2754841e+38
2.8220174 0.68302548 1.5529407 -2.2622961e+38
2.8220055 0.67801785 1.5529407 -2.2490556e+38
2.8420069 0.67865735 1.5553217 -2.2889322e+38
2.841995 0.67361164 1.5553217 -2.328809e+38
2.8419828 0.66856593 1.5553217 -2.3421532e+38
2.8419707 0.66352028 1.5553217 -2.3555492e+38
2.8419585 0.65847456 1.5553217 -2.3687893e+38
2.8419464 0.65342885 1.5553217 -2.3687378e+38
2.8419342 0.64838314 1.5553217 -2.382186e+38
2.8619351 0.64871788 1.5577025 -2.3955824e+38
2.861923 0.64363408 1.5577025 -2.4221152e+38
2.8619108 0.63855034 1.5577025 -2.4354596e+38
2.8618984 0.63346654 1.5577025 -2.4354079e+38
2.8618863 0.62838268 1.5577025 -2.4487519e+38
2.8618741 0.62329888 1.5577025 -2.4223227e+38
2.8618617 0.61821514 1.5577025 -2.3958416e+38
2.8828626 0.61850083 1.5602026 -2.4090813e+38
2.8828502 0.61337703 1.5602026 -2.4223221e+38
2.9038506 0.61354274 1.5627027 -2.3957377e+38
2.8828256 0.60312945 1.5602026 -2.3824972e+38
2.9258389 0.60867274 1.5653217 -2.4487507e+38
3.1111515 1.1543736 1.5816703 nan
2.883848 1.0284045 1.5550787 nan
2.8838358 1.0232807 1.5550787 nan
2.8838234 1.018157 1.5550787 nan
2.883811 1.0130332 1.5550787 nan
2.8837988 1.0079093 1.5550787 nan
2.8837864 1.0027856 1.5550787 nan
2.883774 0.99766171 1.5550787 -3.220009e+38
2.8837619 0.99253786 1.5550787 -2.3953708e+38
2.8627295 0.9791646 1.5526187 -2.515679e+38
2.8627174 0.9740808 1.5526187 -2.6218101e+38
2.8627052 0.968997 1.5526187 -2.5950704e+38
2.8626928 0.9639132 1.5526187 -2.5684859e+38
2.8626807 0.9588294 1.5526187 -2.515265e+38
2.8626685 0.9537456 1.5526187 -2.4620438e+38
2.8426378 0.94103372 1.5502759 -2.4752839e+38
2.8426256 0.93598807 1.5502759 -2.4885241e+38
2.8626318 0.93849432 1.5526187 -2.4751797e+38
2.8426015 0.9258967 1.5502759 -2.4618872e+38
2.8425894 0.92085093 1.5502759 -2.4353024e+38
2.8425772 0.91580522 1.5502759 -2.4086659e+38
2.8425651 0.91075957 1.5502759 -2.4219582e+38
2.8425529 0.90571386 1.5502759 -2.4218546e+38
2.8425407 0.90066814 1.5502759 -2.4218029e+38
2.8425286 0.89562243 1.5502759 -2.4217509e+38
2.8425164 0.89057678 1.5502759 -2.4084067e+38
2.8425045 0.88553107 1.5502759 -2.3951664e+38
2.8424923 0.88048536 1.5502759 -2.3552895e+38
2.8424802 0.87543964 1.5502759 -2.3155163e+38
2.842468 0.87039399 1.5502759 -2.3155683e+38
2.8424559 0.86534828 1.5502759 -2.3155683e+38
2.8424437 0.86030257 1.5502759 -2.3155163e+38
2.8424315 0.85525686 1.5502759 -2.3156202e+38
2.8424194 0.8502112 1.5502759 -2.3289644e+38
2.8424075 0.84516549 1.5502759 -2.3289125e+38
2.8423953 0.84011972 1.5502759 -2.3289127e+38
2.8223665 0.828246 1.5479331 -2.3156206e+38
2.8223546 0.82323837 1.5479331 -2.3156208e+38
2.8423588 0.82498264 1.5502759 -2.3155687e+38
2.8223305 0.81322312 1.5479331 -2.3553417e+38
2.8423345 0.81489122 1.5502759 -2.3819784e+38
2.8423223 0.80984551 1.5502759 -2.3554459e+38
2.8423102 0.80479985 1.5502759 -2.3288612e+38
2.8422983 0.79975414 1.5502759 -2.3288612e+38
2.8623018 0.80123174 1.5526187 -2.3288612e+38
2.8622897 0.79614794 1.5526187 -2.3023285e+38
2.8622773 0.79106414 1.5526187 -2.2756922e+38
2.8422496 0.77957135 1.5502759 -2.2888807e+38
2.862253 0.7808966 1.5526187 -2.3021725e+38
2.8422253 0.76947993 1.5502759 -2.2754835e+38
2.8622284 0.77072895 1.5526187 -2.2356065e+38
2.8422012 0.75938857 1.5502759 -2.2223142e+38
2.8421891 0.75434285 1.5502759 -2.2090217e+38
2.8421769 0.74929714 1.5502759 -2.2355024e+38
2.8421648 0.74425149 1.5502759 -2.262087e+38
2.8421526 0.73920578 1.5502759 -2.2620353e+38
2.8421404 0.73416007 1.5502759 -2.2621391e+38
2.8421283 0.72911435 1.5502759 -2.2754833e+38
2.8421161 0.72406864 1.5502759 -2.2886718e+38
2.8421042 0.71902293 1.5502759 -2.2886198e+38
2.842092 0.71397722 1.5502759 -2.2886718e+38
2.8420799 0.70893151 1.5502759 -2.3020162e+38
2.8220537 0.69804823 1.5479331 -2.3153085e+38
2.8220415 0.69304061 1.5479331 -2.2887239e+38
2.8220296 0.68803304 1.5479331 -2.2489513e+38
2.8220174 0.68302548 1.5479331 -2.2624e+38
2.8220055 0.67801785 1.5479331 -2.2623998e+38
2.8219934 0.67301023 1.5479331 -2.3022766e+38
2.841995 0.67361164 1.5502759 -2.3288092e+38
2.8419828 0.66856593 1.5502759 -2.3553938e+38
2.8419707 0.66352028 1.5502759 -2.3687899e+38
2.8419585 0.65847456 1.5502759 -2.3688416e+38
2.8419464 0.65342885 1.5502759 -2.3687899e+38
2.8419342 0.64838314 1.5502759 -2.3821865e+38
2.8619351 0.64871788 1.5526187 -2.3821865e+38
2.861923 0.64363408 1.5526187 -2.4087712e+38
2.8619108 0.63855034 1.5526187 -2.435356e+38
2.8618984 0.63346654 1.5526187 -2.4485965e+38
2.8618863 0.62838268 1.5526187 -2.4487519e+38
2.8618741 0.62329888 1.5526187 -2.4089787e+38
2.882875 0.62362462 1.5550787 -2.3692055e+38
2.8828626 0.61850083 1.5550787 -2.3957381e+38
2.8828502 0.61337703 1.5550787 -2.4090304e+38
2.882838 0.60825324 1.5550787 -2.3958422e+38
2.9038382 0.60837895 1.5575387 -2.3824457e+38
2.9258389 0.60867274 1.5601159 -2.4752837e+38
3.1361768 1.164861 1.578995 nan
2.9048562 1.03181 1.552375 nan
2.8838234 1.018157 1.549955 nan
2.883811 1.0130332 1.549955 nan
2.8837988 1.0079093 1.549955 nan
2.8837864 1.0027856 1.549955 nan
2.8627541 0.98933208 1.5475349 -3.3674682e+38
2.8627417 0.9842484 1.5475349 -2.6079946e+38
2.8627295 0.9791646 1.5475349 -2.635102e+38
2.8627174 0.9740808 1.5475349 -2.6751354e+38
2.8627052 0.968997 1.5475349 -2.6218114e+38
2.8626928 0.9639132 1.5475349 -2.5817266e+38
2.8426621 0.95112503 1.5452302 -2.528609e+38
2.8626685 0.9537456 1.5475349 -2.4753359e+38
2.8426378 0.94103372 1.5452302 -2.4753356e+38
2.8426256 0.93598807 1.5452302 -2.4752316e+38
2.8626318 0.93849432 1.5475349 -2.4619389e+38
2.8426015 0.9258967 1.5452302 -2.4486464e+38
2.8425894 0.92085093 1.5452302 -2.4352499e+38
2.8425772 0.91580522 1.5452302 -2.4218538e+38
2.8425651 0.91075957 1.5452302 -2.4218538e+38
2.8425529 0.90571386 1.5452302 -2.4218023e+38
2.8425407 0.90066814 1.5452302 -2.4085102e+38
2.8425286 0.89562243 1.5452302 -2.3951662e+38
2.8425164 0.89057678 1.5452302 -2.3818741e+38
2.8425045 0.88553107 1.5452302 -2.3685818e+38
2.8424923 0.88048536 1.5452302 -2.3553413e+38
2.8424802 0.87543964 1.5452302 -2.3554453e+38
2.842468 0.87039399 1.5452302 -2.3554453e+38
2.8424559 0.86534828 1.5452302 -2.355497e+38
2.8424437 0.86030257 1.5452302 -2.3422045e+38
2.8424315 0.85525686 1.5452302 -2.3422045e+38
2.8424194 0.8502112 1.5452302 -2.3422045e+38
2.8424075 0.84516549 1.5452302 -2.3289127e+38
2.8423953 0.84011972 1.5452302 -2.3155689e+38
2.8223665 0.828246 1.5429255 -2.3155689e+38
2.8223546 0.82323837 1.5429255 -2.3155689e+38
2.8223424 0.81823075 1.5429255 -2.3155687e+38
2.8223305 0.81322312 1.5429255 -2.3420492e+38
2.8423345 0.81489122 1.5452302 -2.3686342e+38
2.8423223 0.80984551 1.5452302 -2.3553421e+38
2.8423102 0.80479985 1.5452302 -2.3553419e+38
2.8422983 0.79975414 1.5452302 -2.3420494e+38
2.8623018 0.80123174 1.5475349 -2.3287571e+38
2.8622897 0.79614794 1.5475349 -2.3021723e+38
2.8622773 0.79106414 1.5475349 -2.2755361e+38
2.8422496 0.77957135 1.5452302 -2.2754841e+38
2.862253 0.7808966 1.5475349 -2.2754835e+38
2.8422253 0.76947993 1.5452302 -2.2488464e+38
2.8422132 0.76443428 1.5452302 -2.2222619e+38
2.8422012 0.75938857 1.5452302 -2.2089696e+38
2.8421891 0.75434285 1.5452302 -2.2089177e+38
2.8421769 0.74929714 1.5452302 -2.222158e+38
2.8421648 0.74425149 1.5452302 -2.2487428e+38
2.8421526 0.73920578 1.5452302 -2.2620872e+38
2.8421404 0.73416007 1.5452302 -2.2754833e+38
2.8421283 0.72911435 1.5452302 -2.262087e+38
2.8421161 0.72406864 1.5452302 -2.2620351e+38
2.8421042 0.71902293 1.5452302 -2.2753274e+38
2.842092 0.71397722 1.5452302 -2.2887237e+38
2.8220656 0.70305586 1.5429255 -2.302016e+38
2.8220537 0.69804823 1.5429255 -2.3285486e+38
2.8220415 0.69304061 1.5429255 -2.302016e+38
2.8220296 0.68803304 1.5429255 -2.2887762e+38
2.8220174 0.68302548 1.5429255 -2.2889324e+38
2.8220055 0.67801785 1.5429255 -2.3023285e+38
2.8219934 0.67301023 1.5429255 -2.3288612e+38
2.841995 0.67361164 1.5452302 -2.3552902e+38
2.8419828 0.66856593 1.5452302 -2.3686863e+38
2.8419707 0.66352028 1.5452302 -2.3952708e+38
2.8419585 0.65847456 1.5452302 -2.3953747e+38
2.8419464 0.65342885 1.5452302 -2.4086152e+38
2.8419342 0.64838314 1.5452302 -2.4087193e+38
2.8619351 0.64871788 1.5475349 -2.4087195e+38
2.861923 0.64363408 1.5475349 -2.4221156e+38
2.8619108 0.63855034 1.5475349 -2.4486485e+38
2.8618984 0.63346654 1.5475349 -2.4487004e+38
2.8618863 0.62838268 1.5475349 -2.448804e+38
2.8618741 0.62329888 1.5475349 -2.4223231e+38
2.8618617 0.61821514 1.5475349 -2.409083e+38
2.8618495 0.61313134 1.5475349 -2.4090312e+38
2.8828502 0.61337703 1.549955 -2.4222716e+38
2.882838 0.60825324 1.549955 -2.4223752e+38
2.8828256 0.60312945 1.549955 -2.4356152e+38
3.1111515 1.1543736 1.5705578 nan
2.9269152 1.0563629 1.5497046 nan
2.904881 1.0421377 1.5472112 nan
2.9048686 1.036974 1.5472112 nan
2.9048562 1.03181 1.5472112 nan
2.8838234 1.018157 1.5448312 nan
2.883811 1.0130332 1.5448312 nan
2.8837988 1.0079093 1.5448312 nan
2.8837864 1.0027856 1.5448312 nan
2.8627541 0.98933208 1.5424511 nan
2.8627417 0.9842484 1.5424511 -2.8218156e+38
2.8627295 0.9791646 1.5424511 -2.7681822e+38
2.8627174 0.9740808 1.5424511 -2.7150129e+38
2.8627052 0.968997 1.5424511 -2.6484996e+38
2.8626928 0.9639132 1.5424511 -2.5819339e+38
2.8426621 0.95112503 1.5401845 -2.5421088e+38
2.8426499 0.94607937 1.5401845 -2.4887839e+38
2.8426378 0.94103372 1.5401845 -2.4754916e+38
2.8426256 0.93598807 1.5401845 -2.4487509e+38
2.8626318 0.93849432 1.5424511 -2.4487507e+38
2.8426015 0.9258967 1.5401845 -2.4353022e+38
2.8425894 0.92085093 1.5401845 -2.4350943e+38
2.8425772 0.91580522 1.5401845 -2.4351463e+38
2.8425651 0.91075957 1.5401845 -2.4218023e+38
2.8425529 0.90571386 1.5401845 -2.4085619e+38
2.8425407 0.90066814 1.5401845 -2.3819775e+38
2.8425286 0.89562243 1.5401845 -2.3553413e+38
2.8425164 0.89057678 1.5401845 -2.3419975e+38
2.8425045 0.88553107 1.5401845 -2.3287569e+38
2.8424923 0.88048536 1.5401845 -2.3553934e+38
2.8424802 0.87543964 1.5401845 -2.381926e+38
2.842468 0.87039399 1.5401845 -2.3819779e+38
2.8424559 0.86534828 1.5401845 -2.3820299e+38
2.8424437 0.86030257 1.5401845 -2.3820818e+38
2.8424315 0.85525686 1.5401845 -2.3687376e+38
2.8424194 0.8502112 1.5401845 -2.3553934e+38
2.8424075 0.84516549 1.5401845 -2.328809e+38
2.8423953 0.84011972 1.5401845 -2.315517e+38
2.8223665 0.828246 1.5379179 -2.3021725e+38
2.8223546 0.82323837 1.5379179 -2.3021206e+38
2.8223424 0.81823075 1.5379179 -2.3021204e+38
2.8223305 0.81322312 1.5379179 -2.3286011e+38
2.8423345 0.81489122 1.5401845 -2.3419453e+38
2.8423223 0.80984551 1.5401845 -2.355134e+38
2.8423102 0.80479985 1.5401845 -2.3685299e+38
2.8422983 0.79975414 1.5401845 -2.3419973e+38
2.8623018 0.80123174 1.5424511 -2.3153606e+38
2.8622897 0.79614794 1.5424511 -2.3020681e+38
2.8622773 0.79106414 1.5424511 -2.2754316e+38
2.8622651 0.7859804 1.5424511 -2.2620874e+38
2.862253 0.7808966 1.5424511 -2.2355024e+38
2.8422253 0.76947993 1.5401845 -2.22221e+38
2.8422132 0.76443428 1.5401845 -2.2088656e+38
2.8422012 0.75938857 1.5401845 -2.2088656e+38
2.8421891 0.75434285 1.5401845 -2.1955214e+38
2.8421769 0.74929714 1.5401845 -2.2220542e+38
2.8421648 0.74425149 1.5401845 -2.2353986e+38
2.8421526 0.73920578 1.5401845 -2.2619834e+38
2.8421404 0.73416007 1.5401845 -2.2752754e+38
2.8421283 0.72911435 1.5401845 -2.2618272e+38
2.8421161 0.72406864 1.5401845 -2.2353984e+38
2.8421042 0.71902293 1.5401845 -2.261983e+38
2.842092 0.71397722 1.5401845 -2.2753791e+38
2.8220656 0.70305586 1.5379179 -2.3019636e+38
2.8220537 0.69804823 1.5379179 -2.3286005e+38
2.8220415 0.69304061 1.5379179 -2.3286009e+38
2.8420434 0.69379443 1.5401845 -2.3287052e+38
2.8220174 0.68302548 1.5379179 -2.3288094e+38
2.8220055 0.67801785 1.5379179 -2.3288612e+38
2.8219934 0.67301023 1.5379179 -2.3554976e+38
2.841995 0.67361164 1.5401845 -2.3820824e+38
2.8419828 0.66856593 1.5401845 -2.3953749e+38
2.8419707 0.66352028 1.5401845 -2.4087191e+38
2.8419585 0.65847456 1.5401845 -2.4220114e+38
2.8419464 0.65342885 1.5401845 -2.4353558e+38
2.8419342 0.64838314 1.5401845 -2.4354081e+38
2.8619351 0.64871788 1.5424511 -2.4221677e+38
2.861923 0.64363408 1.5424511 -2.4488042e+38
2.8619108 0.63855034 1.5424511 -2.4620448e+38
2.8618984 0.63346654 1.5424511 -2.4620967e+38
2.8618863 0.62838268 1.5424511 -2.4488562e+38
2.8618741 0.62329888 1.5424511 -2.4490119e+38
2.882875 0.62362462 1.5448312 -2.4356677e+38
2.8828626 0.61850083 1.5448312 -2.4356679e+38
2.903863 0.61870658 1.5472112 -2.4223754e+38
2.9038506 0.61354274 1.5472112 -2.4622523e+38
2.9038382 0.60837895 1.5472112 -2.4888886e+38
2.9258389 0.60867274 1.5497046 -2.515525e+38
3.0631163 1.1397024 1.559653 nan
2.9479616 1.0755037 1.5468388 nan
2.9479489 1.070258 1.5468388 nan
2.9269152 1.0563629 1.5444988 nan
2.9269028 1.0511571 1.5444988 nan
2.9268901 1.0459515 1.5444988 nan
2.8838358 1.0232807 1.5397074 nan
2.8838234 1.018157 1.5397074 nan
2.883811 1.0130332 1.5397074 nan
2.8837988 1.0079093 1.5397074 nan
2.8837864 1.0027856 1.5397074 nan
2.8627541 0.98933208 1.5373673 nan
2.8627417 0.9842484 1.5373673 -3.0216691e+38
2.8627295 0.9791646 1.5373673 -2.7683915e+38
2.8627174 0.9740808 1.5373673 -2.5288699e+38
2.8627052 0.968997 1.5373673 -2.5687974e+38
2.8426743 0.9561708 1.5351388 -2.6085702e+38
2.8426621 0.95112503 1.5351388 -2.5686412e+38
2.8426499 0.94607937 1.5351388 -2.5286088e+38
2.8426378 0.94103372 1.5351388 -2.488732e+38
2.8426256 0.93598807 1.5351388 -2.4487511e+38
2.8426135 0.9309423 1.5351388 -2.4354065e+38
2.8426015 0.9258967 1.5351388 -2.4087179e+38
2.8425894 0.92085093 1.5351388 -2.4219578e+38
2.8425772 0.91580522 1.5351388 -2.4352503e+38
2.8425651 0.91075957 1.5351388 -2.408614e+38
2.8425529 0.90571386 1.5351388 -2.3953217e+38
2.8425407 0.90066814 1.5351388 -2.3819775e+38
2.8425286 0.89562243 1.5351388 -2.3686337e+38
2.8425164 0.89057678 1.5351388 -2.3421013e+38
2.8425045 0.88553107 1.5351388 -2.328809e+38
2.8424923 0.88048536 1.5351388 -2.3420494e+38
2.8424802 0.87543964 1.5351388 -2.368478e+38
2.842468 0.87039399 1.5351388 -2.3686855e+38
2.8424559 0.86534828 1.5351388 -2.3819779e+38
2.8424437 0.86030257 1.5351388 -2.3686859e+38
2.8424315 0.85525686 1.5351388 -2.3553419e+38
2.8424194 0.8502112 1.5351388 -2.3420496e+38
2.8424075 0.84516549 1.5351388 -2.3287054e+38
2.8423953 0.84011972 1.5351388 -2.3154131e+38
2.8423831 0.83507401 1.5351388 -2.3021206e+38
2.8223546 0.82323837 1.5329102 -2.3020683e+38
2.8423588 0.82498264 1.5351388 -2.288776e+38
2.8423467 0.81993693 1.5351388 -2.3020164e+38
2.8423345 0.81489122 1.5351388 -2.3286009e+38
2.8423223 0.80984551 1.5351388 -2.3418411e+38
2.8423102 0.80479985 1.5351388 -2.3551853e+38
2.8422983 0.79975414 1.5351388 -2.3418411e+38
2.8623018 0.80123174 1.5373673 -2.3284967e+38
2.8622897 0.79614794 1.5373673 -2.3019119e+38
2.8622773 0.79106414 1.5373673 -2.2752233e+38
2.8622651 0.7859804 1.5373673 -2.2619828e+38
2.862253 0.7808966 1.5373673 -2.2486905e+38
2.8422253 0.76947993 1.5351388 -2.2486905e+38
2.8422132 0.76443428 1.5351388 -2.2353463e+38
2.8422012 0.75938857 1.5351388 -2.2353461e+38
2.8421891 0.75434285 1.5351388 -2.2220021e+38
2.8421769 0.74929714 1.5351388 -2.2352943e+38
2.8421648 0.74425149 1.5351388 -2.2486388e+38
2.8421526 0.73920578 1.5351388 -2.248639e+38
2.8421404 0.73416007 1.5351388 -2.2618791e+38
2.8421283 0.72911435 1.5351388 -2.2486385e+38
2.8421161 0.72406864 1.5351388 -2.2353982e+38
2.8421042 0.71902293 1.5351388 -2.2620345e+38
2.842092 0.71397722 1.5351388 -2.288671e+38
2.8220656 0.70305586 1.5329102 -2.302015e+38
2.8220537 0.69804823 1.5329102 -2.3286005e+38
2.8220415 0.69304061 1.5329102 -2.3286533e+38
2.8220296 0.68803304 1.5329102 -2.3420496e+38
2.8220174 0.68302548 1.5329102 -2.3421017e+38
2.8220055 0.67801785 1.5329102 -2.3554457e+38
2.8219934 0.67301023 1.5329102 -2.3954262e+38
2.841995 0.67361164 1.5351388 -2.4354073e+38
2.8419828 0.66856593 1.5351388 -2.4487e+38
2.8419707 0.66352028 1.5351388 -2.4620442e+38
2.8419585 0.65847456 1.5351388 -2.4619403e+38
2.8419464 0.65342885 1.5351388 -2.4752849e+38
2.8419342 0.64838314 1.5351388 -2.4753371e+38
2.8619351 0.64871788 1.5373673 -2.475389e+38
2.861923 0.64363408 1.5373673 -2.4886293e+38
2.8619108 0.63855034 1.5373673 -2.5018699e+38
2.8618984 0.63346654 1.5373673 -2.4886815e+38
2.8618863 0.62838268 1.5373673 -2.4887334e+38
2.8618741 0.62329888 1.5373673 -2.4754409e+38
2.8618617 0.61821514 1.5373673 -2.4620967e+38
2.8828626 0.61850083 1.5397074 -2.4755448e+38
2.903863 0.61870658 1.5420474 -2.488837e+38
2.9038506 0.61354274 1.5420474 -2.502181e+38
2.9038382 0.60837895 1.5420474 -2.5287658e+38
2.9258389 0.60867274 1.5444988 -2.5421621e+38
3.0631163 1.1397024 1.5541883 nan
2.97101 1.0956436 1.5441121 nan
2.9709973 1.0903542 1.5441121 nan
2.9479616 1.0755037 1.5415931 nan
2.9479489 1.070258 1.5415931 nan
2.9269152 1.0563629 1.5392931 nan
2.9269028 1.0511571 1.5392931 nan
2.9268901 1.0459515 1.5392931 nan
2.9048562 1.03181 1.5368836 -3.3815006e+38
2.8838234 1.018157 1.5345836 nan
2.883811 1.0130332 1.5345836 nan
2.8837988 1.0079093 1.5345836 nan
2.8627663 0.994416 1.5322835 nan
2.8627541 0.98933208 1.5322835 nan
2.8627417 0.9842484 1.5322835 -3.2215728e+38
2.8627295 0.9791646 1.5322835 -2.7813199e+38
2.8627174 0.9740808 1.5322835 -2.3295376e+38
2.8627052 0.968997 1.5322835 -2.4891482e+38
2.8426743 0.9561708 1.5300931 -2.6352594e+38
2.8426621 0.95112503 1.5300931 -2.608571e+38
2.8426499 0.94607937 1.5300931 -2.568538e+38
2.8426378 0.94103372 1.5300931 -2.5153167e+38
2.8426256 0.93598807 1.5300931 -2.4487511e+38
2.8426135 0.9309423 1.5300931 -2.4221142e+38
2.8426015 0.9258967 1.5300931 -2.3821852e+38
2.8425894 0.92085093 1.5300931 -2.4087179e+38
2.8425772 0.91580522 1.5300931 -2.4219584e+38
2.8425651 0.91075957 1.5300931 -2.4086144e+38
2.8425529 0.90571386 1.5300931 -2.3820818e+38
2.8425407 0.90066814 1.5300931 -2.3820299e+38
2.8425286 0.89562243 1.5300931 -2.3686859e+38
2.8425164 0.89057678 1.5300931 -2.3554457e+38
2.8425045 0.88553107 1.5300931 -2.3288612e+38
2.8424923 0.88048536 1.5300931 -2.3421534e+38
2.8424802 0.87543964 1.5300931 -2.342153e+38
2.842468 0.87039399 1.5300931 -2.355497e+38
2.8424559 0.86534828 1.5300931 -2.3687376e+38
2.8424437 0.86030257 1.5300931 -2.3553936e+38
2.8424315 0.85525686 1.5300931 -2.3287571e+38
2.8424194 0.8502112 1.5300931 -2.3287571e+38
2.8424075 0.84516549 1.5300931 -2.3153608e+38
2.8423953 0.84011972 1.5300931 -2.3153089e+38
2.8423831 0.83507401 1.5300931 -2.3020164e+38
2.842371 0.83002836 1.5300931 -2.2887239e+38
2.8423588 0.82498264 1.5300931 -2.2753797e+38
2.8423467 0.81993693 1.5300931 -2.28862e+38
2.8423345 0.81489122 1.5300931 -2.3019121e+38
2.8423223 0.80984551 1.5300931 -2.3284448e+38
2.8423102 0.80479985 1.5300931 -2.3417368e+38
2.8422983 0.79975414 1.5300931 -2.3416849e+38
2.8623018 0.80123174 1.5322835 -2.3283926e+38
2.8622897 0.79614794 1.5322835 -2.3018081e+38
2.8622773 0.79106414 1.5322835 -2.2752233e+38
2.8622651 0.7859804 1.5322835 -2.275275e+38
2.862253 0.7808966 1.5322835 -2.2619306e+38
2.8422253 0.76947993 1.5300931 -2.2619306e+38
2.8422132 0.76443428 1.5300931 -2.2618787e+38
2.8422012 0.75938857 1.5300931 -2.2618785e+38
2.8421891 0.75434285 1.5300931 -2.2485345e+38
2.8421769 0.74929714 1.5300931 -2.2484826e+38
2.8421648 0.74425149 1.5300931 -2.2485866e+38
2.8421526 0.73920578 1.5300931 -2.2485868e+38
2.8421404 0.73416007 1.5300931 -2.2486388e+38
2.8421283 0.72911435 1.5300931 -2.2486907e+38
2.8421161 0.72406864 1.5300931 -2.2354503e+38
2.8421042 0.71902293 1.5300931 -2.2620349e+38
2.842092 0.71397722 1.5300931 -2.2887233e+38
2.8220656 0.70305586 1.5279026 -2.3021192e+38
2.8220537 0.69804823 1.5279026 -2.3153604e+38
2.8220415 0.69304061 1.5279026 -2.3286537e+38
2.8220296 0.68803304 1.5279026 -2.3420498e+38
2.8220174 0.68302548 1.5279026 -2.3687382e+38
2.8220055 0.67801785 1.5279026 -2.3820824e+38
2.8219934 0.67301023 1.5279026 -2.4353032e+38
2.841995 0.67361164 1.5300931 -2.4752324e+38
2.8419828 0.66856593 1.5300931 -2.5018693e+38
2.8419707 0.66352028 1.5300931 -2.5151618e+38
2.8419585 0.65847456 1.5300931 -2.5150579e+38
2.8419464 0.65342885 1.5300931 -2.5018697e+38
2.8419342 0.64838314 1.5300931 -2.5151622e+38
2.8619351 0.64871788 1.5322835 -2.5152143e+38
2.861923 0.64363408 1.5322835 -2.5284547e+38
2.8619108 0.63855034 1.5322835 -2.5285066e+38
2.8618984 0.63346654 1.5322835 -2.5285066e+38
2.8618863 0.62838268 1.5322835 -2.5285585e+38
2.8618741 0.62329888 1.5322835 -2.5019738e+38
2.882875 0.62362462 1.5345836 -2.475493e+38
2.8828626 0.61850083 1.5345836 -2.5154739e+38
2.903863 0.61870658 1.5368836 -2.5420583e+38
2.9038506 0.61354274 1.5368836 -2.5553504e+38
2.9258513 0.61387843 1.5392931 -2.5686428e+38
2.9258389 0.60867274 1.5392931 -2.5820392e+38
2.9918656 0.61971408 1.5465217 -2.5953308e+38
3.0631163 1.1397024 1.5487236 nan
2.97101 1.0956436 1.5388227 nan
2.9479742 1.0807495 1.5363474 nan
2.9269402 1.0667744 1.5340874 nan
2.9269278 1.0615686 1.5340874 nan
2.9269152 1.0563629 1.5340874 nan
2.904881 1.0421377 1.5317197 nan
2.9048686 1.036974 1.5317197 nan
2.9048562 1.03181 1.5317197 nan
2.8838234 1.018157 1.5294597 nan
2.883811 1.0130332 1.5294597 nan
2.8837988 1.0079093 1.5294597 nan
2.8627663 0.994416 1.5271997 nan
2.8627541 0.98933208 1.5271997 nan
2.8627417 0.9842484 1.5271997 -2.9299216e+38
2.8627295 0.9791646 1.5271997 -2.7022408e+38
2.8627174 0.9740808 1.5271997 -2.4890971e+38
2.8426864 0.96121645 1.5250473 -2.5689025e+38
2.8426743 0.9561708 1.5250473 -2.6486044e+38
2.8426621 0.95112503 1.5250473 -2.5952795e+38
2.8426499 0.94607937 1.5250473 -2.5551425e+38
2.8426378 0.94103372 1.5250473 -2.5019727e+38
2.8426256 0.93598807 1.5250473 -2.4620434e+38
2.8426135 0.9309423 1.5250473 -2.4354582e+38
2.8426015 0.9258967 1.5250473 -2.4220623e+38
2.8425894 0.92085093 1.5250473 -2.4087183e+38
2.8425772 0.91580522 1.5250473 -2.4087185e+38
2.8425651 0.91075957 1.5250473 -2.3954264e+38
2.8425529 0.90571386 1.5250473 -2.3954264e+38
2.8425407 0.90066814 1.5250473 -2.3953743e+38
2.8425286 0.89562243 1.5250473 -2.3952706e+38
2.8425164 0.89057678 1.5250473 -2.3820824e+38
2.8425045 0.88553107 1.5250473 -2.368842e+38
2.8424923 0.88048536 1.5250473 -2.3555498e+38
2.8424802 0.87543964 1.5250473 -2.3555494e+38
2.842468 0.87039399 1.5250473 -2.3687891e+38
2.8424559 0.86534828 1.5250473 -2.3687376e+38
2.8424437 0.86030257 1.5250473 -2.3553417e+38
2.8424315 0.85525686 1.5250473 -2.3419975e+38
2.8424194 0.8502112 1.5250473 -2.3286531e+38
2.8424075 0.84516549 1.5250473 -2.3152048e+38
2.8423953 0.84011972 1.5250473 -2.3152563e+38
2.8423831 0.83507401 1.5250473 -2.3152044e+38
2.842371 0.83002836 1.5250473 -2.301964e+38
2.8423588 0.82498264 1.5250473 -2.2753276e+38
2.8423467 0.81993693 1.5250473 -2.3019638e+38
2.8423345 0.81489122 1.5250473 -2.3152042e+38
2.8423223 0.80984551 1.5250473 -2.3151521e+38
2.8423102 0.80479985 1.5250473 -2.3283405e+38
2.8422983 0.79975414 1.5250473 -2.315048e+38
2.8623018 0.80123174 1.5271997 -2.3017559e+38
2.8622897 0.79614794 1.5271997 -2.2884637e+38
2.8422618 0.78461707 1.5250473 -2.2751193e+38
2.8622651 0.7859804 1.5271997 -2.275171e+38
2.8422375 0.77452564 1.5250473 -2.2618787e+38
2.8422253 0.76947993 1.5250473 -2.2618785e+38
2.8422132 0.76443428 1.5250473 -2.2618266e+38
2.8422012 0.75938857 1.5250473 -2.2485341e+38
2.8421891 0.75434285 1.5250473 -2.2485343e+38
2.8421769 0.74929714 1.5250473 -2.2485343e+38
2.8421648 0.74425149 1.5250473 -2.2485864e+38
2.8421526 0.73920578 1.5250473 -2.2353463e+38
2.8421404 0.73416007 1.5250473 -2.2353984e+38
2.8421283 0.72911435 1.5250473 -2.2354505e+38
2.8421161 0.72406864 1.5250473 -2.2355026e+38
2.8421042 0.71902293 1.5250473 -2.2621391e+38
2.842092 0.71397722 1.5250473 -2.2887756e+38
2.8220656 0.70305586 1.522895 -2.3021196e+38
2.8220537 0.69804823 1.522895 -2.328705e+38
2.8220415 0.69304061 1.522895 -2.34205e+38
2.8220296 0.68803304 1.522895 -2.3553942e+38
2.8020039 0.67730206 1.5207427 -2.3687382e+38
2.8220055 0.67801785 1.522895 -2.3954266e+38
2.8219934 0.67301023 1.522895 -2.4220112e+38
2.8219814 0.66800261 1.522895 -2.4485442e+38
2.8219693 0.66299504 1.522895 -2.4752849e+38
2.8419707 0.66352028 1.5250473 -2.4885774e+38
2.8219452 0.65297979 1.522895 -2.4885776e+38
2.8419464 0.65342885 1.5250473 -2.4886298e+38
2.8419342 0.64838314 1.5250473 -2.501922e+38
2.841922 0.64333743 1.5250473 -2.5152145e+38
2.861923 0.64363408 1.5271997 -2.5152147e+38
2.8619108 0.63855034 1.5271997 -2.528507e+38
2.8618984 0.63346654 1.5271997 -2.5152145e+38
2.8618863 0.62838268 1.5271997 -2.5152145e+38
2.8618741 0.62329888 1.5271997 -2.5020778e+38
2.8618617 0.61821514 1.5271997 -2.4889415e+38
2.8828626 0.61850083 1.5294597 -2.5154741e+38
2.8828502 0.61337703 1.5294597 -2.5553508e+38
2.9038506 0.61354274 1.5317197 -2.5553504e+38
2.9038382 0.60837895 1.5317197 -2.5685909e+38
2.9258389 0.60867274 1.5340874 -2.5819873e+38
2.9698529 0.61429834 1.5388227 -2.6085712e+38
2.9049058 1.0524653 1.5265559 nan
2.9048934 1.0473015 1.5265559 nan
2.904881 1.0421377 1.5265559 nan
2.9048686 1.036974 1.5265559 nan
2.9048562 1.03181 1.5265559 nan
2.9048438 1.0266464 1.5265559 nan
2.883811 1.0130332 1.5243359 nan
2.8837988 1.0079093 1.5243359 nan
2.8627663 0.994416 1.5221159 nan
2.8627541 0.98933208 1.5221159 nan
2.8627417 0.9842484 1.5221159 -2.6228508e+38
2.8627295 0.9791646 1.5221159 -2.635156e+38
2.8627174 0.9740808 1.5221159 -2.6485523e+38
2.8426864 0.96121645 1.5200016 -2.6486563e+38
2.8426743 0.9561708 1.5200016 -2.6485525e+38
2.8426621 0.95112503 1.5200016 -2.5952795e+38
2.8426499 0.94607937 1.5200016 -2.5419538e+38
2.8426378 0.94103372 1.5200016 -2.5020245e+38
2.8426256 0.93598807 1.5200016 -2.4621474e+38
2.8426135 0.9309423 1.5200016 -2.4620953e+38
2.8426015 0.9258967 1.5200016 -2.4486994e+38
2.8425894 0.92085093 1.5200016 -2.4220112e+38
2.8425772 0.91580522 1.5200016 -2.3822384e+38
2.8425651 0.91075957 1.5200016 -2.3955826e+38
2.8425529 0.90571386 1.5200016 -2.4087708e+38
2.8425407 0.90066814 1.5200016 -2.4087189e+38
2.8425286 0.89562243 1.5200016 -2.408667e+38
2.8425164 0.89057678 1.5200016 -2.4087191e+38
2.8425045 0.88553107 1.5200016 -2.3954266e+38
2.8424923 0.88048536 1.5200016 -2.382238e+38
2.8424802 0.87543964 1.5200016 -2.3688416e+38
2.842468 0.87039399 1.5200016 -2.3688414e+38
2.8424559 0.86534828 1.5200016 -2.3686857e+38
2.8424437 0.86030257 1.5200016 -2.3552897e+38
2.8424315 0.85525686 1.5200016 -2.3419453e+38
2.8424194 0.8502112 1.5200016 -2.3286009e+38
2.8424075 0.84516549 1.5200016 -2.3152567e+38
2.8423953 0.84011972 1.5200016 -2.3286007e+38
2.8423831 0.83507401 1.5200016 -2.3285486e+38
2.842371 0.83002836 1.5200016 -2.3019638e+38
2.8623753 0.83173448 1.5221159 -2.2753789e+38
2.8623629 0.82665074 1.5221159 -2.3020152e+38
2.8623507 0.82156694 1.5221159 -2.3284959e+38
2.8623385 0.81648314 1.5221159 -2.3150997e+38
2.8623264 0.81139934 1.5221159 -2.3018075e+38
2.862314 0.8063156 1.5221159 -2.2884635e+38
