# .PCD v0.7 - Point Cloud Data file format
VERSION 0.7
FIELDS x y z rgb
SIZE 4 4 4 4
TYPE F F F F
COUNT 1 1 1 1
WIDTH 1321
HEIGHT 1
VIEWPOINT 0 0 0 1 0 0 0
POINTS 1321
DATA ascii
9.4729509 -7.1884179 2.5986817 -2.9145062e+38
9.4312534 -6.9429102 2.5510826 -2.9938905e+38
9.420742 -6.9543228 2.5510826 -3.3947428e+38
9.4102287 -6.9657354 2.5510826 nan
9.2893209 -6.8209829 2.5209846 nan
9.389205 -6.9885607 2.5510826 nan
9.3786926 -6.9999733 2.5510826 -3.3668488e+38
9.483717 -7.1767292 2.5827904 -2.6738873e+38
9.548315 -7.1065979 2.5668988 -3.2741172e+38
9.420742 -6.9543228 2.5355663 nan
9.4102287 -6.9657354 2.5355663 nan
9.3997173 -6.9771481 2.5355663 nan
9.389205 -6.9885607 2.5355663 nan
9.4944839 -7.165041 2.5668988 nan
9.483717 -7.1767292 2.5668988 -2.9137162e+38
9.548315 -7.1065979 2.5510073 -3.27396e+38
9.420742 -6.9543228 2.5200503 nan
9.4102287 -6.9657354 2.5200503 nan
9.3997173 -6.9771481 2.5200503 nan
9.389205 -6.9885607 2.5200503 nan
9.4944839 -7.165041 2.5510073 nan
9.5375481 -7.1182866 2.535116 nan
9.4102287 -6.9657354 2.5045342 nan
9.3997173 -6.9771481 2.5045342 nan
9.389205 -6.9885607 2.5045342 -3.2744839e+38
9.4944839 -7.165041 2.535116 -3.3946326e+38
9.5375481 -7.1182866 2.5192246 nan
9.4102287 -6.9657354 2.489018 nan
9.3997173 -6.9771481 2.489018 nan
9.389205 -6.9885607 2.489018 nan
9.4944839 -7.165041 2.5192246 nan
9.5375481 -7.1182866 2.5033331 nan
9.4102287 -6.9657354 2.4735017 nan
9.3997173 -6.9771481 2.4735017 nan
9.389205 -6.9885607 2.4735017 nan
9.4944839 -7.165041 2.5033331 nan
9.5375481 -7.1182866 2.4874415 nan
9.4102287 -6.9657354 2.4579854 nan
9.2893209 -6.8209829 2.4300246 nan
9.389205 -6.9885607 2.4579854 nan
9.3786926 -6.9999733 2.4579854 nan
9.483717 -7.1767292 2.4874415 nan
9.559082 -7.0949092 2.4715502 nan
9.548315 -7.1065979 2.4715502 nan
9.420742 -6.9543228 2.4424694 nan
9.2995911 -6.8098326 2.4148645 nan
9.2893209 -6.8209829 2.4148645 nan
9.2790508 -6.8321333 2.4148645 nan
9.2687798 -6.8432841 2.4148645 nan
9.3681812 -7.0113859 2.4424694 nan
9.3576679 -7.0227985 2.4424694 nan
9.4621849 -7.2001066 2.4715502 nan
9.5698471 -7.0832205 2.4556589 nan
9.559082 -7.0949092 2.4556589 nan
9.4312534 -6.9429102 2.4269531 nan
9.420742 -6.9543228 2.4269531 nan
9.2995911 -6.8098326 2.3997045 nan
9.2893209 -6.8209829 2.3997045 nan
9.2790508 -6.8321333 2.3997045 nan
9.2687798 -6.8432841 2.3997045 nan
9.3681812 -7.0113859 2.4269531 nan
9.3576679 -7.0227985 2.4269531 nan
9.3471565 -7.0342112 2.4269531 nan
9.4514179 -7.2117953 2.4556589 nan
9.5806141 -7.0715322 2.4397674 nan
9.5698471 -7.0832205 2.4397674 nan
9.4417648 -6.9314976 2.411437 nan
9.4312534 -6.9429102 2.411437 nan
9.3098621 -6.7986817 2.3845446 nan
9.2995911 -6.8098326 2.3845446 nan
9.2790508 -6.8321333 2.3845446 nan
9.2687798 -6.8432841 2.3845446 nan
9.2585087 -6.854435 2.3845446 nan
9.3576679 -7.0227985 2.411437 nan
9.3471565 -7.0342112 2.411437 nan
9.3366451 -7.0456238 2.411437 nan
9.4406519 -7.223484 2.4397674 nan
9.4298859 -7.2351723 2.4397674 nan
9.4191189 -7.246861 2.4397674 nan
9.6021461 -7.0481548 2.423876 nan
9.5913811 -7.0598435 2.423876 nan
9.4627895 -6.9086723 2.3959208 nan
9.4522781 -6.920085 2.3959208 nan
9.3304043 -6.7763805 2.3693845 nan
9.3201332 -6.7875309 2.3693845 nan
9.3098621 -6.7986817 2.3693845 nan
9.2790508 -6.8321333 2.3693845 nan
9.2687798 -6.8432841 2.3693845 nan
9.2585087 -6.854435 2.3693845 nan
9.3576679 -7.0227985 2.3959208 nan
9.3471565 -7.0342112 2.3959208 nan
9.3366451 -7.0456238 2.3959208 nan
9.4406519 -7.223484 2.423876 nan
9.4298859 -7.2351723 2.423876 nan
9.3051081 -7.0798616 2.3959208 nan
9.6129131 -7.0364661 2.4079847 nan
9.4838142 -6.8858471 2.3804045 nan
9.4733019 -6.8972597 2.3804045 nan
9.4627895 -6.9086723 2.3804045 nan
9.3406754 -6.7652297 2.3542247 nan
9.3304043 -6.7763805 2.3542247 nan
9.3201332 -6.7875309 2.3542247 nan
9.3098621 -6.7986817 2.3542247 nan
9.2995911 -6.8098326 2.3542247 nan
9.2893209 -6.8209829 2.3542247 nan
9.2790508 -6.8321333 2.3542247 nan
9.2687798 -6.8432841 2.3542247 nan
9.2585087 -6.854435 2.3542247 nan
9.2482376 -6.8655853 2.3542247 nan
9.3471565 -7.0342112 2.3804045 nan
9.3366451 -7.0456238 2.3804045 nan
9.3261318 -7.0570364 2.3804045 nan
9.3156204 -7.068449 2.3804045 nan
9.3051081 -7.0798616 2.3804045 nan
9.4083529 -7.2585497 2.4079847 nan
9.6236801 -7.0247774 2.3920932 nan
9.6129131 -7.0364661 2.3920932 nan
9.4838142 -6.8858471 2.3648882 nan
9.4733019 -6.8972597 2.3648882 nan
9.3509464 -6.7540793 2.3390646 nan
9.3406754 -6.7652297 2.3390646 nan
9.3304043 -6.7763805 2.3390646 nan
9.3201332 -6.7875309 2.3390646 nan
9.3098621 -6.7986817 2.3390646 nan
9.2995911 -6.8098326 2.3390646 nan
9.2893209 -6.8209829 2.3390646 nan
9.2790508 -6.8321333 2.3390646 nan
9.2687798 -6.8432841 2.3390646 nan
9.2585087 -6.854435 2.3390646 nan
9.2482376 -6.8655853 2.3390646 nan
9.3471565 -7.0342112 2.3648882 nan
9.3366451 -7.0456238 2.3648882 nan
9.3261318 -7.0570364 2.3648882 nan
9.3156204 -7.068449 2.3648882 nan
9.3051081 -7.0798616 2.3648882 nan
9.4083529 -7.2585497 2.3920932 nan
9.6667442 -6.9780231 2.3762016 nan
9.6559792 -6.9897118 2.3762016 nan
9.6452122 -7.0014005 2.3762016 nan
9.5153503 -6.8516092 2.3493721 nan
9.5048389 -6.8630219 2.3493721 nan
9.4943256 -6.8744345 2.3493721 nan
9.4838142 -6.8858471 2.3493721 nan
9.4733019 -6.8972597 2.3493721 nan
9.3509464 -6.7540793 2.3239045 nan
9.3406754 -6.7652297 2.3239045 nan
9.3304043 -6.7763805 2.3239045 nan
9.3201332 -6.7875309 2.3239045 nan
9.3098621 -6.7986817 2.3239045 nan
9.4102287 -6.9657354 2.3493721 nan
9.3997173 -6.9771481 2.3493721 nan
9.389205 -6.9885607 2.3493721 nan
9.3786926 -6.9999733 2.3493721 nan
9.3681812 -7.0113859 2.3493721 nan
9.3576679 -7.0227985 2.3493721 nan
9.3471565 -7.0342112 2.3493721 nan
9.3366451 -7.0456238 2.3493721 nan
9.3261318 -7.0570364 2.3493721 nan
9.2071552 -6.9101877 2.3239045 nan
9.1968842 -6.9213386 2.3239045 nan
9.2945957 -7.0912743 2.3493721 nan
9.3975868 -7.2702384 2.3762016 nan
9.6667442 -6.9780231 2.3603103 nan
9.6559792 -6.9897118 2.3603103 nan
9.5258617 -6.8401966 2.3338561 nan
9.5153503 -6.8516092 2.3338561 nan
9.5048389 -6.8630219 2.3338561 nan
9.4943256 -6.8744345 2.3338561 nan
9.3714876 -6.7317781 2.3087444 nan
9.3612165 -6.7429285 2.3087444 nan
9.3509464 -6.7540793 2.3087444 nan
9.3406754 -6.7652297 2.3087444 nan
9.3304043 -6.7763805 2.3087444 nan
9.3201332 -6.7875309 2.3087444 nan
9.3098621 -6.7986817 2.3087444 nan
9.4102287 -6.9657354 2.3338561 nan
9.3997173 -6.9771481 2.3338561 nan
9.389205 -6.9885607 2.3338561 nan
9.3786926 -6.9999733 2.3338561 nan
9.3681812 -7.0113859 2.3338561 nan
9.3576679 -7.0227985 2.3338561 nan
9.3471565 -7.0342112 2.3338561 nan
9.3366451 -7.0456238 2.3338561 nan
9.2174253 -6.8990374 2.3087444 nan
9.2071552 -6.9101877 2.3087444 nan
9.1968842 -6.9213386 2.3087444 nan
9.1866131 -6.9324894 2.3087444 nan
9.2840843 -7.1026869 2.3338561 nan
9.273571 -7.1140995 2.3338561 nan
9.3760538 -7.2936153 2.3603103 nan
9.5468864 -6.8173714 2.3183398 nan
9.536375 -6.828784 2.3183398 nan
9.5258617 -6.8401966 2.3183398 nan
9.5153503 -6.8516092 2.3183398 nan
9.5048389 -6.8630219 2.3183398 nan
9.4943256 -6.8744345 2.3183398 nan
9.4838142 -6.8858471 2.3183398 nan
9.4733019 -6.8972597 2.3183398 nan
9.3509464 -6.7540793 2.2935846 nan
9.4522781 -6.920085 2.3183398 nan
9.4417648 -6.9314976 2.3183398 nan
9.4312534 -6.9429102 2.3183398 nan
9.420742 -6.9543228 2.3183398 nan
9.4102287 -6.9657354 2.3183398 nan
9.3997173 -6.9771481 2.3183398 nan
9.389205 -6.9885607 2.3183398 nan
9.3786926 -6.9999733 2.3183398 nan
9.3681812 -7.0113859 2.3183398 nan
9.3576679 -7.0227985 2.3183398 nan
9.2379665 -6.8767362 2.2935846 nan
9.2276964 -6.887887 2.2935846 nan
9.2174253 -6.8990374 2.2935846 nan
9.2071552 -6.9101877 2.2935846 nan
9.1968842 -6.9213386 2.2935846 nan
9.1866131 -6.9324894 2.2935846 nan
9.176342 -6.9436398 2.2935846 nan
9.273571 -7.1140995 2.3183398 nan
9.3760538 -7.2936153 2.344419 nan
9.6667442 -6.9780231 2.3285275 nan
9.6559792 -6.9897118 2.3285275 nan
9.5258617 -6.8401966 2.3028235 nan
9.5153503 -6.8516092 2.3028235 nan
9.5048389 -6.8630219 2.3028235 nan
9.4943256 -6.8744345 2.3028235 nan
9.4838142 -6.8858471 2.3028235 nan
9.4733019 -6.8972597 2.3028235 nan
9.3509464 -6.7540793 2.2784245 nan
9.3406754 -6.7652297 2.2784245 nan
9.4417648 -6.9314976 2.3028235 nan
9.3201332 -6.7875309 2.2784245 nan
9.420742 -6.9543228 2.3028235 nan
9.4102287 -6.9657354 2.3028235 nan
9.3997173 -6.9771481 2.3028235 nan
9.389205 -6.9885607 2.3028235 nan
9.3786926 -6.9999733 2.3028235 nan
9.2585087 -6.854435 2.2784245 nan
9.2482376 -6.8655853 2.2784245 nan
9.2379665 -6.8767362 2.2784245 nan
9.2276964 -6.887887 2.2784245 nan
9.2174253 -6.8990374 2.2784245 nan
9.2071552 -6.9101877 2.2784245 nan
9.1968842 -6.9213386 2.2784245 nan
9.1866131 -6.9324894 2.2784245 nan
9.176342 -6.9436398 2.2784245 nan
9.273571 -7.1140995 2.3028235 nan
9.2630596 -7.1255121 2.3028235 nan
9.6775112 -6.9663343 2.3126359 nan
9.6667442 -6.9780231 2.3126359 nan
9.6559792 -6.9897118 2.3126359 nan
9.5258617 -6.8401966 2.2873073 nan
9.5153503 -6.8516092 2.2873073 nan
9.5048389 -6.8630219 2.2873073 nan
9.4943256 -6.8744345 2.2873073 nan
9.4838142 -6.8858471 2.2873073 nan
9.4733019 -6.8972597 2.2873073 nan
9.3509464 -6.7540793 2.2632647 nan
9.4522781 -6.920085 2.2873073 nan
9.4417648 -6.9314976 2.2873073 nan
9.4312534 -6.9429102 2.2873073 nan
9.420742 -6.9543228 2.2873073 nan
9.4102287 -6.9657354 2.2873073 nan
9.3997173 -6.9771481 2.2873073 nan
9.389205 -6.9885607 2.2873073 nan
9.3786926 -6.9999733 2.2873073 nan
9.2585087 -6.854435 2.2632647 nan
9.2482376 -6.8655853 2.2632647 nan
9.2379665 -6.8767362 2.2632647 nan
9.2276964 -6.887887 2.2632647 nan
9.2174253 -6.8990374 2.2632647 nan
9.2071552 -6.9101877 2.2632647 nan
9.1968842 -6.9213386 2.2632647 nan
9.1866131 -6.9324894 2.2632647 nan
9.176342 -6.9436398 2.2632647 nan
9.273571 -7.1140995 2.2873073 nan
9.2630596 -7.1255121 2.2873073 nan
9.6882772 -6.9546461 2.2967446 nan
9.6775112 -6.9663343 2.2967446 nan
9.6667442 -6.9780231 2.2967446 nan
9.6559792 -6.9897118 2.2967446 nan
9.6452122 -7.0014005 2.2967446 nan
9.5153503 -6.8516092 2.2717912 nan
9.5048389 -6.8630219 2.2717912 nan
9.4943256 -6.8744345 2.2717912 nan
9.4838142 -6.8858471 2.2717912 nan
9.4733019 -6.8972597 2.2717912 nan
9.3509464 -6.7540793 2.2481046 nan
9.4522781 -6.920085 2.2717912 nan
9.4417648 -6.9314976 2.2717912 nan
9.4312534 -6.9429102 2.2717912 nan
9.420742 -6.9543228 2.2717912 nan
9.4102287 -6.9657354 2.2717912 nan
9.3997173 -6.9771481 2.2717912 nan
9.389205 -6.9885607 2.2717912 nan
9.3786926 -6.9999733 2.2717912 nan
9.3681812 -7.0113859 2.2717912 nan
9.3576679 -7.0227985 2.2717912 nan
9.2379665 -6.8767362 2.2481046 nan
9.2276964 -6.887887 2.2481046 nan
9.2174253 -6.8990374 2.2481046 nan
9.2071552 -6.9101877 2.2481046 nan
9.1968842 -6.9213386 2.2481046 nan
9.1866131 -6.9324894 2.2481046 nan
9.176342 -6.9436398 2.2481046 nan
9.273571 -7.1140995 2.2717912 nan
9.1558008 -6.965941 2.2481046 nan
9.1455297 -6.9770918 2.2481046 nan
9.6990433 -6.9429574 2.2808533 nan
9.6882772 -6.9546461 2.2808533 nan
9.6775112 -6.9663343 2.2808533 nan
9.6667442 -6.9780231 2.2808533 nan
9.6559792 -6.9897118 2.2808533 nan
9.5258617 -6.8401966 2.2562752 nan
9.5153503 -6.8516092 2.2562752 nan
9.5048389 -6.8630219 2.2562752 nan
9.4943256 -6.8744345 2.2562752 nan
9.4838142 -6.8858471 2.2562752 nan
9.4733019 -6.8972597 2.2562752 nan
9.4627895 -6.9086723 2.2562752 nan
9.4522781 -6.920085 2.2562752 nan
9.4417648 -6.9314976 2.2562752 nan
9.4312534 -6.9429102 2.2562752 nan
9.420742 -6.9543228 2.2562752 nan
9.4102287 -6.9657354 2.2562752 nan
9.3997173 -6.9771481 2.2562752 nan
9.389205 -6.9885607 2.2562752 nan
9.3786926 -6.9999733 2.2562752 nan
9.3681812 -7.0113859 2.2562752 nan
9.3576679 -7.0227985 2.2562752 nan
9.2379665 -6.8767362 2.2329445 nan
9.2276964 -6.887887 2.2329445 nan
9.2174253 -6.8990374 2.2329445 nan
9.2071552 -6.9101877 2.2329445 nan
9.1968842 -6.9213386 2.2329445 nan
9.2945957 -7.0912743 2.2562752 nan
9.176342 -6.9436398 2.2329445 nan
9.273571 -7.1140995 2.2562752 nan
9.1558008 -6.965941 2.2329445 nan
9.1455297 -6.9770918 2.2329445 nan
9.6990433 -6.9429574 2.2649617 nan
9.6882772 -6.9546461 2.2649617 nan
9.5573988 -6.8059587 2.2407589 nan
9.6667442 -6.9780231 2.2649617 nan
9.6559792 -6.9897118 2.2649617 nan
9.5258617 -6.8401966 2.2407589 nan
9.5153503 -6.8516092 2.2407589 nan
9.5048389 -6.8630219 2.2407589 nan
9.4943256 -6.8744345 2.2407589 nan
9.4838142 -6.8858471 2.2407589 nan
9.4733019 -6.8972597 2.2407589 nan
9.3509464 -6.7540793 2.2177844 nan
9.4522781 -6.920085 2.2407589 nan
9.4417648 -6.9314976 2.2407589 nan
9.3201332 -6.7875309 2.2177844 nan
9.3098621 -6.7986817 2.2177844 nan
9.2995911 -6.8098326 2.2177844 nan
9.2893209 -6.8209829 2.2177844 nan
9.2790508 -6.8321333 2.2177844 nan
9.2687798 -6.8432841 2.2177844 nan
9.2585087 -6.854435 2.2177844 nan
9.3576679 -7.0227985 2.2407589 nan
9.2379665 -6.8767362 2.2177844 nan
9.2276964 -6.887887 2.2177844 nan
9.2174253 -6.8990374 2.2177844 nan
9.2071552 -6.9101877 2.2177844 nan
9.1968842 -6.9213386 2.2177844 nan
9.1866131 -6.9324894 2.2177844 nan
9.1660709 -6.9547906 2.2177844 nan
9.1558008 -6.965941 2.2177844 nan
9.2525482 -7.1369247 2.2407589 nan
9.2420349 -7.1483374 2.2407589 nan
9.6882772 -6.9546461 2.2490702 nan
9.5573988 -6.8059587 2.2252426 nan
9.5468864 -6.8173714 2.2252426 nan
9.6559792 -6.9897118 2.2490702 nan
9.5258617 -6.8401966 2.2252426 nan
9.5153503 -6.8516092 2.2252426 nan
9.3920288 -6.7094765 2.2026246 nan
9.4943256 -6.8744345 2.2252426 nan
9.4838142 -6.8858471 2.2252426 nan
9.4733019 -6.8972597 2.2252426 nan
9.4627895 -6.9086723 2.2252426 nan
9.4522781 -6.920085 2.2252426 nan
9.4417648 -6.9314976 2.2252426 nan
9.4312534 -6.9429102 2.2252426 nan
9.420742 -6.9543228 2.2252426 nan
9.2995911 -6.8098326 2.2026246 nan
9.2893209 -6.8209829 2.2026246 nan
9.2790508 -6.8321333 2.2026246 nan
9.2687798 -6.8432841 2.2026246 nan
9.2585087 -6.854435 2.2026246 nan
9.3576679 -7.0227985 2.2252426 nan
9.2379665 -6.8767362 2.2026246 nan
9.3366451 -7.0456238 2.2252426 nan
9.3261318 -7.0570364 2.2252426 nan
9.1968842 -6.9213386 2.2026246 nan
9.1866131 -6.9324894 2.2026246 nan
9.176342 -6.9436398 2.2026246 nan
9.1660709 -6.9547906 2.2026246 nan
9.1558008 -6.965941 2.2026246 nan
9.2525482 -7.1369247 2.2252426 nan
9.2420349 -7.1483374 2.2252426 nan
9.2315235 -7.15975 2.2252426 nan
9.6990433 -6.9429574 2.2331789 nan
9.6882772 -6.9546461 2.2331789 nan
9.5573988 -6.8059587 2.2097263 nan
9.5468864 -6.8173714 2.2097263 nan
9.536375 -6.828784 2.2097263 nan
9.5258617 -6.8401966 2.2097263 nan
9.5153503 -6.8516092 2.2097263 nan
9.3920288 -6.7094765 2.1874645 nan
9.4943256 -6.8744345 2.2097263 nan
9.4838142 -6.8858471 2.2097263 nan
9.4733019 -6.8972597 2.2097263 nan
9.4627895 -6.9086723 2.2097263 nan
9.4522781 -6.920085 2.2097263 nan
9.4417648 -6.9314976 2.2097263 nan
9.4312534 -6.9429102 2.2097263 nan
9.3098621 -6.7986817 2.1874645 nan
9.2995911 -6.8098326 2.1874645 nan
9.2893209 -6.8209829 2.1874645 nan
9.2790508 -6.8321333 2.1874645 nan
9.2687798 -6.8432841 2.1874645 nan
9.2585087 -6.854435 2.1874645 nan
9.2482376 -6.8655853 2.1874645 nan
9.2379665 -6.8767362 2.1874645 nan
9.2276964 -6.887887 2.1874645 nan
9.2174253 -6.8990374 2.1874645 nan
9.2071552 -6.9101877 2.1874645 nan
9.1968842 -6.9213386 2.1874645 nan
9.1866131 -6.9324894 2.1874645 nan
9.176342 -6.9436398 2.1874645 nan
9.1660709 -6.9547906 2.1874645 nan
9.1558008 -6.965941 2.1874645 nan
9.2525482 -7.1369247 2.2097263 nan
9.2420349 -7.1483374 2.2097263 nan
9.6990433 -6.9429574 2.2172875 nan
9.5679111 -6.7945461 2.1942103 nan
9.5573988 -6.8059587 2.1942103 nan
9.5468864 -6.8173714 2.1942103 nan
9.536375 -6.828784 2.1942103 nan
9.5258617 -6.8401966 2.1942103 nan
9.4022999 -6.6983261 2.1723046 nan
9.3920288 -6.7094765 2.1723046 nan
9.3817577 -6.7206273 2.1723046 nan
9.4838142 -6.8858471 2.1942103 nan
9.4733019 -6.8972597 2.1942103 nan
9.4627895 -6.9086723 2.1942103 nan
9.4522781 -6.920085 2.1942103 nan
9.4417648 -6.9314976 2.1942103 nan
9.3201332 -6.7875309 2.1723046 nan
9.3098621 -6.7986817 2.1723046 nan
9.2995911 -6.8098326 2.1723046 nan
9.2893209 -6.8209829 2.1723046 nan
9.2790508 -6.8321333 2.1723046 nan
9.2687798 -6.8432841 2.1723046 nan
9.2585087 -6.854435 2.1723046 nan
9.2482376 -6.8655853 2.1723046 nan
9.2379665 -6.8767362 2.1723046 nan
9.2276964 -6.887887 2.1723046 nan
9.2174253 -6.8990374 2.1723046 nan
9.2071552 -6.9101877 2.1723046 nan
9.1968842 -6.9213386 2.1723046 nan
9.1866131 -6.9324894 2.1723046 nan
9.176342 -6.9436398 2.1723046 nan
9.1660709 -6.9547906 2.1723046 nan
9.1558008 -6.965941 2.1723046 nan
9.2525482 -7.1369247 2.1942103 nan
9.2420349 -7.1483374 2.1942103 nan
9.7205763 -6.91958 2.201396 nan
9.7098103 -6.9312687 2.201396 nan
9.5784225 -6.7831335 2.178694 nan
9.5679111 -6.7945461 2.178694 nan
9.5573988 -6.8059587 2.178694 nan
9.5468864 -6.8173714 2.178694 nan
9.536375 -6.828784 2.178694 nan
9.5258617 -6.8401966 2.178694 nan
9.5153503 -6.8516092 2.178694 nan
9.3920288 -6.7094765 2.1571445 nan
9.4943256 -6.8744345 2.178694 nan
9.4838142 -6.8858471 2.178694 nan
9.4733019 -6.8972597 2.178694 nan
9.4627895 -6.9086723 2.178694 nan
9.4522781 -6.920085 2.178694 nan
9.4417648 -6.9314976 2.178694 nan
9.4312534 -6.9429102 2.178694 nan
9.3098621 -6.7986817 2.1571445 nan
9.2995911 -6.8098326 2.1571445 nan
9.2893209 -6.8209829 2.1571445 nan
9.2790508 -6.8321333 2.1571445 nan
9.2687798 -6.8432841 2.1571445 nan
9.2585087 -6.854435 2.1571445 nan
9.2482376 -6.8655853 2.1571445 nan
9.2379665 -6.8767362 2.1571445 nan
9.2276964 -6.887887 2.1571445 nan
9.2174253 -6.8990374 2.1571445 nan
9.2071552 -6.9101877 2.1571445 nan
9.1968842 -6.9213386 2.1571445 nan
9.1866131 -6.9324894 2.1571445 nan
9.176342 -6.9436398 2.1571445 nan
9.1660709 -6.9547906 2.1571445 nan
9.1558008 -6.965941 2.1571445 nan
9.2525482 -7.1369247 2.178694 nan
9.2420349 -7.1483374 2.178694 nan
9.7313423 -6.9078913 2.1855044 nan
9.7205763 -6.91958 2.1855044 nan
9.5889349 -6.7717209 2.163178 nan
9.5784225 -6.7831335 2.163178 nan
9.5679111 -6.7945461 2.163178 nan
9.5573988 -6.8059587 2.163178 nan
9.5468864 -6.8173714 2.163178 nan
9.536375 -6.828784 2.163178 nan
9.5258617 -6.8401966 2.163178 nan
9.5153503 -6.8516092 2.163178 nan
9.3920288 -6.7094765 2.1419845 nan
9.4943256 -6.8744345 2.163178 nan
9.4838142 -6.8858471 2.163178 nan
9.4733019 -6.8972597 2.163178 nan
9.4627895 -6.9086723 2.163178 nan
9.4522781 -6.920085 2.163178 nan
9.4417648 -6.9314976 2.163178 nan
9.4312534 -6.9429102 2.163178 nan
9.3098621 -6.7986817 2.1419845 nan
9.2995911 -6.8098326 2.1419845 nan
9.2893209 -6.8209829 2.1419845 nan
9.2790508 -6.8321333 2.1419845 nan
9.2687798 -6.8432841 2.1419845 nan
9.2585087 -6.854435 2.1419845 nan
9.2482376 -6.8655853 2.1419845 nan
9.2379665 -6.8767362 2.1419845 nan
9.2276964 -6.887887 2.1419845 nan
9.2174253 -6.8990374 2.1419845 nan
9.2071552 -6.9101877 2.1419845 nan
9.1968842 -6.9213386 2.1419845 nan
9.1866131 -6.9324894 2.1419845 nan
9.176342 -6.9436398 2.1419845 nan
9.1660709 -6.9547906 2.1419845 nan
9.1558008 -6.965941 2.1419845 nan
9.2525482 -7.1369247 2.163178 nan
9.2420349 -7.1483374 2.163178 nan
9.7313423 -6.9078913 2.1696131 nan
9.5889349 -6.7717209 2.1476617 nan
9.5784225 -6.7831335 2.1476617 nan
9.5679111 -6.7945461 2.1476617 nan
9.5573988 -6.8059587 2.1476617 nan
9.5468864 -6.8173714 2.1476617 nan
9.536375 -6.828784 2.1476617 nan
9.5258617 -6.8401966 2.1476617 nan
9.5153503 -6.8516092 2.1476617 nan
9.3920288 -6.7094765 2.1268246 nan
9.4943256 -6.8744345 2.1476617 nan
9.4838142 -6.8858471 2.1476617 nan
9.4733019 -6.8972597 2.1476617 nan
9.4627895 -6.9086723 2.1476617 nan
9.4522781 -6.920085 2.1476617 nan
9.4417648 -6.9314976 2.1476617 nan
9.4312534 -6.9429102 2.1476617 nan
9.3098621 -6.7986817 2.1268246 nan
9.2995911 -6.8098326 2.1268246 nan
9.2893209 -6.8209829 2.1268246 nan
9.2790508 -6.8321333 2.1268246 nan
9.2687798 -6.8432841 2.1268246 nan
9.2585087 -6.854435 2.1268246 nan
9.2482376 -6.8655853 2.1268246 nan
9.2379665 -6.8767362 2.1268246 nan
9.2276964 -6.887887 2.1268246 nan
9.2174253 -6.8990374 2.1268246 nan
9.2071552 -6.9101877 2.1268246 nan
9.1968842 -6.9213386 2.1268246 nan
9.1866131 -6.9324894 2.1268246 nan
9.176342 -6.9436398 2.1268246 nan
9.1660709 -6.9547906 2.1268246 nan
9.1558008 -6.965941 2.1268246 nan
9.2525482 -7.1369247 2.1476617 nan
9.2420349 -7.1483374 2.1476617 nan
9.7313423 -6.9078913 2.1537218 nan
9.5889349 -6.7717209 2.1321454 nan
9.5784225 -6.7831335 2.1321454 nan
9.5679111 -6.7945461 2.1321454 nan
9.5573988 -6.8059587 2.1321454 nan
9.5468864 -6.8173714 2.1321454 nan
9.536375 -6.828784 2.1321454 nan
9.5258617 -6.8401966 2.1321454 nan
9.5153503 -6.8516092 2.1321454 nan
9.5048389 -6.8630219 2.1321454 nan
9.4943256 -6.8744345 2.1321454 nan
9.4838142 -6.8858471 2.1321454 nan
9.4733019 -6.8972597 2.1321454 nan
9.4627895 -6.9086723 2.1321454 nan
9.4522781 -6.920085 2.1321454 nan
9.3304043 -6.7763805 2.1116645 nan
9.3201332 -6.7875309 2.1116645 nan
9.3098621 -6.7986817 2.1116645 nan
9.2995911 -6.8098326 2.1116645 nan
9.2893209 -6.8209829 2.1116645 nan
9.2790508 -6.8321333 2.1116645 nan
9.2687798 -6.8432841 2.1116645 nan
9.2585087 -6.854435 2.1116645 nan
9.2482376 -6.8655853 2.1116645 nan
9.2379665 -6.8767362 2.1116645 nan
9.2276964 -6.887887 2.1116645 nan
9.2174253 -6.8990374 2.1116645 nan
9.2071552 -6.9101877 2.1116645 nan
9.1968842 -6.9213386 2.1116645 nan
9.1866131 -6.9324894 2.1116645 nan
9.176342 -6.9436398 2.1116645 nan
9.1660709 -6.9547906 2.1116645 nan
9.1558008 -6.965941 2.1116645 nan
9.2525482 -7.1369247 2.1321454 nan
9.2420349 -7.1483374 2.1321454 nan
9.7313423 -6.9078913 2.1378303 nan
9.7205763 -6.91958 2.1378303 nan
9.7098103 -6.9312687 2.1378303 nan
9.6990433 -6.9429574 2.1378303 nan
9.5679111 -6.7945461 2.1166294 nan
9.5573988 -6.8059587 2.1166294 nan
9.5468864 -6.8173714 2.1166294 nan
9.536375 -6.828784 2.1166294 nan
9.5258617 -6.8401966 2.1166294 nan
9.5153503 -6.8516092 2.1166294 nan
9.5048389 -6.8630219 2.1166294 nan
9.4943256 -6.8744345 2.1166294 nan
9.4838142 -6.8858471 2.1166294 nan
9.4733019 -6.8972597 2.1166294 nan
9.4627895 -6.9086723 2.1166294 nan
9.4522781 -6.920085 2.1166294 nan
9.4417648 -6.9314976 2.1166294 nan
9.4312534 -6.9429102 2.1166294 nan
9.3098621 -6.7986817 2.0965047 nan
9.2995911 -6.8098326 2.0965047 nan
9.2893209 -6.8209829 2.0965047 nan
9.2790508 -6.8321333 2.0965047 nan
9.2687798 -6.8432841 2.0965047 nan
9.2585087 -6.854435 2.0965047 nan
9.2482376 -6.8655853 2.0965047 nan
9.2379665 -6.8767362 2.0965047 nan
9.2276964 -6.887887 2.0965047 nan
9.1968842 -6.9213386 2.0965047 nan
9.1866131 -6.9324894 2.0965047 nan
9.176342 -6.9436398 2.0965047 nan
9.1660709 -6.9547906 2.0965047 nan
9.1558008 -6.965941 2.0965047 nan
9.2525482 -7.1369247 2.1166294 nan
9.7205763 -6.91958 2.1219387 nan
9.7098103 -6.9312687 2.1219387 nan
9.6990433 -6.9429574 2.1219387 nan
9.6882772 -6.9546461 2.1219387 nan
9.6775112 -6.9663343 2.1219387 nan
9.6667442 -6.9780231 2.1219387 nan
9.6559792 -6.9897118 2.1219387 nan
9.5258617 -6.8401966 2.1011131 nan
9.5153503 -6.8516092 2.1011131 nan
9.5048389 -6.8630219 2.1011131 nan
9.4943256 -6.8744345 2.1011131 nan
9.4838142 -6.8858471 2.1011131 nan
9.4733019 -6.8972597 2.1011131 nan
9.4627895 -6.9086723 2.1011131 nan
9.4522781 -6.920085 2.1011131 nan
9.4417648 -6.9314976 2.1011131 nan
9.4312534 -6.9429102 2.1011131 nan
9.3098621 -6.7986817 2.0813446 nan
9.2995911 -6.8098326 2.0813446 nan
9.2893209 -6.8209829 2.0813446 nan
9.389205 -6.9885607 2.1011131 nan
9.2687798 -6.8432841 2.0813446 nan
9.2585087 -6.854435 2.0813446 nan
9.2482376 -6.8655853 2.0813446 nan
9.2379665 -6.8767362 2.0813446 nan
9.2276964 -6.887887 2.0813446 nan
9.1866131 -6.9324894 2.0813446 nan
9.176342 -6.9436398 2.0813446 nan
9.1660709 -6.9547906 2.0813446 nan
9.1558008 -6.965941 2.0813446 nan
9.2525482 -7.1369247 2.1011131 nan
9.6775112 -6.9663343 2.1060474 nan
9.6667442 -6.9780231 2.1060474 nan
9.6559792 -6.9897118 2.1060474 nan
9.6452122 -7.0014005 2.1060474 nan
9.5153503 -6.8516092 2.085597 nan
9.5048389 -6.8630219 2.085597 nan
9.4943256 -6.8744345 2.085597 nan
9.4838142 -6.8858471 2.085597 nan
9.4733019 -6.8972597 2.085597 nan
9.4627895 -6.9086723 2.085597 nan
9.4522781 -6.920085 2.085597 nan
9.4417648 -6.9314976 2.085597 nan
9.4312534 -6.9429102 2.085597 nan
9.420742 -6.9543228 2.085597 nan
9.2995911 -6.8098326 2.0661845 nan
9.3997173 -6.9771481 2.085597 nan
9.389205 -6.9885607 2.085597 nan
9.2687798 -6.8432841 2.0661845 nan
9.2585087 -6.854435 2.0661845 nan
9.2482376 -6.8655853 2.0661845 nan
9.2379665 -6.8767362 2.0661845 nan
9.2276964 -6.887887 2.0661845 nan
9.2174253 -6.8990374 2.0661845 nan
9.1968842 -6.9213386 2.0661845 nan
9.1866131 -6.9324894 2.0661845 nan
9.176342 -6.9436398 2.0661845 nan
9.1660709 -6.9547906 2.0661845 nan
9.1558008 -6.965941 2.0661845 nan
9.2525482 -7.1369247 2.085597 nan
9.6775112 -6.9663343 2.0901561 nan
9.6667442 -6.9780231 2.0901561 nan
9.6559792 -6.9897118 2.0901561 nan
9.5258617 -6.8401966 2.0700808 nan
9.5153503 -6.8516092 2.0700808 nan
9.5048389 -6.8630219 2.0700808 nan
9.4943256 -6.8744345 2.0700808 nan
9.4838142 -6.8858471 2.0700808 nan
9.4733019 -6.8972597 2.0700808 nan
9.4627895 -6.9086723 2.0700808 nan
9.4522781 -6.920085 2.0700808 nan
9.4417648 -6.9314976 2.0700808 nan
9.4312534 -6.9429102 2.0700808 nan
9.420742 -6.9543228 2.0700808 nan
9.4102287 -6.9657354 2.0700808 nan
9.3997173 -6.9771481 2.0700808 nan
9.389205 -6.9885607 2.0700808 nan
9.3786926 -6.9999733 2.0700808 nan
9.2585087 -6.854435 2.0510244 nan
9.2482376 -6.8655853 2.0510244 nan
9.2379665 -6.8767362 2.0510244 nan
9.2276964 -6.887887 2.0510244 nan
9.2174253 -6.8990374 2.0510244 nan
9.1968842 -6.9213386 2.0510244 nan
9.1866131 -6.9324894 2.0510244 nan
9.176342 -6.9436398 2.0510244 nan
9.1660709 -6.9547906 2.0510244 nan
9.1558008 -6.965941 2.0510244 nan
9.2525482 -7.1369247 2.0700808 nan
9.6775112 -6.9663343 2.0742645 nan
9.6667442 -6.9780231 2.0742645 nan
9.6559792 -6.9897118 2.0742645 nan
9.5258617 -6.8401966 2.0545645 nan
9.5153503 -6.8516092 2.0545645 nan
9.5048389 -6.8630219 2.0545645 nan
9.4943256 -6.8744345 2.0545645 nan
9.4838142 -6.8858471 2.0545645 nan
9.4733019 -6.8972597 2.0545645 nan
9.4627895 -6.9086723 2.0545645 nan
9.4522781 -6.920085 2.0545645 nan
9.4417648 -6.9314976 2.0545645 nan
9.3201332 -6.7875309 2.0358646 nan
9.3098621 -6.7986817 2.0358646 nan
9.2995911 -6.8098326 2.0358646 nan
9.3997173 -6.9771481 2.0545645 nan
9.2790508 -6.8321333 2.0358646 nan
9.2687798 -6.8432841 2.0358646 nan
9.2585087 -6.854435 2.0358646 nan
9.2482376 -6.8655853 2.0358646 nan
9.2379665 -6.8767362 2.0358646 nan
9.2276964 -6.887887 2.0358646 nan
9.2174253 -6.8990374 2.0358646 nan
9.2071552 -6.9101877 2.0358646 nan
9.1968842 -6.9213386 2.0358646 nan
9.1866131 -6.9324894 2.0358646 nan
9.176342 -6.9436398 2.0358646 nan
9.1660709 -6.9547906 2.0358646 nan
9.1558008 -6.965941 2.0358646 nan
9.2525482 -7.1369247 2.0545645 nan
9.6775112 -6.9663343 2.058373 nan
9.6667442 -6.9780231 2.058373 nan
9.6559792 -6.9897118 2.058373 nan
9.5258617 -6.8401966 2.0390484 nan
9.5153503 -6.8516092 2.0390484 nan
9.5048389 -6.8630219 2.0390484 nan
9.4943256 -6.8744345 2.0390484 nan
9.4838142 -6.8858471 2.0390484 nan
9.4733019 -6.8972597 2.0390484 nan
9.4627895 -6.9086723 2.0390484 nan
9.4522781 -6.920085 2.0390484 nan
9.4417648 -6.9314976 2.0390484 nan
9.4312534 -6.9429102 2.0390484 nan
9.3098621 -6.7986817 2.0207045 nan
9.4102287 -6.9657354 2.0390484 nan
9.3997173 -6.9771481 2.0390484 nan
9.2790508 -6.8321333 2.0207045 nan
9.2687798 -6.8432841 2.0207045 nan
9.2585087 -6.854435 2.0207045 nan
9.2482376 -6.8655853 2.0207045 nan
9.2379665 -6.8767362 2.0207045 nan
9.2276964 -6.887887 2.0207045 nan
9.2174253 -6.8990374 2.0207045 nan
9.2071552 -6.9101877 2.0207045 nan
9.1968842 -6.9213386 2.0207045 nan
9.1866131 -6.9324894 2.0207045 nan
9.176342 -6.9436398 2.0207045 nan
9.1660709 -6.9547906 2.0207045 nan
9.1558008 -6.965941 2.0207045 nan
9.2525482 -7.1369247 2.0390484 nan
9.6775112 -6.9663343 2.0424817 nan
9.6667442 -6.9780231 2.0424817 nan
9.6559792 -6.9897118 2.0424817 nan
9.5258617 -6.8401966 2.0235322 nan
9.5153503 -6.8516092 2.0235322 nan
9.5048389 -6.8630219 2.0235322 nan
9.4943256 -6.8744345 2.0235322 nan
9.4838142 -6.8858471 2.0235322 nan
9.4733019 -6.8972597 2.0235322 nan
9.4627895 -6.9086723 2.0235322 nan
9.4522781 -6.920085 2.0235322 nan
9.4417648 -6.9314976 2.0235322 nan
9.4312534 -6.9429102 2.0235322 nan
9.3098621 -6.7986817 2.0055447 nan
9.4102287 -6.9657354 2.0235322 nan
9.3997173 -6.9771481 2.0235322 nan
9.2790508 -6.8321333 2.0055447 nan
9.2687798 -6.8432841 2.0055447 nan
9.2585087 -6.854435 2.0055447 nan
9.2482376 -6.8655853 2.0055447 nan
9.2379665 -6.8767362 2.0055447 nan
9.2276964 -6.887887 2.0055447 nan
9.2174253 -6.8990374 2.0055447 nan
9.2071552 -6.9101877 2.0055447 nan
9.1968842 -6.9213386 2.0055447 nan
9.1866131 -6.9324894 2.0055447 nan
9.176342 -6.9436398 2.0055447 nan
9.1660709 -6.9547906 2.0055447 nan
9.1558008 -6.965941 2.0055447 nan
9.2525482 -7.1369247 2.0235322 nan
9.2420349 -7.1483374 2.0235322 nan
9.6775112 -6.9663343 2.0265903 nan
9.6667442 -6.9780231 2.0265903 nan
9.6559792 -6.9897118 2.0265903 nan
9.5258617 -6.8401966 2.0080161 nan
9.5153503 -6.8516092 2.0080161 nan
9.5048389 -6.8630219 2.0080161 nan
9.4943256 -6.8744345 2.0080161 nan
9.4838142 -6.8858471 2.0080161 nan
9.3612165 -6.7429285 1.9903846 nan
9.4627895 -6.9086723 2.0080161 nan
9.4522781 -6.920085 2.0080161 nan
9.4417648 -6.9314976 2.0080161 nan
9.4312534 -6.9429102 2.0080161 nan
9.3098621 -6.7986817 1.9903846 nan
9.4102287 -6.9657354 2.0080161 nan
9.3997173 -6.9771481 2.0080161 nan
9.389205 -6.9885607 2.0080161 nan
9.3786926 -6.9999733 2.0080161 nan
9.2585087 -6.854435 1.9903846 nan
9.2482376 -6.8655853 1.9903846 nan
9.2379665 -6.8767362 1.9903846 nan
9.2276964 -6.887887 1.9903846 nan
9.2174253 -6.8990374 1.9903846 nan
9.2071552 -6.9101877 1.9903846 nan
9.1968842 -6.9213386 1.9903846 nan
9.1866131 -6.9324894 1.9903846 nan
9.176342 -6.9436398 1.9903846 nan
9.1660709 -6.9547906 1.9903846 nan
9.1558008 -6.965941 1.9903846 nan
9.2525482 -7.1369247 2.0080161 nan
9.6775112 -6.9663343 2.0106988 nan
9.6667442 -6.9780231 2.0106988 nan
9.536375 -6.828784 1.9924998 nan
9.5258617 -6.8401966 1.9924998 nan
9.5153503 -6.8516092 1.9924998 nan
9.5048389 -6.8630219 1.9924998 nan
9.4943256 -6.8744345 1.9924998 nan
9.3714876 -6.7317781 1.9752245 nan
9.3612165 -6.7429285 1.9752245 nan
9.3509464 -6.7540793 1.9752245 nan
9.4522781 -6.920085 1.9924998 nan
9.4417648 -6.9314976 1.9924998 nan
9.4312534 -6.9429102 1.9924998 nan
9.3098621 -6.7986817 1.9752245 nan
9.4102287 -6.9657354 1.9924998 nan
9.3997173 -6.9771481 1.9924998 nan
9.389205 -6.9885607 1.9924998 nan
9.2687798 -6.8432841 1.9752245 nan
9.2585087 -6.854435 1.9752245 nan
9.2482376 -6.8655853 1.9752245 nan
9.2379665 -6.8767362 1.9752245 nan
9.2276964 -6.887887 1.9752245 nan
9.2174253 -6.8990374 1.9752245 nan
9.2071552 -6.9101877 1.9752245 nan
9.1968842 -6.9213386 1.9752245 nan
9.1866131 -6.9324894 1.9752245 nan
9.176342 -6.9436398 1.9752245 nan
9.1660709 -6.9547906 1.9752245 nan
9.2630596 -7.1255121 1.9924998 nan
9.2525482 -7.1369247 1.9924998 nan
9.6667442 -6.9780231 1.9948074 nan
9.536375 -6.828784 1.9769835 nan
9.5258617 -6.8401966 1.9769835 nan
9.5153503 -6.8516092 1.9769835 nan
9.5048389 -6.8630219 1.9769835 nan
9.4943256 -6.8744345 1.9769835 nan
9.4838142 -6.8858471 1.9769835 nan
9.3612165 -6.7429285 1.9600645 nan
9.3509464 -6.7540793 1.9600645 nan
9.4522781 -6.920085 1.9769835 nan
9.4417648 -6.9314976 1.9769835 nan
9.4312534 -6.9429102 1.9769835 nan
9.3098621 -6.7986817 1.9600645 nan
9.4102287 -6.9657354 1.9769835 nan
9.3997173 -6.9771481 1.9769835 nan
9.389205 -6.9885607 1.9769835 nan
9.2687798 -6.8432841 1.9600645 nan
9.2585087 -6.854435 1.9600645 nan
9.2482376 -6.8655853 1.9600645 nan
9.3471565 -7.0342112 1.9769835 nan
9.3366451 -7.0456238 1.9769835 nan
9.2174253 -6.8990374 1.9600645 nan
9.2071552 -6.9101877 1.9600645 nan
9.1968842 -6.9213386 1.9600645 nan
9.1866131 -6.9324894 1.9600645 nan
9.176342 -6.9436398 1.9600645 nan
9.273571 -7.1140995 1.9769835 nan
9.2630596 -7.1255121 1.9769835 nan
9.2525482 -7.1369247 1.9769835 nan
9.6775112 -6.9663343 1.9789159 nan
9.6667442 -6.9780231 1.9789159 nan
9.6559792 -6.9897118 1.9789159 nan
9.5258617 -6.8401966 1.9614674 nan
9.5153503 -6.8516092 1.9614674 nan
9.5048389 -6.8630219 1.9614674 nan
9.4943256 -6.8744345 1.9614674 nan
9.4838142 -6.8858471 1.9614674 nan
9.3612165 -6.7429285 1.9449046 nan
9.3509464 -6.7540793 1.9449046 nan
9.3406754 -6.7652297 1.9449046 nan
9.3304043 -6.7763805 1.9449046 nan
9.4312534 -6.9429102 1.9614674 nan
9.3098621 -6.7986817 1.9449046 nan
9.2995911 -6.8098326 1.9449046 nan
9.3997173 -6.9771481 1.9614674 nan
9.2790508 -6.8321333 1.9449046 nan
9.2687798 -6.8432841 1.9449046 nan
9.2585087 -6.854435 1.9449046 nan
9.2482376 -6.8655853 1.9449046 nan
9.3471565 -7.0342112 1.9614674 nan
9.3366451 -7.0456238 1.9614674 nan
9.2174253 -6.8990374 1.9449046 nan
9.2071552 -6.9101877 1.9449046 nan
9.1968842 -6.9213386 1.9449046 nan
9.1866131 -6.9324894 1.9449046 nan
9.176342 -6.9436398 1.9449046 nan
9.1660709 -6.9547906 1.9449046 nan
9.2630596 -7.1255121 1.9614674 nan
9.2525482 -7.1369247 1.9614674 nan
9.6559792 -6.9897118 1.9630246 nan
9.5258617 -6.8401966 1.9459512 nan
9.5153503 -6.8516092 1.9459512 nan
9.5048389 -6.8630219 1.9459512 nan
9.4943256 -6.8744345 1.9459512 nan
9.4838142 -6.8858471 1.9459512 nan
9.3612165 -6.7429285 1.9297445 nan
9.4627895 -6.9086723 1.9459512 nan
9.3406754 -6.7652297 1.9297445 nan
9.3304043 -6.7763805 1.9297445 nan
9.4312534 -6.9429102 1.9459512 nan
9.3098621 -6.7986817 1.9297445 nan
9.2995911 -6.8098326 1.9297445 nan
9.3997173 -6.9771481 1.9459512 nan
9.389205 -6.9885607 1.9459512 nan
9.3786926 -6.9999733 1.9459512 nan
9.3681812 -7.0113859 1.9459512 nan
9.2482376 -6.8655853 1.9297445 nan
9.3471565 -7.0342112 1.9459512 nan
9.3366451 -7.0456238 1.9459512 nan
9.3261318 -7.0570364 1.9459512 nan
9.2071552 -6.9101877 1.9297445 nan
9.3051081 -7.0798616 1.9459512 nan
9.1866131 -6.9324894 1.9297445 nan
9.2840843 -7.1026869 1.9459512 nan
9.273571 -7.1140995 1.9459512 nan
9.2630596 -7.1255121 1.9459512 nan
9.2525482 -7.1369247 1.9459512 nan
9.6452122 -7.0014005 1.9471331 nan
9.5153503 -6.8516092 1.9304349 nan
9.5048389 -6.8630219 1.9304349 nan
9.4943256 -6.8744345 1.9304349 nan
9.4838142 -6.8858471 1.9304349 nan
9.3612165 -6.7429285 1.9145845 nan
9.3509464 -6.7540793 1.9145845 nan
9.3406754 -6.7652297 1.9145845 nan
9.3304043 -6.7763805 1.9145845 nan
9.3201332 -6.7875309 1.9145845 nan
9.3098621 -6.7986817 1.9145845 nan
9.2995911 -6.8098326 1.9145845 nan
9.3997173 -6.9771481 1.9304349 nan
9.389205 -6.9885607 1.9304349 nan
9.3786926 -6.9999733 1.9304349 nan
9.3681812 -7.0113859 1.9304349 nan
9.2482376 -6.8655853 1.9145845 nan
9.3471565 -7.0342112 1.9304349 nan
9.3366451 -7.0456238 1.9304349 nan
9.3261318 -7.0570364 1.9304349 nan
9.2071552 -6.9101877 1.9145845 nan
9.3051081 -7.0798616 1.9304349 nan
9.2945957 -7.0912743 1.9304349 nan
9.2840843 -7.1026869 1.9304349 nan
9.273571 -7.1140995 1.9304349 nan
9.3760538 -7.2936153 1.9471331 nan
9.5153503 -6.8516092 1.9149189 nan
9.5048389 -6.8630219 1.9149189 nan
9.4943256 -6.8744345 1.9149189 nan
9.4838142 -6.8858471 1.9149189 nan
9.4733019 -6.8972597 1.9149189 nan
9.4627895 -6.9086723 1.9149189 nan
9.3406754 -6.7652297 1.8994246 nan
9.3304043 -6.7763805 1.8994246 nan
9.3201332 -6.7875309 1.8994246 nan
9.3098621 -6.7986817 1.8994246 nan
9.4102287 -6.9657354 1.9149189 nan
9.3997173 -6.9771481 1.9149189 nan
9.389205 -6.9885607 1.9149189 nan
9.3786926 -6.9999733 1.9149189 nan
9.3681812 -7.0113859 1.9149189 nan
9.3576679 -7.0227985 1.9149189 nan
9.3471565 -7.0342112 1.9149189 nan
9.3366451 -7.0456238 1.9149189 nan
9.3261318 -7.0570364 1.9149189 nan
9.3156204 -7.068449 1.9149189 nan
9.3051081 -7.0798616 1.9149189 nan
9.2945957 -7.0912743 1.9149189 nan
9.2840843 -7.1026869 1.9149189 nan
9.273571 -7.1140995 1.9149189 nan
9.3760538 -7.2936153 1.9312418 nan
9.5258617 -6.8401966 1.8994026 nan
9.5153503 -6.8516092 1.8994026 nan
9.5048389 -6.8630219 1.8994026 nan
9.3817577 -6.7206273 1.8842645 nan
9.4838142 -6.8858471 1.8994026 nan
9.4733019 -6.8972597 1.8994026 nan
9.4627895 -6.9086723 1.8994026 nan
9.3406754 -6.7652297 1.8842645 nan
9.3304043 -6.7763805 1.8842645 nan
9.3201332 -6.7875309 1.8842645 nan
9.3098621 -6.7986817 1.8842645 nan
9.2995911 -6.8098326 1.8842645 nan
9.3997173 -6.9771481 1.8994026 nan
9.2790508 -6.8321333 1.8842645 nan
9.3786926 -6.9999733 1.8994026 nan
9.2585087 -6.854435 1.8842645 nan
9.3576679 -7.0227985 1.8994026 nan
9.3471565 -7.0342112 1.8994026 nan
9.3366451 -7.0456238 1.8994026 nan
9.3261318 -7.0570364 1.8994026 nan
9.3156204 -7.068449 1.8994026 nan
9.3051081 -7.0798616 1.8994026 nan
9.2945957 -7.0912743 1.8994026 nan
9.2840843 -7.1026869 1.8994026 nan
9.273571 -7.1140995 1.8994026 nan
9.3760538 -7.2936153 1.9153502 nan
9.4022999 -6.6983261 1.8691045 nan
9.3920288 -6.7094765 1.8691045 nan
9.3817577 -6.7206273 1.8691045 nan
9.3714876 -6.7317781 1.8691045 nan
9.3612165 -6.7429285 1.8691045 nan
9.3509464 -6.7540793 1.8691045 nan
9.3406754 -6.7652297 1.8691045 nan
9.3304043 -6.7763805 1.8691045 nan
9.3201332 -6.7875309 1.8691045 nan
9.3098621 -6.7986817 1.8691045 nan
9.2995911 -6.8098326 1.8691045 nan
9.3997173 -6.9771481 1.8838865 nan
9.389205 -6.9885607 1.8838865 nan
9.3786926 -6.9999733 1.8838865 nan
9.2585087 -6.854435 1.8691045 nan
9.3576679 -7.0227985 1.8838865 nan
9.3471565 -7.0342112 1.8838865 nan
9.3366451 -7.0456238 1.8838865 nan
9.3261318 -7.0570364 1.8838865 nan
9.4191189 -7.246861 1.8994589 nan
9.4083529 -7.2585497 1.8994589 nan
9.3975868 -7.2702384 1.8994589 nan
9.273571 -7.1140995 1.8838865 nan
9.3760538 -7.2936153 1.8994589 nan
9.4022999 -6.6983261 1.8539445 nan
9.3920288 -6.7094765 1.8539445 nan
9.3817577 -6.7206273 1.8539445 nan
9.3714876 -6.7317781 1.8539445 nan
9.3612165 -6.7429285 1.8539445 nan
9.3509464 -6.7540793 1.8539445 nan
9.3098621 -6.7986817 1.8539445 nan
9.2995911 -6.8098326 1.8539445 nan
9.2893209 -6.8209829 1.8539445 nan
9.2790508 -6.8321333 1.8539445 nan
9.3786926 -6.9999733 1.8683703 nan
9.2585087 -6.854435 1.8539445 nan
9.2482376 -6.8655853 1.8539445 nan
9.3471565 -7.0342112 1.8683703 nan
9.3366451 -7.0456238 1.8683703 nan
9.3261318 -7.0570364 1.8683703 nan
9.3868198 -7.2819271 1.8835673 nan
9.4022999 -6.6983261 1.8387845 nan
9.3920288 -6.7094765 1.8387845 nan
9.3817577 -6.7206273 1.8387845 nan
9.3714876 -6.7317781 1.8387845 nan
9.3612165 -6.7429285 1.8387845 nan
9.3509464 -6.7540793 1.8387845 nan
9.3406754 -6.7652297 1.8387845 nan
9.3304043 -6.7763805 1.8387845 nan
9.3201332 -6.7875309 1.8387845 nan
9.3098621 -6.7986817 1.8387845 nan
9.2995911 -6.8098326 1.8387845 nan
9.2893209 -6.8209829 1.8387845 nan
9.2790508 -6.8321333 1.8387845 nan
9.2687798 -6.8432841 1.8387845 nan
9.2585087 -6.854435 1.8387845 nan
9.2482376 -6.8655853 1.8387845 nan
9.3471565 -7.0342112 1.852854 nan
9.3366451 -7.0456238 1.852854 nan
9.3261318 -7.0570364 1.852854 nan
9.4022999 -6.6983261 1.8236246 nan
9.3920288 -6.7094765 1.8236246 nan
9.3817577 -6.7206273 1.8236246 nan
9.3714876 -6.7317781 1.8236246 nan
9.3612165 -6.7429285 1.8236246 nan
9.3509464 -6.7540793 1.8236246 nan
9.3406754 -6.7652297 1.8236246 nan
9.3304043 -6.7763805 1.8236246 nan
9.3201332 -6.7875309 1.8236246 nan
9.3098621 -6.7986817 1.8236246 nan
9.2995911 -6.8098326 1.8236246 nan
9.2893209 -6.8209829 1.8236246 nan
9.2790508 -6.8321333 1.8236246 nan
9.2687798 -6.8432841 1.8236246 nan
9.2585087 -6.854435 1.8236246 nan
9.2482376 -6.8655853 1.8236246 nan
9.3471565 -7.0342112 1.8373379 nan
9.3366451 -7.0456238 1.8373379 nan
9.3261318 -7.0570364 1.8373379 nan
9.412571 -6.6871758 1.8084645 -3.090177e+38
9.4022999 -6.6983261 1.8084645 -3.3573223e+38
9.3920288 -6.7094765 1.8084645 nan
9.3817577 -6.7206273 1.8084645 nan
9.3714876 -6.7317781 1.8084645 nan
9.3612165 -6.7429285 1.8084645 nan
9.3509464 -6.7540793 1.8084645 nan
9.3406754 -6.7652297 1.8084645 nan
9.3304043 -6.7763805 1.8084645 nan
9.3201332 -6.7875309 1.8084645 nan
9.3098621 -6.7986817 1.8084645 nan
9.2995911 -6.8098326 1.8084645 nan
9.2893209 -6.8209829 1.8084645 -3.0219444e+38
9.2790508 -6.8321333 1.8084645 -2.6111319e+38
9.2687798 -6.8432841 1.8084645 -2.8500836e+38
9.2585087 -6.854435 1.8084645 -3.0782887e+38
9.2482376 -6.8655853 1.8084645 nan
9.2379665 -6.8767362 1.8084645 nan
9.2276964 -6.887887 1.8084645 nan
9.3261318 -7.0570364 1.8218217 nan
9.6990433 -6.9429574 1.8200016 nan
9.6882772 -6.9546461 1.8200016 -2.8601848e+38
9.6775112 -6.9663343 1.8200016 -2.2198174e+38
9.6667442 -6.9780231 1.8200016 -2.3947445e+38
9.536375 -6.828784 1.8063054 -2.5812076e+38
9.412571 -6.6871758 1.7933044 -2.5958055e+38
9.4022999 -6.6983261 1.7933044 -2.6095683e+38
9.3920288 -6.7094765 1.7933044 -2.9564689e+38
9.3817577 -6.7206273 1.7933044 -3.3162987e+38
9.3714876 -6.7317781 1.7933044 nan
9.3612165 -6.7429285 1.7933044 nan
9.3509464 -6.7540793 1.7933044 nan
9.3406754 -6.7652297 1.7933044 -3.3030531e+38
9.3304043 -6.7763805 1.7933044 -3.128902e+38
9.3201332 -6.7875309 1.7933044 -2.9694427e+38
9.3098621 -6.7986817 1.7933044 -2.8619583e+38
9.2995911 -6.8098326 1.7933044 -2.7689615e+38
9.2893209 -6.8209829 1.7933044 -2.6616856e+38
9.2790508 -6.8321333 1.7933044 -2.5406061e+38
9.2687798 -6.8432841 1.7933044 -2.6087856e+38
9.2585087 -6.854435 1.7933044 -2.6623739e+38
9.2482376 -6.8655853 1.7933044 -2.8357486e+38
9.2379665 -6.8767362 1.7933044 -3.0075047e+38
9.2276964 -6.887887 1.7933044 nan
9.2174253 -6.8990374 1.7933044 nan
9.3156204 -7.068449 1.8063054 nan
9.6990433 -6.9429574 1.8041103 -2.8887475e+38
9.6882772 -6.9546461 1.8041103 -2.6602816e+38
9.6775112 -6.9663343 1.8041103 -2.4343652e+38
9.6667442 -6.9780231 1.8041103 -2.3819234e+38
9.536375 -6.828784 1.7907894 -2.3286539e+38
9.5258617 -6.8401966 1.7907894 -2.089033e+38
9.4022999 -6.6983261 1.7781446 -1.8506052e+38
9.3920288 -6.7094765 1.7781446 -2.3559222e+38
9.3817577 -6.7206273 1.7781446 -2.8495049e+38
9.3714876 -6.7317781 1.7781446 -3.1028401e+38
9.3612165 -6.7429285 1.7781446 -3.3551302e+38
9.3509464 -6.7540793 1.7781446 -3.0742754e+38
9.3406754 -6.7652297 1.7781446 -2.7817404e+38
9.3304043 -6.7763805 1.7781446 -2.3932515e+38
9.3201332 -6.7875309 1.7781446 -1.9958297e+38
9.3098621 -6.7986817 1.7781446 -2.0605224e+38
9.2995911 -6.8098326 1.7781446 -2.115819e+38
9.2893209 -6.8209829 1.7781446 -2.3020135e+38
9.2790508 -6.8321333 1.7781446 -2.4747649e+38
9.2687798 -6.8432841 1.7781446 -2.3687421e+38
9.2585087 -6.854435 1.7781446 -2.248802e+38
9.2482376 -6.8655853 1.7781446 -2.060791e+38
9.2379665 -6.8767362 1.7781446 -1.8636372e+38
9.2276964 -6.887887 1.7781446 -2.9564577e+38
9.2174253 -6.8990374 1.7781446 nan
9.3156204 -7.068449 1.7907894 nan
9.6990433 -6.9429574 1.7882187 -2.4218027e+38
9.6882772 -6.9546461 1.7882187 -2.4749168e+38
9.6775112 -6.9663343 1.7882187 -2.5152632e+38
9.6667442 -6.9780231 1.7882187 -2.4752328e+38
9.536375 -6.828784 1.7752731 -2.4351477e+38
9.5258617 -6.8401966 1.7752731 -2.3154646e+38
9.5153503 -6.8516092 1.7752731 -2.1955246e+38
9.3920288 -6.7094765 1.7629845 -2.435774e+38
9.3817577 -6.7206273 1.7629845 -2.6761279e+38
9.3714876 -6.7317781 1.7629845 -2.8756183e+38
9.3612165 -6.7429285 1.7629845 -3.0621743e+38
9.3509464 -6.7540793 1.7629845 -2.8882289e+38
9.3406754 -6.7652297 1.7629845 -2.7153246e+38
9.3304043 -6.7763805 1.7629845 -2.5143819e+38
9.3201332 -6.7875309 1.7629845 -2.3013911e+38
9.3098621 -6.7986817 1.7629845 -2.3147322e+38
9.2995911 -6.8098326 1.7629845 -2.3419403e+38
9.2893209 -6.8209829 1.7629845 -2.4484345e+38
9.2790508 -6.8321333 1.7629845 -2.5680159e+38
9.2687798 -6.8432841 1.7629845 -2.5149535e+38
9.2585087 -6.854435 1.7629845 -2.461473e+38
9.2482376 -6.8655853 1.7629845 -2.3412716e+38
9.2379665 -6.8767362 1.7629845 -2.2211226e+38
9.2276964 -6.887887 1.7629845 -2.955314e+38
9.2174253 -6.8990374 1.7629845 nan
9.3156204 -7.068449 1.7752731 nan
9.6882772 -6.9546461 1.7723274 -2.2756377e+38
9.6775112 -6.9663343 1.7723274 -2.5949652e+38
9.6667442 -6.9780231 1.7723274 -2.5684859e+38
9.536375 -6.828784 1.7597569 -2.528609e+38
9.5258617 -6.8401966 1.7597569 -2.528765e+38
9.5153503 -6.8516092 1.7597569 -2.5285068e+38
9.5048389 -6.8630219 1.7597569 -2.5154236e+38
9.4943256 -6.8744345 1.7597569 -2.5021835e+38
9.3714876 -6.7317781 1.7478244 -2.6346394e+38
9.3612165 -6.7429285 1.7478244 -2.7681842e+38
9.3509464 -6.7540793 1.7478244 -2.7143393e+38
9.3406754 -6.7652297 1.7478244 -2.6479811e+38
9.3304043 -6.7763805 1.7478244 -2.6341692e+38
9.3201332 -6.7875309 1.7478244 -2.6077905e+38
9.3098621 -6.7986817 1.7478244 -2.5816193e+38
9.2995911 -6.8098326 1.7478244 -2.555035e+38
9.3997173 -6.9771481 1.7597569 -2.6083601e+38
9.2790508 -6.8321333 1.7478244 -2.6481866e+38
9.2687798 -6.8432841 1.7478244 -2.6615844e+38
9.2585087 -6.854435 1.7478244 -2.6614288e+38
9.2482376 -6.8655853 1.7478244 -2.6216562e+38
9.2379665 -6.8767362 1.7478244 -2.5814672e+38
9.2276964 -6.887887 1.7478244 -2.9544812e+38
9.3261318 -7.0570364 1.7597569 -3.3292135e+38
9.4298859 -7.2351723 1.7723274 nan
9.6882772 -6.9546461 1.7564359 -2.3553924e+38
9.6775112 -6.9663343 1.7564359 -2.5551924e+38
9.5468864 -6.8173714 1.7442408 -2.5419524e+38
9.536375 -6.828784 1.7442408 -2.5155766e+38
9.5258617 -6.8401966 1.7442408 -2.5154216e+38
9.5153503 -6.8516092 1.7442408 -2.5287666e+38
9.5048389 -6.8630219 1.7442408 -2.5285597e+38
9.4943256 -6.8744345 1.7442408 -2.5281946e+38
9.3714876 -6.7317781 1.7326646 -2.5948619e+38
9.3612165 -6.7429285 1.7326646 -2.6747728e+38
9.3509464 -6.7540793 1.7326646 -2.6346377e+38
9.3406754 -6.7652297 1.7326646 -2.6078974e+38
9.3304043 -6.7763805 1.7326646 -2.5814165e+38
9.3201332 -6.7875309 1.7326646 -2.5550907e+38
9.3098621 -6.7986817 1.7326646 -2.5419013e+38
9.2995911 -6.8098326 1.7326646 -2.5287648e+38
9.3997173 -6.9771481 1.7442408 -2.5552455e+38
9.2790508 -6.8321333 1.7326646 -2.5951749e+38
9.2687798 -6.8432841 1.7326646 -2.6084156e+38
9.2585087 -6.854435 1.7326646 -2.6350525e+38
9.2482376 -6.8655853 1.7326646 -2.6350008e+38
9.2379665 -6.8767362 1.7326646 -2.6481874e+38
9.2276964 -6.887887 1.7326646 -2.8483484e+38
9.2174253 -6.8990374 1.7326646 -3.0627954e+38
9.3156204 -7.068449 1.7442408 nan
9.4191189 -7.246861 1.7564359 nan
9.4083529 -7.2585497 1.7564359 nan
9.3975868 -7.2702384 1.7564359 nan
9.6882772 -6.9546461 1.7405446 -2.4354576e+38
9.6775112 -6.9663343 1.7405446 -2.5153153e+38
9.5468864 -6.8173714 1.7287245 -2.5153155e+38
9.536375 -6.828784 1.7287245 -2.502076e+38
9.5258617 -6.8401966 1.7287245 -2.5152135e+38
9.5153503 -6.8516092 1.7287245 -2.5152139e+38
9.3920288 -6.7094765 1.7175045 -2.5284547e+38
9.4943256 -6.8744345 1.7287245 -2.5416423e+38
9.4838142 -6.8858471 1.7287245 -2.5550376e+38
9.3612165 -6.7429285 1.7175045 -2.5681747e+38
9.4627895 -6.9086723 1.7287245 -2.5680196e+38
9.4522781 -6.920085 1.7287245 -2.5548311e+38
9.3304043 -6.7763805 1.7175045 -2.5284023e+38
9.3201332 -6.7875309 1.7175045 -2.488733e+38
9.3098621 -6.7986817 1.7175045 -2.5021808e+38
9.2995911 -6.8098326 1.7175045 -2.5020768e+38
9.3997173 -6.9771481 1.7287245 -2.5153171e+38
9.2790508 -6.8321333 1.7175045 -2.5285577e+38
9.2687798 -6.8432841 1.7175045 -2.5683828e+38
9.2585087 -6.854435 1.7175045 -2.5950712e+38
9.2482376 -6.8655853 1.7175045 -2.6615846e+38
9.2379665 -6.8767362 1.7175045 -2.7146987e+38
9.2276964 -6.887887 1.7175045 -2.7544685e+38
9.2174253 -6.8990374 1.7175045 -2.78293e+38
9.3156204 -7.068449 1.7287245 nan
9.3051081 -7.0798616 1.7287245 nan
9.4083529 -7.2585497 1.7405446 nan
9.3975868 -7.2702384 1.7405446 nan
9.5784225 -6.7831335 1.7132083 -2.3155119e+38
9.5679111 -6.7945461 1.7132083 -2.3955288e+38
9.5573988 -6.8059587 1.7132083 -2.4754383e+38
9.5468864 -6.8173714 1.7132083 -2.4887306e+38
9.536375 -6.828784 1.7132083 -2.4887314e+38
9.5258617 -6.8401966 1.7132083 -2.5018687e+38
9.5153503 -6.8516092 1.7132083 -2.5150573e+38
9.3920288 -6.7094765 1.7023445 -2.5283496e+38
9.3817577 -6.7206273 1.7023445 -2.5416421e+38
9.3714876 -6.7317781 1.7023445 -2.5415382e+38
9.3612165 -6.7429285 1.7023445 -2.5413823e+38
9.3509464 -6.7540793 1.7023445 -2.5281936e+38
9.3406754 -6.7652297 1.7023445 -2.5282975e+38
9.3304043 -6.7763805 1.7023445 -2.515161e+38
9.3201332 -6.7875309 1.7023445 -2.4888366e+38
9.3098621 -6.7986817 1.7023445 -2.4886813e+38
9.2995911 -6.8098326 1.7023445 -2.4886293e+38
