# .PCD v0.7 - Point Cloud Data file format
VERSION 0.7
FIELDS x y z rgb
SIZE 4 4 4 4
TYPE F F F F
COUNT 1 1 1 1
WIDTH 1103
HEIGHT 1
VIEWPOINT 0 0 0 1 0 0 0
POINTS 1103
DATA ascii
0.64874101 0.33746859 1.618 -2.169098e+38
0.65182292 0.33746859 1.618 -2.15591e+38
0.65490478 0.33746859 1.618 -2.1958911e+38
0.6579867 0.33746859 1.618 -2.222632e+38
0.66106862 0.33746859 1.618 -2.2758537e+38
0.66415054 0.33746859 1.618 -2.3425254e+38
0.66723245 0.33746859 1.618 -2.3027551e+38
0.67031431 0.33746859 1.618 -2.2769992e+38
0.67339623 0.33746859 1.618 -2.0082437e+38
0.67647815 0.33746859 1.618 -1.7281868e+38
0.67956007 0.33746859 1.618 nan
0.68264192 0.33746859 1.618 nan
0.68572384 0.33746859 1.618 nan
0.69221145 0.33913717 1.626 nan
0.43693051 0.41442764 1.9690001 nan
0.43821907 0.41211241 1.9580001 nan
0.44194859 0.41211241 1.9580001 nan
0.4431743 0.40979716 1.9470001 nan
0.44435811 0.40748194 1.9360001 -3.338669e+38
0.44804573 0.40748194 1.9360001 -1.7163346e+38
0.45173335 0.40748194 1.9360001 -2.1702959e+38
0.45283335 0.40516669 1.9250001 -2.6092008e+38
0.45412859 0.40306193 1.9150001 -2.5560319e+38
0.45777622 0.40306193 1.9150001 -2.48931e+38
0.46142384 0.40306193 1.9150001 -2.4359843e+38
0.46507147 0.40306193 1.9150001 -2.3827103e+38
0.46871907 0.40306193 1.9150001 -2.3693651e+38
0.47236669 0.40306193 1.9150001 -2.3560209e+38
0.47601432 0.40306193 1.9150001 -2.355969e+38
0.47690669 0.4007467 1.904 -2.3558654e+38
0.48330957 0.40306193 1.9150001 -2.3291772e+38
0.48416004 0.4007467 1.904 -2.3025922e+38
0.48778671 0.4007467 1.904 -2.3158843e+38
0.49141335 0.4007467 1.904 -2.3292285e+38
0.49504003 0.4007467 1.904 -2.3159881e+38
0.49604765 0.39864194 1.8940001 -2.289404e+38
0.49965528 0.39864194 1.8940001 -2.3425735e+38
0.50326288 0.39864194 1.8940001 -2.3823994e+38
0.50687051 0.39864194 1.8940001 -2.4222255e+38
0.51047814 0.39864194 1.8940001 -2.4622068e+38
0.51408577 0.39864194 1.8940001 -2.4888961e+38
0.51769334 0.39864194 1.8940001 -2.5158437e+38
0.52405339 0.4007467 1.904 -2.303011e+38
0.52768004 0.4007467 1.904 -2.0901826e+38
0.53130668 0.4007467 1.904 -2.6496047e+38
0.53493339 0.4007467 1.904 -3.1985463e+38
0.53856003 0.4007467 1.904 nan
0.59877717 0.36454478 1.7320001 nan
0.60207623 0.36454478 1.7320001 nan
0.58512861 0.35044289 1.6650001 -2.9777421e+38
0.58547336 0.34875908 1.6570001 -2.3154168e+38
0.58862954 0.34875908 1.6570001 -2.3833878e+38
0.59178573 0.34875908 1.6570001 -2.4495372e+38
0.59206957 0.34707525 1.649 -2.3961598e+38
0.59521049 0.34707525 1.649 -2.3295424e+38
0.59835148 0.34707525 1.649 -2.2630291e+38
0.59857434 0.34539145 1.641 -2.1831714e+38
0.60170007 0.34539145 1.641 -2.169827e+38
0.60224575 0.34391811 1.6340001 -2.1430863e+38
0.60239434 0.34223431 1.626 -2.1428784e+38
0.60549146 0.34223431 1.626 -2.142826e+38
0.60559434 0.34055051 1.618 -2.1161891e+38
0.60867625 0.34055051 1.618 -2.0762598e+38
0.61175811 0.34055051 1.618 -2.1160843e+38
0.61484003 0.34055051 1.618 -2.155909e+38
0.61792195 0.34055051 1.618 -2.1558051e+38
0.62100387 0.34055051 1.618 -2.1425123e+38
0.62138575 0.33907717 1.6110001 -2.1558041e+38
0.62445432 0.33907717 1.6110001 -2.1556478e+38
0.62752289 0.33907717 1.6110001 -2.1555435e+38
0.63059145 0.33907717 1.6110001 -2.1555952e+38
0.63366002 0.33907717 1.6110001 -2.1689394e+38
0.63672858 0.33907717 1.6110001 -2.1689918e+38
0.63979721 0.33907717 1.6110001 -2.1821806e+38
0.64286578 0.33907717 1.6110001 -2.1956295e+38
0.64874101 0.34055051 1.618 -2.1824938e+38
0.65182292 0.34055051 1.618 -2.1559615e+38
0.65490478 0.34055051 1.618 -2.1826503e+38
0.6579867 0.34055051 1.618 -2.2093394e+38
0.66106862 0.34055051 1.618 -2.2624572e+38
0.66415054 0.34055051 1.618 -2.3155748e+38
0.66723245 0.34055051 1.618 -2.2090294e+38
0.67031431 0.34055051 1.618 -2.1028472e+38
0.67339623 0.34055051 1.618 -1.9142631e+38
0.67647815 0.34055051 1.618 -1.7314584e+38
0.67956007 0.34055051 1.618 nan
0.68264192 0.34055051 1.618 nan
0.68572384 0.34055051 1.618 nan
0.69221145 0.34223431 1.626 nan
0.43821907 0.41584194 1.9580001 nan
0.44194859 0.41584194 1.9580001 nan
0.4431743 0.41350573 1.9470001 nan
0.44435811 0.41116956 1.9360001 -3.2480654e+38
0.44804573 0.41116956 1.9360001 -1.967642e+38
0.45173335 0.41116956 1.9360001 -2.2891979e+38
0.45283335 0.40883335 1.9250001 -2.6225438e+38
0.45412859 0.40670955 1.9150001 -2.5559268e+38
0.45777622 0.40670955 1.9150001 -2.4892056e+38
0.46142384 0.40670955 1.9150001 -2.4359841e+38
0.46507147 0.40670955 1.9150001 -2.3959505e+38
0.46871907 0.40670955 1.9150001 -2.3694168e+38
0.47236669 0.40670955 1.9150001 -2.3428325e+38
0.47601432 0.40670955 1.9150001 -2.3426248e+38
0.47690669 0.40437335 1.904 -2.3424692e+38
0.48053336 0.40437335 1.904 -2.3158849e+38
0.48416004 0.40437335 1.904 -2.3025922e+38
0.48778671 0.40437335 1.904 -2.315936e+38
0.49141335 0.40437335 1.904 -2.3158841e+38
0.49504003 0.40437335 1.904 -2.3159879e+38
0.49604765 0.40224954 1.8940001 -2.3159885e+38
0.49965528 0.40224954 1.8940001 -2.3425218e+38
0.50326288 0.40224954 1.8940001 -2.3690554e+38
0.50687051 0.40224954 1.8940001 -2.4089333e+38
0.51047814 0.40224954 1.8940001 -2.4488628e+38
0.51408577 0.40224954 1.8940001 -2.489104e+38
0.52042669 0.40437335 1.904 -2.5426876e+38
0.52405339 0.40437335 1.904 -2.2226854e+38
0.52768004 0.40437335 1.904 -1.9161411e+38
0.53130668 0.40437335 1.904 -2.9175362e+38
0.53802383 0.40670955 1.9150001 nan
0.54167145 0.40670955 1.9150001 nan
0.59877717 0.36784384 1.7320001 nan
0.59894764 0.3659324 1.723 nan
0.59349149 0.36062288 1.6980001 nan
0.58512861 0.3536143 1.6650001 -2.9531809e+38
0.58547336 0.35191527 1.6570001 -2.0771414e+38
0.58862954 0.35191527 1.6570001 -2.2502054e+38
0.59178573 0.35191527 1.6570001 -2.4097125e+38
0.59206957 0.35021621 1.649 -2.3695757e+38
0.59521049 0.35021621 1.649 -2.329439e+38
0.59835148 0.35021621 1.649 -2.2629772e+38
0.59857434 0.34851718 1.641 -2.1965158e+38
0.60170007 0.34851718 1.641 -2.1831197e+38
0.59929717 0.34533146 1.626 -2.1697229e+38
0.60239434 0.34533146 1.626 -2.1562741e+38
0.60549146 0.34533146 1.626 -2.1561698e+38
0.60559434 0.3436324 1.618 -2.129481e+38
0.60867625 0.3436324 1.618 -2.1027924e+38
0.61175811 0.3436324 1.618 -2.1160326e+38
0.61484003 0.3436324 1.618 -2.1292731e+38
0.61792195 0.3436324 1.618 -2.1292731e+38
0.62100387 0.3436324 1.618 -2.1424607e+38
0.62138575 0.34214574 1.6110001 -2.1291677e+38
0.62445432 0.34214574 1.6110001 -2.1024265e+38
0.62752289 0.34214574 1.6110001 -2.115718e+38
0.63059145 0.34214574 1.6110001 -2.1290101e+38
0.63366002 0.34214574 1.6110001 -2.1423539e+38
0.63672858 0.34214574 1.6110001 -2.1557506e+38
0.63979721 0.34214574 1.6110001 -2.1690435e+38
0.64286578 0.34214574 1.6110001 -2.1823885e+38
0.64874101 0.3436324 1.618 -2.1824931e+38
0.65182292 0.3436324 1.618 -2.1825457e+38
0.65490478 0.3436324 1.618 -2.1959941e+38
0.6579867 0.3436324 1.618 -2.2093909e+38
0.66106862 0.3436324 1.618 -2.2757488e+38
0.66415054 0.3436324 1.618 -2.3420009e+38
0.66723245 0.3436324 1.618 -2.3159859e+38
0.67031431 0.3436324 1.618 -2.2768905e+38
0.67339623 0.3436324 1.618 -2.0082435e+38
0.67647815 0.3436324 1.618 -1.7281875e+38
0.67956007 0.3436324 1.618 nan
0.68264192 0.3436324 1.618 nan
0.68911433 0.34533146 1.626 nan
0.69221145 0.34533146 1.626 nan
0.44194859 0.41957146 1.9580001 nan
0.4431743 0.4172143 1.9470001 nan
0.44688287 0.4172143 1.9470001 -3.1537721e+38
0.44804573 0.41485718 1.9360001 -2.222688e+38
0.45173335 0.41485718 1.9360001 -2.4227977e+38
0.45283335 0.41250002 1.9250001 -2.622389e+38
0.45412859 0.41035718 1.9150001 -2.5558231e+38
0.45777622 0.41035718 1.9150001 -2.4892054e+38
0.46142384 0.41035718 1.9150001 -2.4492762e+38
0.46507147 0.41035718 1.9150001 -2.3960543e+38
0.46871907 0.41035718 1.9150001 -2.3561769e+38
0.47236669 0.41035718 1.9150001 -2.3161962e+38
0.47601432 0.41035718 1.9150001 -2.3159366e+38
0.47690669 0.40800002 1.904 -2.3159885e+38
0.48330957 0.41035718 1.9150001 -2.3159366e+38
0.48416004 0.40800002 1.904 -2.3026441e+38
0.48778671 0.40800002 1.904 -2.3026958e+38
0.49141335 0.40800002 1.904 -2.3026958e+38
0.49504003 0.40800002 1.904 -2.3159881e+38
0.4986667 0.40800002 1.904 -2.3292808e+38
0.49965528 0.40585718 1.8940001 -2.3425216e+38
0.50326288 0.40585718 1.8940001 -2.3558145e+38
0.50687051 0.40585718 1.8940001 -2.3956402e+38
0.51047814 0.40585718 1.8940001 -2.4224334e+38
0.51408577 0.40585718 1.8940001 -2.4891555e+38
0.52042669 0.40800002 1.904 -2.5554593e+38
0.52405339 0.40800002 1.904 -2.1421506e+38
0.53072858 0.41035718 1.9150001 -1.7312955e+38
0.5343762 0.41035718 1.9150001 -3.1858252e+38
0.54083335 0.41250002 1.9250001 nan
0.54450005 0.41250002 1.9250001 nan
0.59025717 0.36385718 1.6980001 nan
0.59349149 0.36385718 1.6980001 nan
0.58512861 0.35678574 1.6650001 -2.9378127e+38
0.58547336 0.35507146 1.6570001 -1.8363752e+38
0.58862954 0.35507146 1.6570001 -2.1039909e+38
0.59178573 0.35507146 1.6570001 -2.369628e+38
0.59206957 0.35335717 1.649 -2.3561791e+38
0.59521049 0.35335717 1.649 -2.3294382e+38
0.59835148 0.35335717 1.649 -2.2762165e+38
0.59857434 0.35164288 1.641 -2.2097034e+38
0.60170007 0.35164288 1.641 -2.2095998e+38
0.59929717 0.34842861 1.626 -2.1962552e+38
0.60239434 0.34842861 1.626 -2.1828586e+38
0.60549146 0.34842861 1.626 -2.1561696e+38
0.60858864 0.34842861 1.626 -2.1427731e+38
0.60867625 0.34671432 1.618 -2.1294287e+38
0.61175811 0.34671432 1.618 -2.1160326e+38
0.61484003 0.34671432 1.618 -2.0894474e+38
0.61792195 0.34671432 1.618 -2.1160313e+38
0.62100387 0.34671432 1.618 -2.1425114e+38
0.62138575 0.34521431 1.6110001 -2.1025821e+38
0.62445432 0.34521431 1.6110001 -2.0493606e+38
0.62752289 0.34521431 1.6110001 -2.0759448e+38
0.63059145 0.34521431 1.6110001 -2.0891853e+38
0.63366002 0.34521431 1.6110001 -2.1157182e+38
0.63949525 0.34671432 1.618 -2.1424072e+38
0.63979721 0.34521431 1.6110001 -2.1557522e+38
0.64286578 0.34521431 1.6110001 -2.1691487e+38
0.64874101 0.34671432 1.618 -2.1824936e+38
0.65182292 0.34671432 1.618 -2.1958899e+38
0.65490478 0.34671432 1.618 -2.2092864e+38
0.6579867 0.34671432 1.618 -2.2093391e+38
0.66106862 0.34671432 1.618 -2.2891456e+38
0.66415054 0.34671432 1.618 -2.3690544e+38
0.67053145 0.34842861 1.626 -2.4093977e+38
0.67031431 0.34671432 1.618 -2.4485477e+38
0.67672575 0.34842861 1.626 -2.0870599e+38
0.67982292 0.34842861 1.626 -1.7315091e+38
0.68292004 0.34842861 1.626 nan
0.68601722 0.34842861 1.626 nan
0.68911433 0.34842861 1.626 nan
0.6956172 0.35014287 1.6340001 nan
0.44194859 0.42330098 1.9580001 nan
0.4431743 0.42092288 1.9470001 nan
0.44688287 0.42092288 1.9470001 -3.1683091e+38
0.44804573 0.4185448 1.9360001 -2.1840056e+38
0.45173335 0.4185448 1.9360001 -2.409663e+38
0.45283335 0.41616669 1.9250001 -2.6357342e+38
0.45412859 0.4140048 1.9150001 -2.5691156e+38
0.45777622 0.4140048 1.9150001 -2.5024457e+38
0.46142384 0.4140048 1.9150001 -2.4359835e+38
0.46507147 0.4140048 1.9150001 -2.3827103e+38
0.46871907 0.4140048 1.9150001 -2.3561773e+38
0.47236669 0.4140048 1.9150001 -2.3294887e+38
0.47601432 0.4140048 1.9150001 -2.3160924e+38
0.47966194 0.4140048 1.9150001 -2.3160924e+38
0.48330957 0.4140048 1.9150001 -2.3160402e+38
0.48416004 0.4116267 1.904 -2.3159883e+38
0.48778671 0.4116267 1.904 -2.3159881e+38
0.49141335 0.4116267 1.904 -2.3159883e+38
0.49504003 0.4116267 1.904 -2.3159883e+38
0.4986667 0.4116267 1.904 -2.3292289e+38
0.50229335 0.4116267 1.904 -2.342625e+38
0.50326288 0.40946478 1.8940001 -2.3692621e+38
0.50687051 0.40946478 1.8940001 -2.4091393e+38
0.51317334 0.4116267 1.904 -2.4624654e+38
0.51680005 0.4116267 1.904 -2.5158954e+38
0.52042669 0.4116267 1.904 -2.5826138e+38
0.52405339 0.4116267 1.904 -2.1549214e+38
0.53072858 0.4140048 1.9150001 -1.7281286e+38
0.5343762 0.4140048 1.9150001 -3.2780952e+38
0.54083335 0.41616669 1.9250001 nan
0.58978862 0.36882097 1.7060001 nan
0.59303814 0.36882097 1.7060001 nan
0.59069526 0.36536193 1.6900001 nan
0.58794004 0.36168668 1.6730001 -2.9663712e+38
0.58830005 0.35995716 1.6650001 -1.8082338e+38
0.58862954 0.35822764 1.6570001 -2.0896088e+38
0.59178573 0.35822764 1.6570001 -2.3826607e+38
0.59206957 0.35649812 1.649 -2.3427824e+38
0.59521049 0.35649812 1.649 -2.3160932e+38
0.59835148 0.35649812 1.649 -2.2628711e+38
0.59857434 0.3547686 1.641 -2.2095988e+38
0.60170007 0.3547686 1.641 -2.1963069e+38
0.59929717 0.35152572 1.626 -2.1828588e+38
0.60239434 0.35152572 1.626 -2.1562222e+38
0.60549146 0.35152572 1.626 -2.1295331e+38
0.60858864 0.35152572 1.626 -2.1161881e+38
0.60867625 0.34979621 1.618 -2.1028439e+38
0.61175811 0.34979621 1.618 -2.0762594e+38
0.61484003 0.34979621 1.618 -2.0629659e+38
0.61792195 0.34979621 1.618 -2.0894973e+38
0.62100387 0.34979621 1.618 -2.1159776e+38
0.62138575 0.34828287 1.6110001 -2.1026328e+38
0.62445432 0.34828287 1.6110001 -2.0892886e+38
0.62752289 0.34828287 1.6110001 -2.1025289e+38
0.63059145 0.34828287 1.6110001 -2.1157701e+38
0.6364134 0.34979621 1.618 -2.1423036e+38
0.63949525 0.34979621 1.618 -2.1689928e+38
0.64257717 0.34979621 1.618 -2.1690972e+38
0.64286578 0.34828287 1.6110001 -2.1824936e+38
0.64874101 0.34979621 1.618 -2.2090783e+38
0.65182292 0.34979621 1.618 -2.235715e+38
0.65490478 0.34979621 1.618 -2.2358188e+38
0.6579867 0.34979621 1.618 -2.2492162e+38
0.66106862 0.34979621 1.618 -2.3025423e+38
0.66415054 0.34979621 1.618 -2.3692635e+38
0.66723245 0.34979621 1.618 -2.3560234e+38
0.67031431 0.34979621 1.618 -2.3428323e+38
0.67672575 0.35152572 1.626 -2.0745956e+38
0.67647815 0.34979621 1.618 -1.7947501e+38
0.68292004 0.35152572 1.626 nan
0.68601722 0.35152572 1.626 nan
0.69250482 0.35325527 1.6340001 nan
0.6956172 0.35325527 1.6340001 nan
0.44567811 0.4270305 1.9580001 nan
0.44688287 0.42463145 1.9470001 -3.1952598e+38
0.45059144 0.42463145 1.9470001 -2.1306807e+38
0.45173335 0.42223242 1.9360001 -2.3827643e+38
0.45542097 0.42223242 1.9360001 -2.635577e+38
0.45650002 0.41983336 1.9250001 -2.5691154e+38
0.45777622 0.4176524 1.9150001 -2.5025492e+38
0.46142384 0.4176524 1.9150001 -2.4359829e+38
0.46507147 0.4176524 1.9150001 -2.3695211e+38
0.46871907 0.4176524 1.9150001 -2.3562805e+38
0.47236669 0.4176524 1.9150001 -2.32954e+38
0.47601432 0.4176524 1.9150001 -2.3161439e+38
0.47966194 0.4176524 1.9150001 -2.3028516e+38
0.48330957 0.4176524 1.9150001 -2.3160922e+38
0.48416004 0.41525337 1.904 -2.3160402e+38
0.48778671 0.41525337 1.904 -2.3292806e+38
0.49141335 0.41525337 1.904 -2.3293325e+38
0.49504003 0.41525337 1.904 -2.3293327e+38
0.4986667 0.41525337 1.904 -2.3160404e+38
0.49965528 0.41307241 1.8940001 -2.3559694e+38
0.50326288 0.41307241 1.8940001 -2.3826061e+38
0.50687051 0.41307241 1.8940001 -2.4358273e+38
0.51317334 0.41525337 1.904 -2.4892052e+38
0.51680005 0.41525337 1.904 -2.5425832e+38
0.52042669 0.41525337 1.904 -2.5949702e+38
0.52405339 0.41525337 1.904 -2.1534139e+38
0.53072858 0.4176524 1.9150001 -1.7176408e+38
0.53716671 0.41983336 1.9250001 -3.3609675e+38
0.54083335 0.41983336 1.9250001 nan
0.59069526 0.36858097 1.6900001 nan
0.58794004 0.36487335 1.6730001 -3.0042265e+38
0.58830005 0.3631286 1.6650001 -1.7827413e+38
0.58862954 0.36138383 1.6570001 -2.0900757e+38
0.59178573 0.36138383 1.6570001 -2.3827126e+38
0.59206957 0.35963908 1.649 -2.342783e+38
0.59521049 0.35963908 1.649 -2.3028013e+38
0.59835148 0.35963908 1.649 -2.2628196e+38
0.59857434 0.3578943 1.641 -2.209599e+38
0.60170007 0.3578943 1.641 -2.1830667e+38
0.59929717 0.35462287 1.626 -2.1563262e+38
0.60239434 0.35462287 1.626 -2.1296376e+38
0.60251242 0.35287812 1.618 -2.1030007e+38
0.60858864 0.35462287 1.626 -2.0896561e+38
0.60867625 0.35287812 1.618 -2.0763115e+38
0.61175811 0.35287812 1.618 -2.0496746e+38
0.61484003 0.35287812 1.618 -2.0231412e+38
0.61792195 0.35287812 1.618 -2.0630691e+38
0.62100387 0.35287812 1.618 -2.0894973e+38
0.62138575 0.35135144 1.6110001 -2.1160295e+38
0.62445432 0.35135144 1.6110001 -2.1291664e+38
0.62752289 0.35135144 1.6110001 -2.129063e+38
0.63059145 0.35135144 1.6110001 -2.1289596e+38
0.63366002 0.35135144 1.6110001 -2.155389e+38
0.63949525 0.35287812 1.618 -2.1822855e+38
0.63979721 0.35135144 1.6110001 -2.1957339e+38
0.64286578 0.35135144 1.6110001 -2.1957339e+38
0.64874101 0.35287812 1.618 -2.2356108e+38
0.65182292 0.35287812 1.618 -2.2622996e+38
0.65490478 0.35287812 1.618 -2.2756961e+38
0.6579867 0.35287812 1.618 -2.2758531e+38
0.66106862 0.35287812 1.618 -2.3157829e+38
0.66415054 0.35287812 1.618 -2.3558668e+38
0.66723245 0.35287812 1.618 -2.3025934e+38
0.67031431 0.35287812 1.618 -2.2355613e+38
0.67672575 0.35462287 1.626 -2.0471853e+38
0.67982292 0.35462287 1.626 -1.8654197e+38
0.68292004 0.35462287 1.626 nan
0.68601722 0.35462287 1.626 nan
0.69250482 0.35636765 1.6340001 nan
0.6956172 0.35636765 1.6340001 nan
0.44688287 0.42834002 1.9470001 -3.3294831e+38
0.44804573 0.42592004 1.9360001 -2.2759091e+38
0.45173335 0.42592004 1.9360001 -2.4492229e+38
0.45283335 0.42350003 1.9250001 -2.6223872e+38
0.45650002 0.42350003 1.9250001 -2.5692191e+38
0.45777622 0.42130002 1.9150001 -2.5026526e+38
0.46142384 0.42130002 1.9150001 -2.4626707e+38
0.46507147 0.42130002 1.9150001 -2.4226896e+38
0.46871907 0.42130002 1.9150001 -2.3827085e+38
0.47236669 0.42130002 1.9150001 -2.3427278e+38
0.47601432 0.42130002 1.9150001 -2.3161433e+38
0.47690669 0.41888002 1.904 -2.3028514e+38
0.48053336 0.41888002 1.904 -2.3027999e+38
0.48416004 0.41888002 1.904 -2.3160402e+38
0.48778671 0.41888002 1.904 -2.3159883e+38
0.49141335 0.41888002 1.904 -2.3160404e+38
0.49504003 0.41888002 1.904 -2.3160924e+38
0.4986667 0.41888002 1.904 -2.3161445e+38
0.50229335 0.41888002 1.904 -2.3560213e+38
0.50592005 0.41888002 1.904 -2.3827097e+38
0.5095467 0.41888002 1.904 -2.4625671e+38
0.51317334 0.41888002 1.904 -2.5292374e+38
0.51680005 0.41888002 1.904 -2.6223363e+38
0.52042669 0.41888002 1.904 -2.7023976e+38
0.52405339 0.41888002 1.904 -2.2077754e+38
0.53072858 0.42130002 1.9150001 -1.7148378e+38
0.53716671 0.42350003 1.9250001 -3.3856339e+38
0.59069526 0.37180004 1.6900001 nan
0.58794004 0.36806002 1.6730001 -3.0869951e+38
0.58830005 0.36630002 1.6650001 -1.8102099e+38
0.58862954 0.36454001 1.6570001 -2.0902311e+38
0.59178573 0.36454001 1.6570001 -2.3830762e+38
0.59494191 0.36454001 1.6570001 -2.3428873e+38
0.59521049 0.36278003 1.649 -2.316094e+38
0.59835148 0.36278003 1.649 -2.2761121e+38
0.59857434 0.36102003 1.641 -2.2360799e+38
0.59913337 0.35948002 1.6340001 -2.2094957e+38
0.59929717 0.35772002 1.626 -2.1960992e+38
0.60239434 0.35772002 1.626 -2.156222e+38
0.60549146 0.35772002 1.626 -2.1295335e+38
0.60858864 0.35772002 1.626 -2.1030007e+38
0.61168575 0.35772002 1.626 -2.0764153e+38
0.61478287 0.35772002 1.626 -2.0763107e+38
0.61484003 0.35596001 1.618 -2.0763622e+38
0.61792195 0.35596001 1.618 -2.1028425e+38
0.62100387 0.35596001 1.618 -2.1292709e+38
0.62408578 0.35596001 1.618 -2.1425106e+38
0.62445432 0.35442004 1.6110001 -2.1556482e+38
0.62752289 0.35442004 1.6110001 -2.1423048e+38
0.63059145 0.35442004 1.6110001 -2.1288569e+38
0.6364134 0.35596001 1.618 -2.142253e+38
0.63949525 0.35596001 1.618 -2.1690455e+38
0.64257717 0.35596001 1.618 -2.1823899e+38
0.64565909 0.35596001 1.618 -2.1956301e+38
0.64874101 0.35596001 1.618 -2.209026e+38
0.65182292 0.35596001 1.618 -2.2357671e+38
0.65490478 0.35596001 1.618 -2.2492158e+38
0.6579867 0.35596001 1.618 -2.2759571e+38
0.66106862 0.35596001 1.618 -2.315835e+38
0.66415054 0.35596001 1.618 -2.3692625e+38
0.66723245 0.35596001 1.618 -2.2495267e+38
0.67031431 0.35596001 1.618 -2.1431921e+38
0.67672575 0.35772002 1.626 -2.2618917e+38
0.67982292 0.35772002 1.626 -2.3836133e+38
0.68292004 0.35772002 1.626 nan
0.68939245 0.35948002 1.6340001 nan
0.69250482 0.35948002 1.6340001 nan
0.6956172 0.35948002 1.6340001 nan
0.45059144 0.43204859 1.9470001 -2.423321e+38
0.45173335 0.42960766 1.9360001 -2.5158439e+38
0.45542097 0.42960766 1.9360001 -2.6090454e+38
0.45650002 0.4271667 1.9250001 -2.5560316e+38
0.45777622 0.42494765 1.9150001 -2.5026536e+38
0.46142384 0.42494765 1.9150001 -2.4892563e+38
0.46507147 0.42494765 1.9150001 -2.4625151e+38
0.46871907 0.42494765 1.9150001 -2.4091896e+38
0.47236669 0.42494765 1.9150001 -2.3559688e+38
0.47328004 0.42250669 1.904 -2.3293842e+38
0.47690669 0.42250669 1.904 -2.2894557e+38
0.48053336 0.42250669 1.904 -2.3026964e+38
0.48416004 0.42250669 1.904 -2.3159885e+38
0.48778671 0.42250669 1.904 -2.3159366e+38
0.49141335 0.42250669 1.904 -2.3026962e+38
0.49504003 0.42250669 1.904 -2.3160404e+38
0.4986667 0.42250669 1.904 -2.3160926e+38
0.50229335 0.42250669 1.904 -2.3559175e+38
0.50592005 0.42250669 1.904 -2.3826582e+38
0.5095467 0.42250669 1.904 -2.4758084e+38
0.51317334 0.42250669 1.904 -2.569011e+38
0.51680005 0.42250669 1.904 -2.6885906e+38
0.52042669 0.42250669 1.904 -2.8078027e+38
0.52708101 0.42494765 1.9150001 -2.2605315e+38
0.53350002 0.4271667 1.9250001 -1.7181625e+38
0.53716671 0.4271667 1.9250001 nan
0.58754957 0.37302193 1.6810001 nan
0.58512861 0.36947146 1.6650001 -3.1769164e+38
0.58547336 0.36769623 1.6570001 -1.8227189e+38
0.58862954 0.36769623 1.6570001 -2.104043e+38
0.59178573 0.36769623 1.6570001 -2.3696286e+38
0.59206957 0.36592099 1.649 -2.3560761e+38
0.59521049 0.36592099 1.649 -2.3293869e+38
0.59835148 0.36592099 1.649 -2.3027496e+38
0.59857434 0.36414573 1.641 -2.2627168e+38
0.59913337 0.3625924 1.6340001 -2.2493726e+38
0.59929717 0.36081716 1.626 -2.2227357e+38
0.60239434 0.36081716 1.626 -2.1828067e+38
0.60251242 0.35904193 1.618 -2.1428777e+38
0.60858864 0.36081716 1.626 -2.1030526e+38
0.60867625 0.35904193 1.618 -2.0630713e+38
0.61175811 0.35904193 1.618 -2.1028439e+38
0.61484003 0.35904193 1.618 -2.1294281e+38
0.61792195 0.35904193 1.618 -2.1426161e+38
0.62100387 0.35904193 1.618 -2.1558563e+38
0.62408578 0.35904193 1.618 -2.1690445e+38
0.62445432 0.3574886 1.6110001 -2.1689932e+38
0.63024956 0.35904193 1.618 -2.1555975e+38
0.63333148 0.35904193 1.618 -2.1290131e+38
0.6364134 0.35904193 1.618 -2.1423575e+38
0.63949525 0.35904193 1.618 -2.1424616e+38
0.64257717 0.35904193 1.618 -2.1690461e+38
0.64565909 0.35904193 1.618 -2.1823905e+38
0.64874101 0.35904193 1.618 -2.1957349e+38
0.65182292 0.35904193 1.618 -2.1959432e+38
0.65490478 0.35904193 1.618 -2.2359762e+38
0.6579867 0.35904193 1.618 -2.2625614e+38
0.66106862 0.35904193 1.618 -2.3155752e+38
0.66415054 0.35904193 1.618 -2.3691073e+38
0.66723245 0.35904193 1.618 -2.2095994e+38
0.67031431 0.35904193 1.618 -2.0362341e+38
0.67672575 0.36081716 1.626 -2.4602427e+38
0.67982292 0.36081716 1.626 -2.8915264e+38
0.68292004 0.36081716 1.626 nan
0.68939245 0.3625924 1.6340001 nan
0.69547147 0.36414573 1.641 nan
0.6956172 0.3625924 1.6340001 nan
0.45059144 0.43575716 1.9470001 -2.4758699e+38
0.45430002 0.43575716 1.9470001 -2.5423804e+38
0.45800859 0.43575716 1.9470001 -2.5955998e+38
0.45650002 0.43083337 1.9250001 -2.5558769e+38
0.46016669 0.43083337 1.9250001 -2.5157911e+38
0.46383336 0.43083337 1.9250001 -2.4891532e+38
0.46507147 0.42859527 1.9150001 -2.4757563e+38
0.46871907 0.42859527 1.9150001 -2.40919e+38
0.47236669 0.42859527 1.9150001 -2.342625e+38
0.47601432 0.42859527 1.9150001 -2.3160406e+38
0.47966194 0.42859527 1.9150001 -2.3026966e+38
0.48330957 0.42859527 1.9150001 -2.3026966e+38
0.48416004 0.42613336 1.904 -2.3159889e+38
0.48778671 0.42613336 1.904 -2.3159368e+38
0.49141335 0.42613336 1.904 -2.3159368e+38
0.49504003 0.42613336 1.904 -2.3160404e+38
0.4986667 0.42613336 1.904 -2.3160926e+38
0.50229335 0.42613336 1.904 -2.3560213e+38
0.50592005 0.42613336 1.904 -2.4091913e+38
0.5095467 0.42613336 1.904 -2.4758612e+38
0.51317334 0.42613336 1.904 -2.5424791e+38
0.51680005 0.42613336 1.904 -2.6356815e+38
0.52042669 0.42613336 1.904 -2.7155889e+38
0.52708101 0.42859527 1.9150001 -2.2609492e+38
0.53350002 0.43083337 1.9250001 -1.7945949e+38
0.53716671 0.43083337 1.9250001 nan
0.58475339 0.37443337 1.6730001 nan
0.58512861 0.37264287 1.6650001 -3.1931068e+38
0.58547336 0.37085241 1.6570001 -1.7681953e+38
0.58862954 0.37085241 1.6570001 -2.0763685e+38
0.59178573 0.37085241 1.6570001 -2.3827655e+38
0.59494191 0.37085241 1.6570001 -2.3427842e+38
0.59521049 0.36906192 1.649 -2.3159914e+38
0.59835148 0.36906192 1.649 -2.2761139e+38
0.59857434 0.36727145 1.641 -2.2360807e+38
0.59913337 0.36570477 1.6340001 -2.2227878e+38
0.59929717 0.36391431 1.626 -2.2094436e+38
0.60239434 0.36391431 1.626 -2.1695666e+38
0.60549146 0.36391431 1.626 -2.1295857e+38
0.60858864 0.36391431 1.626 -2.1295333e+38
0.61168575 0.36391431 1.626 -2.1294812e+38
0.61175811 0.36212385 1.618 -2.1160847e+38
0.61484003 0.36212385 1.618 -2.1027401e+38
0.61792195 0.36212385 1.618 -2.116032e+38
0.62100387 0.36212385 1.618 -2.1292725e+38
0.62408578 0.36212385 1.618 -2.1292208e+38
0.62445432 0.36055717 1.6110001 -2.1291171e+38
0.62752289 0.36055717 1.6110001 -2.1158249e+38
0.63059145 0.36055717 1.6110001 -2.1158253e+38
0.6364134 0.36212385 1.618 -2.1158255e+38
0.63949525 0.36212385 1.618 -2.1158774e+38
0.64257717 0.36212385 1.618 -2.1425139e+38
0.64286578 0.36055717 1.6110001 -2.1559106e+38
0.64874101 0.36212385 1.618 -2.1692554e+38
0.65182292 0.36212385 1.618 -2.1959962e+38
0.65490478 0.36212385 1.618 -2.2359771e+38
0.6579867 0.36212385 1.618 -2.28925e+38
0.66106862 0.36212385 1.618 -2.3423153e+38
0.66415054 0.36212385 1.618 -2.4090886e+38
0.66723245 0.36212385 1.618 -2.1695163e+38
0.67362863 0.36391431 1.626 -1.9300031e+38
0.67672575 0.36391431 1.626 -2.6896434e+38
0.67982292 0.36391431 1.626 nan
0.68292004 0.36391431 1.626 nan
0.69234574 0.36727145 1.641 nan
0.69547147 0.36727145 1.641 nan
0.69859719 0.36727145 1.641 nan
0.45059144 0.43946573 1.9470001 -2.5299722e+38
0.45173335 0.4369829 1.9360001 -2.5555159e+38
0.45542097 0.4369829 1.9360001 -2.5823588e+38
0.45910859 0.4369829 1.9360001 -2.5559809e+38
0.46016669 0.43450004 1.9250001 -2.5158952e+38
0.46383336 0.43450004 1.9250001 -2.5024459e+38
0.46750003 0.43450004 1.9250001 -2.4757569e+38
0.4711667 0.43450004 1.9250001 -2.4092428e+38
0.47236669 0.4322429 1.9150001 -2.3292812e+38
0.47601432 0.4322429 1.9150001 -2.315937e+38
0.47966194 0.4322429 1.9150001 -2.3026445e+38
0.48330957 0.4322429 1.9150001 -2.3158849e+38
0.48416004 0.42976004 1.904 -2.3159368e+38
0.48778671 0.42976004 1.904 -2.3292291e+38
0.49141335 0.42976004 1.904 -2.329281e+38
0.49504003 0.42976004 1.904 -2.3293329e+38
0.4986667 0.42976004 1.904 -2.3161447e+38
0.50229335 0.42976004 1.904 -2.3693659e+38
0.50592005 0.42976004 1.904 -2.4226918e+38
0.5095467 0.42976004 1.904 -2.4760177e+38
0.51317334 0.42976004 1.904 -2.516051e+38
0.51680005 0.42976004 1.904 -2.5694286e+38
0.52343339 0.4322429 1.9150001 -2.6213497e+38
0.52708101 0.4322429 1.9150001 -2.246516e+38
0.53350002 0.43450004 1.9250001 -1.8788667e+38
0.53716671 0.43450004 1.9250001 nan
0.58475339 0.37762001 1.6730001 nan
0.58512861 0.37581432 1.6650001 -3.2167908e+38
0.58547336 0.3740086 1.6570001 -1.7156529e+38
0.58862954 0.3740086 1.6570001 -2.0503555e+38
0.59178573 0.3740086 1.6570001 -2.3827655e+38
0.59494191 0.3740086 1.6570001 -2.3427842e+38
0.59521049 0.37220287 1.649 -2.3027508e+38
0.59835148 0.37220287 1.649 -2.2628212e+38
0.59857434 0.37039718 1.641 -2.2094955e+38
0.60170007 0.37039718 1.641 -2.1961507e+38
0.59929717 0.36701146 1.626 -2.1828582e+38
0.60239434 0.36701146 1.626 -2.1430333e+38
0.60549146 0.36701146 1.626 -2.1030007e+38
0.60858864 0.36701146 1.626 -2.1427737e+38
0.61168575 0.36701146 1.626 -2.1825982e+38
0.61175811 0.36520573 1.618 -2.1292731e+38
0.61484003 0.36520573 1.618 -2.0762072e+38
0.61792195 0.36520573 1.618 -2.0894989e+38
0.62100387 0.36520573 1.618 -2.0894472e+38
0.62408578 0.36520573 1.618 -2.0893955e+38
0.62445432 0.36362574 1.6110001 -2.0759995e+38
0.62752289 0.36362574 1.6110001 -2.089292e+38
0.63333148 0.36520573 1.618 -2.1025845e+38
0.6364134 0.36520573 1.618 -2.1025328e+38
0.63949525 0.36520573 1.618 -2.0892926e+38
0.64257717 0.36520573 1.618 -2.1159293e+38
0.64286578 0.36362574 1.6110001 -2.1293261e+38
0.64874101 0.36520573 1.618 -2.1559631e+38
0.65182292 0.36520573 1.618 -2.1827037e+38
0.65490478 0.36520573 1.618 -2.2493213e+38
0.6579867 0.36520573 1.618 -2.315679e+38
0.66106862 0.36520573 1.618 -2.381881e+38
0.66415054 0.36520573 1.618 -2.4351024e+38
0.66723245 0.36520573 1.618 -2.1292768e+38
0.67362863 0.36701146 1.626 -1.8239756e+38
0.67672575 0.36701146 1.626 -2.9027329e+38
0.67982292 0.36701146 1.626 nan
0.68292004 0.36701146 1.626 nan
0.68939245 0.36881718 1.6340001 nan
0.69547147 0.37039718 1.641 nan
0.69859719 0.37039718 1.641 nan
0.45059144 0.4431743 1.9470001 -2.529296e+38
0.45173335 0.44067049 1.9360001 -2.5422224e+38
0.45542097 0.44067049 1.9360001 -2.5558777e+38
0.45910859 0.44067049 1.9360001 -2.542585e+38
0.46016669 0.43816671 1.9250001 -2.529136e+38
0.46383336 0.43816671 1.9250001 -2.4758618e+38
0.46750003 0.43816671 1.9250001 -2.4358288e+38
0.4711667 0.43816671 1.9250001 -2.3825552e+38
0.47483337 0.43816671 1.9250001 -2.329126e+38
0.47601432 0.4358905 1.9150001 -2.315937e+38
0.47966194 0.4358905 1.9150001 -2.3158849e+38
0.48330957 0.4358905 1.9150001 -2.3159366e+38
0.48695716 0.4358905 1.9150001 -2.3291772e+38
0.49060479 0.4358905 1.9150001 -2.3425214e+38
0.49425241 0.4358905 1.9150001 -2.3558136e+38
0.49504003 0.43338668 1.904 -2.3559694e+38
0.4986667 0.43338668 1.904 -2.3561256e+38
0.50229335 0.43338668 1.904 -2.3960026e+38
0.50592005 0.43338668 1.904 -2.4360884e+38
0.5095467 0.43338668 1.904 -2.4759664e+38
0.51613814 0.4358905 1.9150001 -2.5161556e+38
0.51978576 0.4358905 1.9150001 -2.3962661e+38
0.52343339 0.4358905 1.9150001 -2.2893034e+38
0.52708101 0.4358905 1.9150001 -2.3951209e+38
0.53072858 0.4358905 1.9150001 -2.5172087e+38
0.5343762 0.4358905 1.9150001 nan
0.58512861 0.37898573 1.6650001 -3.2596343e+38
0.58547336 0.37716478 1.6570001 -1.7148258e+38
0.58862954 0.37716478 1.6570001 -2.0630768e+38
0.59178573 0.37716478 1.6570001 -2.4096099e+38
0.59494191 0.37716478 1.6570001 -2.3694726e+38
0.59521049 0.37534383 1.649 -2.315991e+38
0.59835148 0.37534383 1.649 -2.2627168e+38
0.59857434 0.37352288 1.641 -2.2226836e+38
0.60170007 0.37352288 1.641 -2.1960982e+38
0.59929717 0.3701086 1.626 -2.1827538e+38
0.60239434 0.3701086 1.626 -2.1562209e+38
0.60549146 0.3701086 1.626 -2.1428252e+38
0.60858864 0.3701086 1.626 -2.1560658e+38
0.61168575 0.3701086 1.626 -2.169254e+38
0.61478287 0.3701086 1.626 -2.1160326e+38
0.61484003 0.36828765 1.618 -2.0629667e+38
0.61792195 0.36828765 1.618 -2.0495697e+38
0.62100387 0.36828765 1.618 -2.049518e+38
0.62408578 0.36828765 1.618 -2.0494663e+38
0.62716764 0.36828765 1.618 -2.0494146e+38
0.63024956 0.36828765 1.618 -2.0627071e+38
0.63333148 0.36828765 1.618 -2.0892918e+38
0.6364134 0.36828765 1.618 -2.089344e+38
0.63949525 0.36828765 1.618 -2.0892924e+38
0.64257717 0.36828765 1.618 -2.102637e+38
0.64565909 0.36828765 1.618 -2.1293261e+38
0.64874101 0.36828765 1.618 -2.1426707e+38
0.65182292 0.36828765 1.618 -2.1693595e+38
0.65490478 0.36828765 1.618 -2.2359249e+38
0.6579867 0.36828765 1.618 -2.3023867e+38
0.66106862 0.36828765 1.618 -2.3552966e+38
0.66415054 0.36828765 1.618 -2.4212915e+38
0.66723245 0.36828765 1.618 -2.1289141e+38
0.67362863 0.3701086 1.626 -1.8492613e+38
0.67672575 0.3701086 1.626 -2.9566784e+38
0.67982292 0.3701086 1.626 nan
0.68292004 0.3701086 1.626 nan
0.69234574 0.37352288 1.641 nan
0.69886196 0.37534383 1.649 nan
0.71562576 0.38262764 1.6810001 nan
0.45173335 0.44435811 1.9360001 -2.5282531e+38
0.45542097 0.44435811 1.9360001 -2.5290325e+38
0.45910859 0.44435811 1.9360001 -2.5293447e+38
0.46016669 0.44183338 1.9250001 -2.529136e+38
0.46383336 0.44183338 1.9250001 -2.4626216e+38
0.46750003 0.44183338 1.9250001 -2.3826594e+38
0.4711667 0.44183338 1.9250001 -2.3559704e+38
0.47483337 0.44183338 1.9250001 -2.3293335e+38
0.47850004 0.44183338 1.9250001 -2.3293848e+38
0.47966194 0.43953812 1.9150001 -2.3160404e+38
0.48330957 0.43953812 1.9150001 -2.3292806e+38
0.48695716 0.43953812 1.9150001 -2.342521e+38
0.49060479 0.43953812 1.9150001 -2.3690538e+38
0.49425241 0.43953812 1.9150001 -2.3824503e+38
0.49790004 0.43953812 1.9150001 -2.3826063e+38
0.50154763 0.43953812 1.9150001 -2.3826069e+38
0.50229335 0.43701336 1.904 -2.4091402e+38
0.50884289 0.43953812 1.9150001 -2.4358296e+38
0.51249051 0.43953812 1.9150001 -2.4756557e+38
0.51613814 0.43953812 1.9150001 -2.502708e+38
0.51978576 0.43953812 1.9150001 -2.2367591e+38
0.52343339 0.43953812 1.9150001 -1.9569479e+38
0.52708101 0.43953812 1.9150001 -2.5541156e+38
0.53072858 0.43953812 1.9150001 -3.1444931e+38
0.5343762 0.43953812 1.9150001 nan
0.58512861 0.38215718 1.6650001 -3.2966035e+38
0.58547336 0.38032097 1.6570001 -1.7158125e+38
0.58862954 0.38032097 1.6570001 -2.0775637e+38
0.59178573 0.38032097 1.6570001 -2.4361947e+38
0.59494191 0.38032097 1.6570001 -2.382817e+38
0.59521049 0.37848479 1.649 -2.3293352e+38
0.59835148 0.37848479 1.649 -2.2760093e+38
0.59857434 0.3766486 1.641 -2.2227876e+38
0.60170007 0.3766486 1.641 -2.1961505e+38
0.60224575 0.37504193 1.6340001 -2.1694621e+38
0.60239434 0.37320575 1.626 -2.1694621e+38
0.60549146 0.37320575 1.626 -2.1693581e+38
0.60858864 0.37320575 1.626 -2.1693061e+38
0.61168575 0.37320575 1.626 -2.1559092e+38
0.61478287 0.37320575 1.626 -2.1025837e+38
0.61484003 0.37136954 1.618 -2.0494663e+38
0.61792195 0.37136954 1.618 -2.0227777e+38
0.62100387 0.37136954 1.618 -1.996297e+38
0.62408578 0.37136954 1.618 -2.0095895e+38
0.62716764 0.37136954 1.618 -2.0095375e+38
0.63024956 0.37136954 1.618 -2.0494144e+38
0.63333148 0.37136954 1.618 -2.076103e+38
0.6364134 0.37136954 1.618 -2.0761553e+38
0.63949525 0.37136954 1.618 -2.0761042e+38
0.64257717 0.37136954 1.618 -2.1026374e+38
0.64565909 0.37136954 1.618 -2.116034e+38
0.64874101 0.37136954 1.618 -2.1292749e+38
0.65182292 0.37136954 1.618 -2.1427232e+38
0.65490478 0.37136954 1.618 -2.2092369e+38
0.6579867 0.37136954 1.618 -2.275803e+38
0.66106862 0.37136954 1.618 -2.3422131e+38
0.66415054 0.37136954 1.618 -2.3952775e+38
0.67053145 0.37320575 1.626 -2.1290677e+38
0.67362863 0.37320575 1.626 -1.8646854e+38
0.68005526 0.37504193 1.6340001 -2.9983811e+38
0.68316764 0.37504193 1.6340001 nan
0.68922007 0.3766486 1.641 nan
0.69572097 0.37848479 1.649 nan
0.70225245 0.38032097 1.6570001 nan
0.70200288 0.37848479 1.649 nan
0.44916669 0.44550002 1.9250001 -2.7545313e+38
0.45542097 0.44804573 1.9360001 -2.3963683e+38
0.45910859 0.44804573 1.9360001 -2.4628313e+38
0.46279621 0.44804573 1.9360001 -2.5290321e+38
0.46383336 0.44550002 1.9250001 -2.4624659e+38
0.46750003 0.44550002 1.9250001 -2.4091402e+38
0.4711667 0.44550002 1.9250001 -2.3693144e+38
0.47483337 0.44550002 1.9250001 -2.3427814e+38
0.47850004 0.44550002 1.9250001 -2.3294366e+38
0.48216671 0.44550002 1.9250001 -2.3294364e+38
0.48583338 0.44550002 1.9250001 -2.3292283e+38
0.48950005 0.44550002 1.9250001 -2.3424688e+38
0.49060479 0.44318575 1.9150001 -2.3558132e+38
0.49425241 0.44318575 1.9150001 -2.369158e+38
0.49790004 0.44318575 1.9150001 -2.3691587e+38
0.50154763 0.44318575 1.9150001 -2.3692114e+38
0.50519526 0.44318575 1.9150001 -2.409141e+38
0.50884289 0.44318575 1.9150001 -2.4490707e+38
0.51249051 0.44318575 1.9150001 -2.4760198e+38
0.51613814 0.44318575 1.9150001 -2.5031759e+38
0.51978576 0.44318575 1.9150001 -2.1968825e+38
0.52343339 0.44318575 1.9150001 -1.9039897e+38
0.52708101 0.44318575 1.9150001 -2.729933e+38
0.53072858 0.44318575 1.9150001 nan
0.5343762 0.44318575 1.9150001 nan
0.58512861 0.38532859 1.6650001 -3.2466017e+38
0.58547336 0.38347718 1.6570001 -1.7281185e+38
0.58862954 0.38347718 1.6570001 -2.089662e+38
0.59178573 0.38347718 1.6570001 -2.4493314e+38
0.59494191 0.38347718 1.6570001 -2.3960055e+38
0.59809816 0.38347718 1.6570001 -2.3425757e+38
0.59835148 0.38162574 1.649 -2.3026459e+38
0.59857434 0.3797743 1.641 -2.2626646e+38
0.60170007 0.3797743 1.641 -2.2360276e+38
0.60224575 0.37815431 1.6340001 -2.2225797e+38
0.60239434 0.37630287 1.626 -2.2092876e+38
0.60549146 0.37630287 1.626 -2.1958392e+38
0.60858864 0.37630287 1.626 -2.1559617e+38
0.61168575 0.37630287 1.626 -2.1292723e+38
0.61478287 0.37630287 1.626 -2.0893425e+38
0.61484003 0.37445146 1.618 -2.049414e+38
0.61792195 0.37445146 1.618 -2.0228296e+38
0.62100387 0.37445146 1.618 -2.0095893e+38
0.62408578 0.37445146 1.618 -2.0095373e+38
0.62716764 0.37445146 1.618 -2.0227775e+38
0.63024956 0.37445146 1.618 -2.0495176e+38
0.63333148 0.37445146 1.618 -2.0629663e+38
0.6364134 0.37445146 1.618 -2.0894474e+38
0.63949525 0.37445146 1.618 -2.1293252e+38
0.64257717 0.37445146 1.618 -2.1425666e+38
0.64565909 0.37445146 1.618 -2.1559631e+38
0.64874101 0.37445146 1.618 -2.1559636e+38
0.65182292 0.37445146 1.618 -2.169412e+38
0.65490478 0.37445146 1.618 -2.2093412e+38
0.6579867 0.37445146 1.618 -2.2626671e+38
0.66106862 0.37445146 1.618 -2.3292333e+38
0.66415054 0.37445146 1.618 -2.3960558e+38
0.67053145 0.37630287 1.626 -2.1162924e+38
0.67362863 0.37630287 1.626 -1.8244482e+38
0.67672575 0.37630287 1.626 -3.1854678e+38
0.68316764 0.37815431 1.6340001 nan
0.68628007 0.37815431 1.6340001 nan
0.69572097 0.38162574 1.649 nan
0.70225245 0.38347718 1.6570001 nan
0.45059144 0.45430002 1.9470001 nan
0.45430002 0.45430002 1.9470001 -2.9921779e+38
0.45800859 0.45430002 1.9470001 -2.2493198e+38
0.45910859 0.45173335 1.9360001 -2.3832328e+38
0.46279621 0.45173335 1.9360001 -2.5157913e+38
0.46648383 0.45173335 1.9360001 -2.4756541e+38
0.46750003 0.44916669 1.9250001 -2.4224844e+38
0.4711667 0.44916669 1.9250001 -2.3958994e+38
0.47483337 0.44916669 1.9250001 -2.3560219e+38
0.47850004 0.44916669 1.9250001 -2.3426773e+38
0.48216671 0.44916669 1.9250001 -2.3292808e+38
0.48583338 0.44916669 1.9250001 -2.3290727e+38
0.48950005 0.44916669 1.9250001 -2.3291765e+38
0.49316669 0.44916669 1.9250001 -2.342469e+38
0.49425241 0.44683337 1.9150001 -2.3557619e+38
0.49790004 0.44683337 1.9150001 -2.3557108e+38
0.50154763 0.44683337 1.9150001 -2.3558672e+38
0.50519526 0.44683337 1.9150001 -2.409089e+38
0.50884289 0.44683337 1.9150001 -2.4492265e+38
0.51249051 0.44683337 1.9150001 -2.4761753e+38
0.51613814 0.44683337 1.9150001 -2.5029159e+38
0.51978576 0.44683337 1.9150001 -2.1701418e+38
0.52343339 0.44683337 1.9150001 -1.8373731e+38
0.52708101 0.44683337 1.9150001 -2.9160785e+38
0.53072858 0.44683337 1.9150001 nan
0.5343762 0.44683337 1.9150001 nan
0.58512861 0.38850003 1.6650001 -3.1903675e+38
0.58547336 0.38663337 1.6570001 -1.7289489e+38
0.58862954 0.38663337 1.6570001 -2.1035781e+38
0.59178573 0.38663337 1.6570001 -2.4625721e+38
0.59494191 0.38663337 1.6570001 -2.4092977e+38
0.59809816 0.38663337 1.6570001 -2.3426276e+38
0.59835148 0.3847667 1.649 -2.3292824e+38
0.6014924 0.3847667 1.649 -2.3025936e+38
0.60170007 0.38290003 1.641 -2.2891971e+38
0.60224575 0.38126668 1.6340001 -2.2625087e+38
0.60239434 0.37940001 1.626 -2.2359241e+38
0.60549146 0.37940001 1.626 -2.2091836e+38
0.60858864 0.37940001 1.626 -2.1559102e+38
0.61168575 0.37940001 1.626 -2.1026884e+38
0.61175811 0.37753335 1.618 -2.0761032e+38
0.61484003 0.37753335 1.618 -2.0361744e+38
0.61792195 0.37753335 1.618 -2.0228304e+38
0.62100387 0.37753335 1.618 -2.0095379e+38
0.62408578 0.37753335 1.618 -2.0227781e+38
0.62716764 0.37753335 1.618 -2.0361221e+38
0.63024956 0.37753335 1.618 -2.049518e+38
0.63333148 0.37753335 1.618 -2.0495182e+38
0.6364134 0.37753335 1.618 -2.1159281e+38
0.63949525 0.37753335 1.618 -2.1690978e+38
0.64257717 0.37753335 1.618 -2.182339e+38
0.64565909 0.37753335 1.618 -2.1957875e+38
0.64874101 0.37753335 1.618 -2.1958398e+38
0.65182292 0.37753335 1.618 -2.1827039e+38
0.65490478 0.37753335 1.618 -2.2226333e+38
0.6579867 0.37753335 1.618 -2.2494269e+38
0.66106862 0.37753335 1.618 -2.3292857e+38
0.66743433 0.37940001 1.626 -2.3955868e+38
0.67053145 0.37940001 1.626 -2.0889251e+38
0.67362863 0.37940001 1.626 -1.7854005e+38
0.67672575 0.37940001 1.626 -3.3744678e+38
0.67982292 0.37940001 1.626 nan
0.68628007 0.38126668 1.6340001 nan
0.69234574 0.38290003 1.641 nan
0.70225245 0.38663337 1.6570001 nan
0.71945721 0.39433336 1.6900001 nan
0.45430002 0.45800859 1.9470001 -2.9937307e+38
0.45800859 0.45800859 1.9470001 -2.1427191e+38
0.46171716 0.45800859 1.9470001 -2.34294e+38
0.46279621 0.45542097 1.9360001 -2.5290832e+38
0.46648383 0.45542097 1.9360001 -2.4757575e+38
0.46750003 0.45283335 1.9250001 -2.4225363e+38
0.4711667 0.45283335 1.9250001 -2.3958996e+38
0.47483337 0.45283335 1.9250001 -2.3692627e+38
0.47850004 0.45283335 1.9250001 -2.3559179e+38
0.48216671 0.45283335 1.9250001 -2.3425214e+38
0.48583338 0.45283335 1.9250001 -2.3425208e+38
0.48950005 0.45283335 1.9250001 -2.342521e+38
0.49316669 0.45283335 1.9250001 -2.3558132e+38
0.49683335 0.45283335 1.9250001 -2.3690544e+38
0.49790004 0.45048097 1.9150001 -2.3691069e+38
0.50154763 0.45048097 1.9150001 -2.3825039e+38
0.50519526 0.45048097 1.9150001 -2.409141e+38
0.50884289 0.45048097 1.9150001 -2.4492782e+38
0.51249051 0.45048097 1.9150001 -2.4763309e+38
0.51613814 0.45048097 1.9150001 -2.5032791e+38
0.51978576 0.45048097 1.9150001 -2.142726e+38
0.52343339 0.45048097 1.9150001 -1.7948488e+38
0.52708101 0.45048097 1.9150001 -3.0366452e+38
0.53072858 0.45048097 1.9150001 nan
0.5343762 0.45048097 1.9150001 nan
0.58512861 0.39167145 1.6650001 -3.2462349e+38
0.58830005 0.39167145 1.6650001 -1.7281177e+38
0.58862954 0.38978955 1.6570001 -2.1161443e+38
0.59178573 0.38978955 1.6570001 -2.5025532e+38
0.59494191 0.38978955 1.6570001 -2.4225898e+38
0.59809816 0.38978955 1.6570001 -2.3425757e+38
0.60125434 0.38978955 1.6570001 -2.3026979e+38
0.6014924 0.38790765 1.649 -2.262717e+38
0.60170007 0.38602573 1.641 -2.2493206e+38
0.60224575 0.38437906 1.6340001 -2.2491647e+38
0.60239434 0.38249716 1.626 -2.2092876e+38
0.60549146 0.38249716 1.626 -2.1693589e+38
0.60858864 0.38249716 1.626 -2.129378e+38
0.61168575 0.38249716 1.626 -2.0893969e+38
0.61478287 0.38249716 1.626 -2.0627598e+38
0.61484003 0.38061526 1.618 -2.0494675e+38
0.61792195 0.38061526 1.618 -2.0227791e+38
0.62100387 0.38061526 1.618 -1.9961424e+38
0.62408578 0.38061526 1.618 -2.0094862e+38
0.62716764 0.38061526 1.618 -2.0227783e+38
0.63024956 0.38061526 1.618 -2.02283e+38
0.63333148 0.38061526 1.618 -2.0227781e+38
0.6364134 0.38061526 1.618 -2.0892914e+38
0.63949525 0.38061526 1.618 -2.1689938e+38
0.64257717 0.38061526 1.618 -2.1823384e+38
0.64565909 0.38061526 1.618 -2.1957349e+38
0.64874101 0.38061526 1.618 -2.1692546e+38
0.65182292 0.38061526 1.618 -2.1428786e+38
0.65490478 0.38061526 1.618 -2.1429832e+38
0.6579867 0.38061526 1.618 -2.1564848e+38
0.66433716 0.38249716 1.626 -2.1963633e+38
0.66743433 0.38249716 1.626 -2.2364411e+38
0.67053145 0.38249716 1.626 -1.9952003e+38
0.67362863 0.38249716 1.626 -1.7679006e+38
0.68005526 0.38437906 1.6340001 -3.398924e+38
0.68316764 0.38437906 1.6340001 nan
0.68628007 0.38437906 1.6340001 nan
0.69234574 0.38602573 1.641 nan
0.70225245 0.38978955 1.6570001 nan
0.70540863 0.38978955 1.6570001 nan
0.45059144 0.46171716 1.9470001 nan
0.45430002 0.46171716 1.9470001 -3.0041686e+38
0.45800859 0.46171716 1.9470001 -2.0354992e+38
0.46171716 0.46171716 1.9470001 -2.2900311e+38
0.46279621 0.45910859 1.9360001 -2.5423757e+38
0.46648383 0.45910859 1.9360001 -2.4891017e+38
0.46750003 0.45650002 1.9250001 -2.4225363e+38
0.4711667 0.45650002 1.9250001 -2.4091917e+38
0.47483337 0.45650002 1.9250001 -2.3825025e+38
0.47850004 0.45650002 1.9250001 -2.3691574e+38
0.47966194 0.45412859 1.9150001 -2.3558128e+38
0.48583338 0.45650002 1.9250001 -2.3558643e+38
0.48950005 0.45650002 1.9250001 -2.3558126e+38
0.49316669 0.45650002 1.9250001 -2.3691051e+38
0.49683335 0.45650002 1.9250001 -2.382398e+38
0.49790004 0.45412859 1.9150001 -2.3957428e+38
0.50154763 0.45412859 1.9150001 -2.3957434e+38
0.50519526 0.45412859 1.9150001 -2.4222767e+38
0.50884289 0.45412859 1.9150001 -2.4493815e+38
0.51249051 0.45412859 1.9150001 -2.4765384e+38
0.51613814 0.45412859 1.9150001 -2.5027068e+38
0.51978576 0.45412859 1.9150001 -2.1291721e+38
0.52343339 0.45412859 1.9150001 -1.7443807e+38
0.52708101 0.45412859 1.9150001 -3.158201e+38
0.53072858 0.45412859 1.9150001 nan
0.5343762 0.45412859 1.9150001 nan
0.58830005 0.39484289 1.6650001 -1.7290535e+38
0.58862954 0.39294574 1.6570001 -2.1435556e+38
0.59178573 0.39294574 1.6570001 -2.5422199e+38
0.59494191 0.39294574 1.6570001 -2.4358817e+38
0.59809816 0.39294574 1.6570001 -2.3293352e+38
0.60125434 0.39294574 1.6570001 -2.2761133e+38
0.6014924 0.39104861 1.649 -2.2228399e+38
0.60170007 0.38915145 1.641 -2.2227357e+38
0.60224575 0.38749146 1.6340001 -2.2226836e+38
0.60535812 0.38749146 1.6340001 -2.1827546e+38
0.60549146 0.38559431 1.626 -2.1294814e+38
0.60858864 0.38559431 1.626 -2.1028447e+38
0.61168575 0.38559431 1.626 -2.0761042e+38
0.61478287 0.38559431 1.626 -2.0627079e+38
0.61484003 0.38369718 1.618 -2.0494154e+38
0.61792195 0.38369718 1.618 -2.0094345e+38
0.62100387 0.38369718 1.618 -1.9696094e+38
0.62408578 0.38369718 1.618 -1.9828495e+38
0.62716764 0.38369718 1.618 -1.9961937e+38
0.63024956 0.38369718 1.618 -1.9962457e+38
0.63333148 0.38369718 1.618 -1.9962459e+38
0.6364134 0.38369718 1.618 -2.0759478e+38
0.63949525 0.38369718 1.618 -2.1557536e+38
0.64257717 0.38369718 1.618 -2.1823386e+38
0.64565909 0.38369718 1.618 -2.1957868e+38
0.64874101 0.38369718 1.618 -2.1559104e+38
0.65182292 0.38369718 1.618 -2.1030013e+38
0.65490478 0.38369718 1.618 -2.076521e+38
0.6579867 0.38369718 1.618 -2.0500403e+38
0.66433716 0.38559431 1.626 -2.0631766e+38
0.66743433 0.38559431 1.626 -2.0627056e+38
0.67053145 0.38559431 1.626 -1.9008581e+38
0.67362863 0.38559431 1.626 -1.7445375e+38
0.67672575 0.38559431 1.626 nan
0.68316764 0.38749146 1.6340001 nan
0.68628007 0.38749146 1.6340001 nan
0.69234574 0.38915145 1.641 nan
0.69886196 0.39104861 1.649 nan
0.45059144 0.46542576 1.9470001 nan
0.45430002 0.46542576 1.9470001 -3.0069218e+38
0.45800859 0.46542576 1.9470001 -1.9279158e+38
0.46171716 0.46542576 1.9470001 -2.2360318e+38
0.46279621 0.46279621 1.9360001 -2.5422723e+38
0.46648383 0.46279621 1.9360001 -2.4891017e+38
0.46750003 0.46016669 1.9250001 -2.4358284e+38
0.4711667 0.46016669 1.9250001 -2.4091915e+38
0.47483337 0.46016669 1.9250001 -2.3957424e+38
0.47850004 0.46016669 1.9250001 -2.3691566e+38
0.48216671 0.46016669 1.9250001 -2.3557603e+38
0.48583338 0.46016669 1.9250001 -2.3557599e+38
0.48950005 0.46016669 1.9250001 -2.3557601e+38
0.49316669 0.46016669 1.9250001 -2.3691045e+38
0.49683335 0.46016669 1.9250001 -2.3823974e+38
0.49790004 0.45777622 1.9150001 -2.3956903e+38
0.50154763 0.45777622 1.9150001 -2.4222752e+38
0.50519526 0.45777622 1.9150001 -2.4357756e+38
0.50884289 0.45777622 1.9150001 -2.462777e+38
0.51249051 0.45777622 1.9150001 -2.4895707e+38
0.51613814 0.45777622 1.9150001 -2.5163094e+38
0.51978576 0.45777622 1.9150001 -2.1427218e+38
0.52343339 0.45777622 1.9150001 -1.7827528e+38
0.52708101 0.45777622 1.9150001 -3.2246145e+38
0.53072858 0.45777622 1.9150001 nan
0.5343762 0.45777622 1.9150001 nan
0.59112668 0.39992669 1.6730001 -1.7280684e+38
0.58862954 0.39610192 1.6570001 -2.102636e+38
0.59178573 0.39610192 1.6570001 -2.488789e+38
0.59494191 0.39610192 1.6570001 -2.3957968e+38
0.59809816 0.39610192 1.6570001 -2.3025946e+38
0.60125434 0.39610192 1.6570001 -2.2760614e+38
0.6014924 0.39418954 1.649 -2.2494243e+38
0.60170007 0.39227718 1.641 -2.2360276e+38
0.60224575 0.39060384 1.6340001 -2.2226831e+38
0.60239434 0.38869146 1.626 -2.1827021e+38
0.60549146 0.38869146 1.626 -2.1426692e+38
0.60858864 0.38869146 1.626 -2.1159804e+38
0.61168575 0.38869146 1.626 -2.075948e+38
0.61175811 0.38677907 1.618 -2.0627077e+38
0.61484003 0.38677907 1.618 -2.0493631e+38
0.61792195 0.38677907 1.618 -2.0493627e+38
0.62100387 0.38677907 1.618 -2.0494146e+38
0.62408578 0.38677907 1.618 -2.0227781e+38
0.62716764 0.38677907 1.618 -1.9962457e+38
0.63024956 0.38677907 1.618 -2.0228821e+38
0.63333148 0.38677907 1.618 -2.0494673e+38
0.6364134 0.38677907 1.618 -2.0893446e+38
0.63949525 0.38677907 1.618 -2.1291695e+38
0.64257717 0.38677907 1.618 -2.1292733e+38
0.64565909 0.38677907 1.618 -2.1427216e+38
0.64874101 0.38677907 1.618 -2.1428256e+38
0.65182292 0.38677907 1.618 -2.1429297e+38
0.65490478 0.38677907 1.618 -2.1563258e+38
0.6579867 0.38677907 1.618 -2.1564278e+38
0.66433716 0.38869146 1.626 -2.209647e+38
0.66743433 0.38869146 1.626 -2.2630232e+38
0.67053145 0.38869146 1.626 -2.021321e+38
0.67362863 0.38869146 1.626 -1.781301e+38
0.68005526 0.39060384 1.6340001 nan
0.68609434 0.39227718 1.641 nan
0.68922007 0.39227718 1.641 nan
0.69234574 0.39227718 1.641 nan
0.69886196 0.39418954 1.649 nan
