# .PCD v0.7 - Point Cloud Data file format
VERSION 0.7
FIELDS x y z rgb
SIZE 4 4 4 4
TYPE F F F F
COUNT 1 1 1 1
WIDTH 1049
HEIGHT 1
VIEWPOINT 0 0 0 1 0 0 0
POINTS 1049
DATA ascii
5.4685574 -0.5691995 1.9090178 -3.3441349e+38
5.4685335 -0.57926041 1.9090178 nan
5.4695106 -0.16676247 1.8989569 nan
5.4694867 -0.17682341 1.8989569 nan
5.4694629 -0.18688433 1.8989569 nan
5.469439 -0.19694525 1.8989569 -2.4213865e+38
5.4694152 -0.20700619 1.8989569 -2.6345317e+38
5.4693913 -0.21706709 1.8989569 -2.8342799e+38
5.4693675 -0.22712803 1.8989569 -2.7547346e+38
5.4693437 -0.23718897 1.8989569 -2.674929e+38
5.4693198 -0.2472499 1.8989569 -2.6350002e+38
5.4692965 -0.25731081 1.8989569 -2.5818309e+38
5.4692726 -0.26737174 1.8989569 -2.5818307e+38
5.4692488 -0.27743265 1.8989569 -2.5817266e+38
5.4692249 -0.28749359 1.8989569 -2.5551419e+38
5.4692011 -0.29755449 1.8989569 -2.5152129e+38
5.4691772 -0.30761543 1.8989569 -2.528453e+38
5.4691534 -0.31767637 1.8989569 -2.5284533e+38
5.4691296 -0.3277373 1.8989569 -2.5151093e+38
5.4691057 -0.33779821 1.8989569 -2.4885249e+38
5.4690819 -0.34785911 1.8989569 -2.5150577e+38
5.3890681 -0.35354012 1.888976 -2.5283502e+38
5.3890443 -0.36344865 1.888976 -2.515006e+38
5.4690104 -0.37804189 1.8989569 -2.5018174e+38
5.4689865 -0.38810283 1.8989569 -2.5151093e+38
5.4689627 -0.39816374 1.8989569 -2.5151612e+38
5.4689388 -0.40822467 1.8989569 -2.5152131e+38
5.468915 -0.41828558 1.8989569 -2.5018689e+38
5.4688911 -0.42834651 1.8989569 -2.515161e+38
5.4688673 -0.43840745 1.8989569 -2.5285054e+38
5.4688435 -0.44846836 1.8989569 -2.5285054e+38
5.4688196 -0.45852932 1.8989569 -2.5285575e+38
5.4687958 -0.46859023 1.8989569 -2.5551942e+38
5.4687719 -0.47865117 1.8989569 -2.5818313e+38
5.5507331 -0.49523199 1.9091873 -2.5818317e+38
5.5507088 -0.50544912 1.9091873 -2.5818844e+38
5.5506845 -0.51566619 1.9091873 -2.5817812e+38
5.5506606 -0.52588332 1.9091873 -2.5820418e+38
5.5506363 -0.53610045 1.9091873 -2.6620559e+38
5.550612 -0.54631752 1.9091873 -2.7284112e+38
5.5505877 -0.55653465 1.9091873 -2.3021734e+38
5.4685812 -0.55913854 1.8989569 -1.8643707e+38
5.4685574 -0.5691995 1.8989569 -3.2522316e+38
5.4685335 -0.57926041 1.8989569 nan
5.5515075 -0.1682843 1.8989702 nan
5.5514832 -0.17850143 1.8989702 nan
5.4694629 -0.18688433 1.888896 nan
5.469439 -0.19694525 1.888896 -3.0063498e+38
5.4694152 -0.20700619 1.888896 -2.8604461e+38
5.4693913 -0.21706709 1.888896 -2.714804e+38
5.4693675 -0.22712803 1.888896 -2.688221e+38
5.4693437 -0.23718897 1.888896 -2.6616367e+38
5.4693198 -0.2472499 1.888896 -2.6351042e+38
5.4692965 -0.25731081 1.888896 -2.6085195e+38
5.4692726 -0.26737174 1.888896 -2.5951232e+38
5.4692488 -0.27743265 1.888896 -2.5816749e+38
5.4692249 -0.28749359 1.888896 -2.5551421e+38
5.4692011 -0.29755449 1.888896 -2.5285054e+38
5.4691772 -0.30761543 1.888896 -2.5152129e+38
5.4691534 -0.31767637 1.888896 -2.5018689e+38
5.4691296 -0.3277373 1.888896 -2.5018691e+38
5.4691057 -0.33779821 1.888896 -2.5019214e+38
5.4690819 -0.34785911 1.888896 -2.515162e+38
5.3890681 -0.35354012 1.8790674 -2.5284023e+38
5.4690342 -0.36798099 1.888896 -2.5151101e+38
5.4690104 -0.37804189 1.888896 -2.5018693e+38
5.4689865 -0.38810283 1.888896 -2.5018689e+38
5.4689627 -0.39816374 1.888896 -2.5151093e+38
5.4689388 -0.40822467 1.888896 -2.515161e+38
5.468915 -0.41828558 1.888896 -2.5284533e+38
5.4688911 -0.42834651 1.888896 -2.5284533e+38
5.4688673 -0.43840745 1.888896 -2.5285052e+38
5.4688435 -0.44846836 1.888896 -2.5285571e+38
5.4688196 -0.45852932 1.888896 -2.5419017e+38
5.4687958 -0.46859023 1.888896 -2.5419019e+38
5.4687719 -0.47865117 1.888896 -2.5419542e+38
5.5507331 -0.49523199 1.8989702 -2.5552988e+38
5.5507088 -0.50544912 1.8989702 -2.5686439e+38
5.5506845 -0.51566619 1.8989702 -2.581885e+38
5.5506606 -0.52588332 1.8989702 -2.5953343e+38
5.5506363 -0.53610045 1.8989702 -2.6355237e+38
5.550612 -0.54631752 1.8989702 -2.6758666e+38
5.5505877 -0.55653465 1.8989702 -2.3418967e+38
5.5505638 -0.56675178 1.8989702 -2.0216987e+38
5.5505395 -0.57696891 1.8989702 -3.330999e+38
5.5505152 -0.58718604 1.8989702 nan
5.4695106 -0.16676247 1.878835 nan
5.3894901 -0.17518632 1.8691587 nan
5.4694629 -0.18688433 1.878835 nan
5.469439 -0.19694525 1.878835 nan
5.4694152 -0.20700619 1.878835 -3.0994489e+38
5.4693913 -0.21706709 1.878835 -2.5947068e+38
5.4693675 -0.22712803 1.878835 -2.6217079e+38
5.4693437 -0.23718897 1.878835 -2.6483444e+38
5.4693198 -0.2472499 1.878835 -2.635156e+38
5.4692965 -0.25731081 1.878835 -2.6217077e+38
5.4692726 -0.26737174 1.878835 -2.6083635e+38
5.4692488 -0.27743265 1.878835 -2.5817268e+38
5.4692249 -0.28749359 1.878835 -2.5551423e+38
5.4692011 -0.29755449 1.878835 -2.5285573e+38
5.4691772 -0.30761543 1.878835 -2.5019725e+38
5.4691534 -0.31767637 1.878835 -2.4620438e+38
5.4691296 -0.3277373 1.878835 -2.4885766e+38
5.4691057 -0.33779821 1.878835 -2.5018689e+38
5.4690819 -0.34785911 1.878835 -2.5151614e+38
5.469058 -0.35792005 1.878835 -2.5151095e+38
5.4690342 -0.36798099 1.878835 -2.5017655e+38
5.4690104 -0.37804189 1.878835 -2.4885249e+38
5.4689865 -0.38810283 1.878835 -2.5018689e+38
5.4689627 -0.39816374 1.878835 -2.515161e+38
5.4689388 -0.40822467 1.878835 -2.5284013e+38
5.468915 -0.41828558 1.878835 -2.5416936e+38
5.4688911 -0.42834651 1.878835 -2.5284013e+38
5.4688673 -0.43840745 1.878835 -2.5152131e+38
5.4688435 -0.44846836 1.878835 -2.5285573e+38
5.4688196 -0.45852932 1.878835 -2.5418498e+38
5.4687958 -0.46859023 1.878835 -2.5285577e+38
5.4687719 -0.47865117 1.878835 -2.5020772e+38
5.5507331 -0.49523199 1.8887532 -2.528766e+38
5.5507088 -0.50544912 1.8887532 -2.542007e+38
5.5506845 -0.51566619 1.8887532 -2.5817287e+38
5.5506606 -0.52588332 1.8887532 -2.6086247e+38
5.5506363 -0.53610045 1.8887532 -2.6088324e+38
5.550612 -0.54631752 1.8887532 -2.6085203e+38
5.5505877 -0.55653465 1.8887532 -2.3944934e+38
5.5505638 -0.56675178 1.8887532 -2.171133e+38
5.5505395 -0.57696891 1.8887532 nan
5.5505152 -0.58718604 1.8887532 nan
5.4695106 -0.16676247 1.8687741 nan
5.4694867 -0.17682341 1.8687741 nan
5.4694629 -0.18688433 1.8687741 nan
5.469439 -0.19694525 1.8687741 -3.3694033e+38
5.4694152 -0.20700619 1.8687741 -2.9673581e+38
5.4693913 -0.21706709 1.8687741 -2.5676557e+38
5.4693675 -0.22712803 1.8687741 -2.6082079e+38
5.4693437 -0.23718897 1.8687741 -2.6482925e+38
5.4693198 -0.2472499 1.8687741 -2.6216558e+38
5.4692965 -0.25731081 1.8687741 -2.6082597e+38
5.4692726 -0.26737174 1.8687741 -2.5816749e+38
5.4692488 -0.27743265 1.8687741 -2.5683307e+38
5.4692249 -0.28749359 1.8687741 -2.5417981e+38
5.4692011 -0.29755449 1.8687741 -2.5152652e+38
5.4691772 -0.30761543 1.8687741 -2.4886283e+38
5.4691534 -0.31767637 1.8687741 -2.4753361e+38
5.4691296 -0.3277373 1.8687741 -2.475232e+38
5.4691057 -0.33779821 1.8687741 -2.4884724e+38
5.4690819 -0.34785911 1.8687741 -2.4884722e+38
5.469058 -0.35792005 1.8687741 -2.5017648e+38
5.4690342 -0.36798099 1.8687741 -2.4885247e+38
5.4690104 -0.37804189 1.8687741 -2.4885247e+38
5.4689865 -0.38810283 1.8687741 -2.4885245e+38
5.4689627 -0.39816374 1.8687741 -2.5018687e+38
5.4689388 -0.40822467 1.8687741 -2.5018166e+38
5.468915 -0.41828558 1.8687741 -2.515109e+38
5.4688911 -0.42834651 1.8687741 -2.515109e+38
5.4688673 -0.43840745 1.8687741 -2.5152131e+38
5.4688435 -0.44846836 1.8687741 -2.5152133e+38
5.4688196 -0.45852932 1.8687741 -2.5285058e+38
5.4687958 -0.46859023 1.8687741 -2.5152654e+38
5.4687719 -0.47865117 1.8687741 -2.5154214e+38
5.5507331 -0.49523199 1.878536 -2.5153695e+38
5.5507088 -0.50544912 1.878536 -2.5153699e+38
5.5506845 -0.51566619 1.878536 -2.5153703e+38
5.5506606 -0.52588332 1.878536 -2.5288692e+38
5.5506363 -0.53610045 1.878536 -2.4622509e+38
5.550612 -0.54631752 1.878536 -2.409186e+38
5.5505877 -0.55653465 1.878536 -2.6349475e+38
5.5505638 -0.56675178 1.878536 -2.8623835e+38
5.5505395 -0.57696891 1.878536 nan
5.5505152 -0.58718604 1.878536 nan
5.4695106 -0.16676247 1.8587132 nan
5.4694867 -0.17682341 1.8587132 nan
5.4694629 -0.18688433 1.8587132 nan
5.469439 -0.19694525 1.8587132 -3.1281149e+38
5.4694152 -0.20700619 1.8587132 -2.8329786e+38
5.4693913 -0.21706709 1.8587132 -2.5414326e+38
5.4693675 -0.22712803 1.8587132 -2.5951745e+38
5.4693437 -0.23718897 1.8587132 -2.6349475e+38
5.4693198 -0.2472499 1.8587132 -2.6082073e+38
5.4692965 -0.25731081 1.8587132 -2.5815707e+38
5.4692726 -0.26737174 1.8587132 -2.5682264e+38
5.4692488 -0.27743265 1.8587132 -2.5549861e+38
5.4692249 -0.28749359 1.8587132 -2.5284015e+38
5.4692011 -0.29755449 1.8587132 -2.4885245e+38
5.4691772 -0.30761543 1.8587132 -2.4885243e+38
5.4691534 -0.31767637 1.8587132 -2.4752316e+38
5.4691296 -0.3277373 1.8587132 -2.4751795e+38
5.4691057 -0.33779821 1.8587132 -2.4751278e+38
5.4690819 -0.34785911 1.8587132 -2.475128e+38
5.469058 -0.35792005 1.8587132 -2.4751801e+38
5.4690342 -0.36798099 1.8587132 -2.4885245e+38
5.4690104 -0.37804189 1.8587132 -2.4884726e+38
5.4689865 -0.38810283 1.8587132 -2.4884726e+38
5.4689627 -0.39816374 1.8587132 -2.4751801e+38
5.4689388 -0.40822467 1.8587132 -2.4884724e+38
5.468915 -0.41828558 1.8587132 -2.4885243e+38
5.4688911 -0.42834651 1.8587132 -2.5017648e+38
5.4688673 -0.43840745 1.8587132 -2.501817e+38
5.4688435 -0.44846836 1.8587132 -2.5151093e+38
5.4688196 -0.45852932 1.8587132 -2.5151612e+38
5.4687958 -0.46859023 1.8587132 -2.5152131e+38
5.4687719 -0.47865117 1.8587132 -2.5152648e+38
5.5507331 -0.49523199 1.8683188 -2.5018687e+38
5.5507088 -0.50544912 1.8683188 -2.4753367e+38
5.5506845 -0.51566619 1.8683188 -2.4619931e+38
5.5506606 -0.52588332 1.8683188 -2.4486998e+38
5.5506363 -0.53610045 1.8683188 -2.3287048e+38
5.550612 -0.54631752 1.8683188 -2.1960434e+38
5.5505877 -0.55653465 1.8683188 -2.8736402e+38
5.5505638 -0.56675178 1.8683188 nan
5.5505395 -0.57696891 1.8683188 nan
5.5505152 -0.58718604 1.8683188 nan
5.5504909 -0.59740317 1.8683188 nan
5.4695106 -0.16676247 1.8486521 nan
5.4694867 -0.17682341 1.8486521 nan
5.4694629 -0.18688433 1.8486521 nan
5.469439 -0.19694525 1.8486521 -2.7944035e+38
5.4694152 -0.20700619 1.8486521 -2.7408642e+38
5.4693913 -0.21706709 1.8486521 -2.6883208e+38
5.4693675 -0.22712803 1.8486521 -2.6615831e+38
5.4693437 -0.23718897 1.8486521 -2.6481353e+38
5.4693198 -0.2472499 1.8486521 -2.621499e+38
5.4692965 -0.25731081 1.8486521 -2.5948106e+38
5.4692726 -0.26737174 1.8486521 -2.5815183e+38
5.4692488 -0.27743265 1.8486521 -2.5814664e+38
5.4692249 -0.28749359 1.8486521 -2.5549338e+38
5.4692011 -0.29755449 1.8486521 -2.5282971e+38
5.4691772 -0.30761543 1.8486521 -2.5150046e+38
5.4691534 -0.31767637 1.8486521 -2.4884196e+38
5.4691296 -0.3277373 1.8486521 -2.4884192e+38
5.4691057 -0.33779821 1.8486521 -2.4883677e+38
5.4690819 -0.34785911 1.8486521 -2.4883681e+38
5.469058 -0.35792005 1.8486521 -2.4883683e+38
5.4690342 -0.36798099 1.8486521 -2.4884204e+38
5.4690104 -0.37804189 1.8486521 -2.5017129e+38
5.4689865 -0.38810283 1.8486521 -2.5017648e+38
5.4689627 -0.39816374 1.8486521 -2.5017127e+38
5.4689388 -0.40822467 1.8486521 -2.5017644e+38
5.468915 -0.41828558 1.8486521 -2.5151088e+38
5.4688911 -0.42834651 1.8486521 -2.515109e+38
5.4688673 -0.43840745 1.8486521 -2.5284013e+38
5.4688435 -0.44846836 1.8486521 -2.515109e+38
5.4688196 -0.45852932 1.8486521 -2.5151088e+38
5.4687958 -0.46859023 1.8486521 -2.5152125e+38
5.4687719 -0.47865117 1.8486521 -2.5152642e+38
5.4687481 -0.48871207 1.8486521 -2.5019198e+38
5.5507088 -0.50544912 1.8581016 -2.5019206e+38
5.5506845 -0.51566619 1.8581016 -2.488577e+38
5.5506606 -0.52588332 1.8581016 -2.4884724e+38
5.5506363 -0.53610045 1.8581016 -2.4485945e+38
5.550612 -0.54631752 1.8581016 -2.3955848e+38
5.5505877 -0.55653465 1.8581016 -2.6219205e+38
5.5505638 -0.56675178 1.8581016 -2.8630619e+38
5.5505395 -0.57696891 1.8581016 nan
5.5505152 -0.58718604 1.8581016 nan
5.5504909 -0.59740317 1.8581016 nan
5.4695106 -0.16676247 1.8385912 nan
5.4694867 -0.17682341 1.8385912 nan
5.4694629 -0.18688433 1.8385912 nan
5.469439 -0.19694525 1.8385912 -2.4622525e+38
5.4694152 -0.20700619 1.8385912 -2.6478211e+38
5.4693913 -0.21706709 1.8385912 -2.8209335e+38
5.4693675 -0.22712803 1.8385912 -2.741233e+38
5.4693437 -0.23718897 1.8385912 -2.6614274e+38
5.4693198 -0.2472499 1.8385912 -2.6348428e+38
5.4692965 -0.25731081 1.8385912 -2.5949142e+38
5.4692726 -0.26737174 1.8385912 -2.6081029e+38
5.4692488 -0.27743265 1.8385912 -2.6081029e+38
5.4692249 -0.28749359 1.8385912 -2.5948625e+38
5.4692011 -0.29755449 1.8385912 -2.5681739e+38
5.4691772 -0.30761543 1.8385912 -2.5415372e+38
5.4691534 -0.31767637 1.8385912 -2.5016602e+38
5.4691296 -0.3277373 1.8385912 -2.50166e+38
5.4691057 -0.33779821 1.8385912 -2.5016602e+38
5.4690819 -0.34785911 1.8385912 -2.5016604e+38
5.469058 -0.35792005 1.8385912 -2.4884202e+38
5.4690342 -0.36798099 1.8385912 -2.501661e+38
5.4690104 -0.37804189 1.8385912 -2.5017129e+38
5.4689865 -0.38810283 1.8385912 -2.5150573e+38
5.4689627 -0.39816374 1.8385912 -2.5150569e+38
5.4689388 -0.40822467 1.8385912 -2.528349e+38
5.468915 -0.41828558 1.8385912 -2.5283492e+38
5.4688911 -0.42834651 1.8385912 -2.5416936e+38
5.4688673 -0.43840745 1.8385912 -2.5416936e+38
5.4688435 -0.44846836 1.8385912 -2.5284013e+38
5.4688196 -0.45852932 1.8385912 -2.5018168e+38
5.4687958 -0.46859023 1.8385912 -2.5018685e+38
5.4687719 -0.47865117 1.8385912 -2.5019202e+38
5.4687481 -0.48871207 1.8385912 -2.5151606e+38
5.4687243 -0.49877301 1.8385912 -2.5152129e+38
5.4687004 -0.50883389 1.8385912 -2.5285058e+38
5.5506606 -0.52588332 1.8478845 -2.5285056e+38
5.5506363 -0.53610045 1.8478845 -2.5682784e+38
5.550612 -0.54631752 1.8478845 -2.594708e+38
5.5505877 -0.55653465 1.8478845 -2.3818765e+38
5.5505638 -0.56675178 1.8478845 -2.1716532e+38
5.5505395 -0.57696891 1.8478845 nan
5.6344967 -0.59530497 1.8574045 nan
5.6344719 -0.60568208 1.8574045 nan
5.5515075 -0.1682843 1.8376675 nan
5.4694867 -0.17682341 1.8285303 nan
5.4694629 -0.18688433 1.8285303 nan
5.469439 -0.19694525 1.8285303 -2.5145391e+38
5.4694152 -0.20700619 1.8285303 -2.6344278e+38
5.4693913 -0.21706709 1.8285303 -2.7677139e+38
5.4693675 -0.22712803 1.8285303 -2.7013559e+38
5.4693437 -0.23718897 1.8285303 -2.6348424e+38
5.4693198 -0.2472499 1.8285303 -2.6082576e+38
5.4692965 -0.25731081 1.8285303 -2.5949658e+38
5.4692726 -0.26737174 1.8285303 -2.5948623e+38
5.4692488 -0.27743265 1.8285303 -2.6081029e+38
5.4692249 -0.28749359 1.8285303 -2.5814664e+38
5.4692011 -0.29755449 1.8285303 -2.5680701e+38
5.4691772 -0.30761543 1.8285303 -2.5415372e+38
5.4691534 -0.31767637 1.8285303 -2.5149527e+38
5.4691296 -0.3277373 1.8285303 -2.5149527e+38
5.4691057 -0.33779821 1.8285303 -2.5016604e+38
5.4690819 -0.34785911 1.8285303 -2.5017123e+38
5.469058 -0.35792005 1.8285303 -2.5017646e+38
5.4690342 -0.36798099 1.8285303 -2.5017129e+38
5.4690104 -0.37804189 1.8285303 -2.5150054e+38
5.4689865 -0.38810283 1.8285303 -2.5150573e+38
5.4689627 -0.39816374 1.8285303 -2.5150571e+38
5.4689388 -0.40822467 1.8285303 -2.528349e+38
5.468915 -0.41828558 1.8285303 -2.5282973e+38
5.4688911 -0.42834651 1.8285303 -2.5416415e+38
5.4688673 -0.43840745 1.8285303 -2.5681743e+38
5.4688435 -0.44846836 1.8285303 -2.5283494e+38
5.4688196 -0.45852932 1.8285303 -2.5018168e+38
5.4687958 -0.46859023 1.8285303 -2.515161e+38
5.4687719 -0.47865117 1.8285303 -2.5284533e+38
5.4687481 -0.48871207 1.8285303 -2.528505e+38
5.4687243 -0.49877301 1.8285303 -2.5285054e+38
5.4687004 -0.50883389 1.8285303 -2.54185e+38
5.4686766 -0.51889485 1.8285303 -2.5552465e+38
5.4686527 -0.52895576 1.8285303 -2.5949161e+38
5.4686289 -0.53901666 1.8285303 -2.6210315e+38
5.5505877 -0.55653465 1.8376675 -2.3016513e+38
5.5505638 -0.56675178 1.8376675 -1.9953206e+38
5.5505395 -0.57696891 1.8376675 -3.3581056e+38
5.5505152 -0.58718604 1.8376675 nan
5.5504909 -0.59740317 1.8376675 nan
5.4695106 -0.16676247 1.8184693 nan
5.4694867 -0.17682341 1.8184693 nan
5.4694629 -0.18688433 1.8184693 nan
5.469439 -0.19694525 1.8184693 -2.5551419e+38
5.4694152 -0.20700619 1.8184693 -2.6342179e+38
5.4693913 -0.21706709 1.8184693 -2.7144914e+38
5.4693675 -0.22712803 1.8184693 -2.6615827e+38
5.4693437 -0.23718897 1.8184693 -2.6083615e+38
5.4693198 -0.2472499 1.8184693 -2.5949654e+38
5.4692965 -0.25731081 1.8184693 -2.5816733e+38
5.4692726 -0.26737174 1.8184693 -2.5948621e+38
5.4692488 -0.27743265 1.8184693 -2.5948104e+38
5.4692249 -0.28749359 1.8184693 -2.5814145e+38
5.4692011 -0.29755449 1.8184693 -2.568122e+38
5.4691772 -0.30761543 1.8184693 -2.5548297e+38
5.4691534 -0.31767637 1.8184693 -2.528245e+38
5.4691296 -0.3277373 1.8184693 -2.5149527e+38
5.4691057 -0.33779821 1.8184693 -2.5017123e+38
5.4690819 -0.34785911 1.8184693 -2.5017644e+38
5.469058 -0.35792005 1.8184693 -2.5017644e+38
5.4690342 -0.36798099 1.8184693 -2.515005e+38
5.4690104 -0.37804189 1.8184693 -2.5150571e+38
5.4689865 -0.38810283 1.8184693 -2.5150573e+38
5.4689627 -0.39816374 1.8184693 -2.5150052e+38
5.4689388 -0.40822467 1.8184693 -2.5282973e+38
5.468915 -0.41828558 1.8184693 -2.5283492e+38
5.4688911 -0.42834651 1.8184693 -2.554882e+38
5.4688673 -0.43840745 1.8184693 -2.5814666e+38
5.4688435 -0.44846836 1.8184693 -2.5415898e+38
5.4688196 -0.45852932 1.8184693 -2.5018168e+38
5.4687958 -0.46859023 1.8184693 -2.5284533e+38
5.4687719 -0.47865117 1.8184693 -2.5417975e+38
5.4687481 -0.48871207 1.8184693 -2.5417975e+38
5.4687243 -0.49877301 1.8184693 -2.5285575e+38
5.4687004 -0.50883389 1.8184693 -2.5551944e+38
5.4686766 -0.51889485 1.8184693 -2.5818315e+38
5.4686527 -0.52895576 1.8184693 -2.6217089e+38
5.4686289 -0.53901666 1.8184693 -2.6478763e+38
5.468605 -0.54907763 1.8184693 -2.2349311e+38
5.5505638 -0.56675178 1.8274503 -1.8116171e+38
5.5505395 -0.57696891 1.8274503 -3.2265837e+38
5.4685335 -0.57926041 1.8184693 nan
5.4685097 -0.58932137 1.8184693 nan
5.550467 -0.60762024 1.8274503 nan
5.0935926 -0.13175017 1.7679436 nan
5.1645684 -0.14214209 1.7755845 nan
5.3895373 -0.15536922 1.7997987 nan
5.4695106 -0.16676247 1.8084083 nan
5.4694867 -0.17682341 1.8084083 nan
5.4694629 -0.18688433 1.8084083 nan
5.469439 -0.19694525 1.8084083 -2.3945433e+38
5.4694152 -0.20700619 1.8084083 -2.5546697e+38
5.4693913 -0.21706709 1.8084083 -2.7146979e+38
5.4693675 -0.22712803 1.8084083 -2.6616342e+38
5.4693437 -0.23718897 1.8084083 -2.6217057e+38
5.4693198 -0.2472499 1.8084083 -2.6083615e+38
5.4692965 -0.25731081 1.8084083 -2.5816733e+38
5.4692726 -0.26737174 1.8084083 -2.5815694e+38
5.4692488 -0.27743265 1.8084083 -2.5947583e+38
5.4692249 -0.28749359 1.8084083 -2.5681739e+38
5.4692011 -0.29755449 1.8084083 -2.5548297e+38
5.4691772 -0.30761543 1.8084083 -2.5415374e+38
5.4691534 -0.31767637 1.8084083 -2.5415372e+38
5.4691296 -0.3277373 1.8084083 -2.5150044e+38
5.4691057 -0.33779821 1.8084083 -2.5017123e+38
5.4690819 -0.34785911 1.8084083 -2.5017644e+38
5.469058 -0.35792005 1.8084083 -2.5017125e+38
5.4690342 -0.36798099 1.8084083 -2.5017644e+38
5.4690104 -0.37804189 1.8084083 -2.5150571e+38
5.4689865 -0.38810283 1.8084083 -2.5150573e+38
5.4689627 -0.39816374 1.8084083 -2.5282458e+38
5.4689388 -0.40822467 1.8084083 -2.5283494e+38
5.468915 -0.41828558 1.8084083 -2.5284013e+38
5.4688911 -0.42834651 1.8084083 -2.5416417e+38
5.4688673 -0.43840745 1.8084083 -2.5682262e+38
5.4688435 -0.44846836 1.8084083 -2.5416936e+38
5.4688196 -0.45852932 1.8084083 -2.5284013e+38
5.4687958 -0.46859023 1.8084083 -2.5417455e+38
5.4687719 -0.47865117 1.8084083 -2.5683822e+38
5.4687481 -0.48871207 1.8084083 -2.5683303e+38
5.4687243 -0.49877301 1.8084083 -2.5683826e+38
5.4687004 -0.50883389 1.8084083 -2.581779e+38
5.4686766 -0.51889485 1.8084083 -2.6084682e+38
5.4686527 -0.52895576 1.8084083 -2.6350535e+38
5.4686289 -0.53901666 1.8084083 -2.6751364e+38
5.468605 -0.54907763 1.8084083 -2.3685816e+38
5.4685812 -0.55913854 1.8084083 -2.0626645e+38
5.4685574 -0.5691995 1.8084083 -3.1978693e+38
5.4685335 -0.57926041 1.8084083 nan
5.4685097 -0.58932137 1.8084083 nan
5.5515313 -0.15806718 1.8070159 nan
5.5515075 -0.1682843 1.8070159 nan
5.5514832 -0.17850143 1.8070159 nan
5.5514588 -0.18871853 1.8070159 nan
5.5514345 -0.19893566 1.8070159 -2.222314e+38
5.5514107 -0.20915276 1.8070159 -2.4619377e+38
5.4693913 -0.21706709 1.7983474 -2.7015109e+38
5.4693675 -0.22712803 1.7983474 -2.6750308e+38
5.4693437 -0.23718897 1.7983474 -2.6350499e+38
5.4693198 -0.2472499 1.7983474 -2.6084134e+38
5.4692965 -0.25731081 1.7983474 -2.5816731e+38
5.4692726 -0.26737174 1.7983474 -2.5815173e+38
5.4692488 -0.27743265 1.7983474 -2.5815175e+38
5.4692249 -0.28749359 1.7983474 -2.5681737e+38
5.4692011 -0.29755449 1.7983474 -2.541589e+38
5.4691772 -0.30761543 1.7983474 -2.541589e+38
5.4691534 -0.31767637 1.7983474 -2.5415892e+38
5.4691296 -0.3277373 1.7983474 -2.5282969e+38
5.4691057 -0.33779821 1.7983474 -2.5017123e+38
5.4690819 -0.34785911 1.7983474 -2.5017644e+38
5.469058 -0.35792005 1.7983474 -2.4884722e+38
5.4690342 -0.36798099 1.7983474 -2.5018166e+38
5.4690104 -0.37804189 1.7983474 -2.515109e+38
5.4689865 -0.38810283 1.7983474 -2.5284015e+38
5.4689627 -0.39816374 1.7983474 -2.5284017e+38
5.5509267 -0.41349509 1.8070159 -2.5284019e+38
5.468915 -0.41828558 1.7983474 -2.5284019e+38
5.4688911 -0.42834651 1.7983474 -2.5416942e+38
5.4688673 -0.43840745 1.7983474 -2.5416938e+38
5.4688435 -0.44846836 1.7983474 -2.5417455e+38
5.4688196 -0.45852932 1.7983474 -2.5417455e+38
5.5507812 -0.47479776 1.8070159 -2.568382e+38
5.4687719 -0.47865117 1.7983474 -2.5816226e+38
5.4687481 -0.48871207 1.7983474 -2.594811e+38
5.4687243 -0.49877301 1.7983474 -2.6082593e+38
5.4687004 -0.50883389 1.7983474 -2.6216558e+38
5.4686766 -0.51889485 1.7983474 -2.62176e+38
5.4686527 -0.52895576 1.7983474 -2.6615336e+38
5.4686289 -0.53901666 1.7983474 -2.7014608e+38
5.468605 -0.54907763 1.7983474 -2.5148999e+38
5.4685812 -0.55913854 1.7983474 -2.3164595e+38
5.4685574 -0.5691995 1.7983474 -3.1705493e+38
5.4685335 -0.57926041 1.7983474 nan
5.5504909 -0.59740317 1.8070159 nan
5.6355286 -0.15946613 1.8055189 nan
5.5515075 -0.1682843 1.7967988 nan
5.5514832 -0.17850143 1.7967988 nan
5.5514588 -0.18871853 1.7967988 -3.3008551e+38
5.5514345 -0.19893566 1.7967988 -2.1947423e+38
5.4694152 -0.20700619 1.7882864 -2.4485957e+38
5.4693913 -0.21706709 1.7882864 -2.70172e+38
5.4693675 -0.22712803 1.7882864 -2.6617389e+38
5.4693437 -0.23718897 1.7882864 -2.6349982e+38
5.4693198 -0.2472499 1.7882864 -2.6084132e+38
5.4692965 -0.25731081 1.7882864 -2.5950171e+38
5.4692726 -0.26737174 1.7882864 -2.594965e+38
5.4692488 -0.27743265 1.7882864 -2.5948615e+38
5.4692249 -0.28749359 1.7882864 -2.5815694e+38
5.4692011 -0.29755449 1.7882864 -2.5814656e+38
5.4691772 -0.30761543 1.7882864 -2.5681731e+38
5.4691534 -0.31767637 1.7882864 -2.5681216e+38
5.4691296 -0.3277373 1.7882864 -2.5282971e+38
5.4691057 -0.33779821 1.7882864 -2.5016606e+38
5.4690819 -0.34785911 1.7882864 -2.488472e+38
5.469058 -0.35792005 1.7882864 -2.4885241e+38
5.4690342 -0.36798099 1.7882864 -2.5018166e+38
5.4690104 -0.37804189 1.7882864 -2.515109e+38
5.4689865 -0.38810283 1.7882864 -2.5284535e+38
5.4689627 -0.39816374 1.7882864 -2.5550386e+38
5.4689388 -0.40822467 1.7882864 -2.555039e+38
5.468915 -0.41828558 1.7882864 -2.5549352e+38
5.4688911 -0.42834651 1.7882864 -2.5550388e+38
5.4688673 -0.43840745 1.7882864 -2.5550384e+38
5.4688435 -0.44846836 1.7882864 -2.5550897e+38
5.4688196 -0.45852932 1.7882864 -2.568382e+38
5.4687958 -0.46859023 1.7882864 -2.5816743e+38
5.4687719 -0.47865117 1.7882864 -2.5949668e+38
5.4687481 -0.48871207 1.7882864 -2.6082591e+38
5.4687243 -0.49877301 1.7882864 -2.6083112e+38
5.4687004 -0.50883389 1.7882864 -2.6217594e+38
5.4686766 -0.51889485 1.7882864 -2.635156e+38
5.4686527 -0.52895576 1.7882864 -2.675033e+38
5.4686289 -0.53901666 1.7882864 -2.7283563e+38
5.468605 -0.54907763 1.7882864 -2.6215491e+38
5.4685812 -0.55913854 1.7882864 -2.5279371e+38
5.4685574 -0.5691995 1.7882864 -2.7561436e+38
5.4685335 -0.57926041 1.7882864 -2.9848766e+38
5.5504909 -0.59740317 1.7967988 nan
5.5515313 -0.15806718 1.7865816 nan
5.5515075 -0.1682843 1.7865816 nan
5.5514832 -0.17850143 1.7865816 nan
5.5514588 -0.18871853 1.7865816 -3.152719e+38
5.5514345 -0.19893566 1.7865816 -2.1691964e+38
5.5514107 -0.20915276 1.7865816 -2.4360308e+38
5.4693913 -0.21706709 1.7782254 -2.6884279e+38
5.4693675 -0.22712803 1.7782254 -2.6616872e+38
5.4693437 -0.23718897 1.7782254 -2.6218099e+38
5.4693198 -0.2472499 1.7782254 -2.6085175e+38
5.4692965 -0.25731081 1.7782254 -2.5951211e+38
5.4692726 -0.26737174 1.7782254 -2.5950692e+38
5.4692488 -0.27743265 1.7782254 -2.5950173e+38
5.4692249 -0.28749359 1.7782254 -2.6083098e+38
5.4692011 -0.29755449 1.7782254 -2.6082059e+38
5.4691772 -0.30761543 1.7782254 -2.5948098e+38
5.4691534 -0.31767637 1.7782254 -2.5815177e+38
5.4691296 -0.3277373 1.7782254 -2.5416932e+38
5.4691057 -0.33779821 1.7782254 -2.5017644e+38
5.4690819 -0.34785911 1.7782254 -2.4885241e+38
5.469058 -0.35792005 1.7782254 -2.4752316e+38
5.4690342 -0.36798099 1.7782254 -2.5018162e+38
5.4690104 -0.37804189 1.7782254 -2.5152125e+38
5.4689865 -0.38810283 1.7782254 -2.5418492e+38
5.4689627 -0.39816374 1.7782254 -2.5683824e+38
5.4689388 -0.40822467 1.7782254 -2.5816753e+38
5.468915 -0.41828558 1.7782254 -2.5816232e+38
5.4688911 -0.42834651 1.7782254 -2.5816751e+38
5.4688673 -0.43840745 1.7782254 -2.5683824e+38
5.4688435 -0.44846836 1.7782254 -2.5816745e+38
5.4688196 -0.45852932 1.7782254 -2.5816745e+38
5.4687958 -0.46859023 1.7782254 -2.5949151e+38
5.4687719 -0.47865117 1.7782254 -2.6083114e+38
5.4687481 -0.48871207 1.7782254 -2.6083633e+38
5.4687243 -0.49877301 1.7782254 -2.6084674e+38
5.4687004 -0.50883389 1.7782254 -2.6218635e+38
5.4686766 -0.51889485 1.7782254 -2.6351562e+38
5.4686527 -0.52895576 1.7782254 -2.6883257e+38
5.4686289 -0.53901666 1.7782254 -2.7415981e+38
5.468605 -0.54907763 1.7782254 -2.7415974e+38
5.4685812 -0.55913854 1.7782254 -2.7277346e+38
5.4685574 -0.5691995 1.7782254 -2.3412728e+38
5.4685335 -0.57926041 1.7782254 -1.9454768e+38
5.4685097 -0.58932137 1.7782254 -3.2263251e+38
5.5515313 -0.15806718 1.7763646 nan
5.5515075 -0.1682843 1.7763646 nan
5.5514832 -0.17850143 1.7763646 nan
5.5514588 -0.18871853 1.7763646 -3.0339193e+38
5.5514345 -0.19893566 1.7763646 -2.3155155e+38
5.4694152 -0.20700619 1.7681645 -2.4888886e+38
5.4693913 -0.21706709 1.7681645 -2.6617916e+38
5.4693675 -0.22712803 1.7681645 -2.6351545e+38
5.4693437 -0.23718897 1.7681645 -2.6085179e+38
5.4693198 -0.2472499 1.7681645 -2.5951735e+38
5.3893027 -0.25445467 1.7601645 -2.5951215e+38
5.4692726 -0.26737174 1.7681645 -2.5951733e+38
5.4692488 -0.27743265 1.7681645 -2.5951733e+38
5.4692249 -0.28749359 1.7681645 -2.5950694e+38
5.4692011 -0.29755449 1.7681645 -2.60831e+38
5.4691772 -0.30761543 1.7681645 -2.5949138e+38
5.4691534 -0.31767637 1.7681645 -2.5948102e+38
5.4691296 -0.3277373 1.7681645 -2.5549853e+38
5.4691057 -0.33779821 1.7681645 -2.5282971e+38
5.4690819 -0.34785911 1.7681645 -2.5284009e+38
5.469058 -0.35792005 1.7681645 -2.5151084e+38
5.4690342 -0.36798099 1.7681645 -2.5152119e+38
5.4690104 -0.37804189 1.7681645 -2.5153159e+38
5.4689865 -0.38810283 1.7681645 -2.5418486e+38
5.4689627 -0.39816374 1.7681645 -2.5550897e+38
5.4689388 -0.40822467 1.7681645 -2.5551423e+38
5.468915 -0.41828558 1.7681645 -2.5683826e+38
5.4688911 -0.42834651 1.7681645 -2.5684345e+38
5.4688673 -0.43840745 1.7681645 -2.5817785e+38
5.4688435 -0.44846836 1.7681645 -2.5817783e+38
5.4688196 -0.45852932 1.7681645 -2.5950191e+38
5.4687958 -0.46859023 1.7681645 -2.6083116e+38
5.4687719 -0.47865117 1.7681645 -2.621656e+38
5.4687481 -0.48871207 1.7681645 -2.6084156e+38
5.4687243 -0.49877301 1.7681645 -2.6085195e+38
5.4687004 -0.50883389 1.7681645 -2.6218637e+38
5.4686766 -0.51889485 1.7681645 -2.6484487e+38
5.4686527 -0.52895576 1.7681645 -2.6750336e+38
5.4686289 -0.53901666 1.7681645 -2.7150666e+38
5.468605 -0.54907763 1.7681645 -2.7283593e+38
5.4685812 -0.55913854 1.7681645 -2.7418558e+38
5.4685574 -0.5691995 1.7681645 -2.3282338e+38
5.4685335 -0.57926041 1.7681645 -1.927713e+38
5.4685097 -0.58932137 1.7681645 -3.0771448e+38
5.4684858 -0.59938228 1.7681645 nan
5.5515313 -0.15806718 1.7661474 nan
5.5515075 -0.1682843 1.7661474 nan
5.5514832 -0.17850143 1.7661474 -3.367583e+38
5.5514588 -0.18871853 1.7661474 -2.9130428e+38
5.5514345 -0.19893566 1.7661474 -2.4618343e+38
5.4694152 -0.20700619 1.7581036 -2.5554017e+38
5.4693913 -0.21706709 1.7581036 -2.6352069e+38
5.4693675 -0.22712803 1.7581036 -2.6085181e+38
5.4693437 -0.23718897 1.7581036 -2.5819333e+38
5.4693198 -0.2472499 1.7581036 -2.5818814e+38
5.3893027 -0.25445467 1.7502559 -2.5818812e+38
5.3892794 -0.26436323 1.7502559 -2.5819331e+38
5.4692488 -0.27743265 1.7581036 -2.5818812e+38
5.4692249 -0.28749359 1.7581036 -2.5950179e+38
5.4692011 -0.29755449 1.7581036 -2.6083102e+38
5.4691772 -0.30761543 1.7581036 -2.6082582e+38
5.4691534 -0.31767637 1.7581036 -2.5949142e+38
5.4691296 -0.3277373 1.7581036 -2.5816739e+38
5.4691057 -0.33779821 1.7581036 -2.5550374e+38
5.4690819 -0.34785911 1.7581036 -2.5550893e+38
5.469058 -0.35792005 1.7581036 -2.5550893e+38
5.4690342 -0.36798099 1.7581036 -2.5419007e+38
5.4690104 -0.37804189 1.7581036 -2.5153159e+38
5.4689865 -0.38810283 1.7581036 -2.5285563e+38
5.4689627 -0.39816374 1.7581036 -2.541849e+38
5.4689388 -0.40822467 1.7581036 -2.5419015e+38
5.468915 -0.41828558 1.7581036 -2.5419015e+38
5.4688911 -0.42834651 1.7581036 -2.5684863e+38
5.4688673 -0.43840745 1.7581036 -2.5818303e+38
5.4688435 -0.44846836 1.7581036 -2.5951223e+38
5.4688196 -0.45852932 1.7581036 -2.6084148e+38
5.3888097 -0.46253413 1.7502559 -2.6216035e+38
5.3887863 -0.47244266 1.7502559 -2.6216556e+38
5.4687481 -0.48871207 1.7581036 -2.6217075e+38
5.4687243 -0.49877301 1.7581036 -2.6085189e+38
5.4687004 -0.50883389 1.7581036 -2.6351552e+38
5.4686766 -0.51889485 1.7581036 -2.6483961e+38
5.4686527 -0.52895576 1.7581036 -2.6616369e+38
5.4686289 -0.53901666 1.7581036 -2.6750336e+38
5.468605 -0.54907763 1.7581036 -2.7149109e+38
5.4685812 -0.55913854 1.7581036 -2.7413895e+38
5.4685574 -0.5691995 1.7581036 -2.3285999e+38
5.4685335 -0.57926041 1.7581036 -1.9164966e+38
5.4685097 -0.58932137 1.7581036 -2.9306137e+38
5.4684858 -0.59938228 1.7581036 nan
5.5515556 -0.14785007 1.7559302 nan
5.5515313 -0.15806718 1.7559302 nan
5.5515075 -0.1682843 1.7559302 nan
5.4694867 -0.17682341 1.7480426 -3.1276455e+38
5.4694629 -0.18688433 1.7480426 -2.7942433e+38
5.469439 -0.19694525 1.7480426 -2.4621458e+38
5.4694152 -0.20700619 1.7480426 -2.542109e+38
5.4693913 -0.21706709 1.7480426 -2.6219663e+38
5.4693675 -0.22712803 1.7480426 -2.6085181e+38
5.4693437 -0.23718897 1.7480426 -2.5952258e+38
5.4693198 -0.2472499 1.7480426 -2.5951737e+38
5.3893027 -0.25445467 1.7403474 -2.5951217e+38
5.3892794 -0.26436323 1.7403474 -2.5818812e+38
5.3892555 -0.27427176 1.7403474 -2.5818816e+38
5.4692249 -0.28749359 1.7480426 -2.5950702e+38
5.4692011 -0.29755449 1.7480426 -2.6082587e+38
5.4691772 -0.30761543 1.7480426 -2.5949662e+38
5.4691534 -0.31767637 1.7480426 -2.5949664e+38
5.4691296 -0.3277373 1.7480426 -2.5949664e+38
5.4691057 -0.33779821 1.7480426 -2.581726e+38
5.4690819 -0.34785911 1.7480426 -2.5684335e+38
5.469058 -0.35792005 1.7480426 -2.5683818e+38
5.4690342 -0.36798099 1.7480426 -2.5419011e+38
5.4690104 -0.37804189 1.7480426 -2.5286084e+38
5.4689865 -0.38810283 1.7480426 -2.5419003e+38
5.4689627 -0.39816374 1.7480426 -2.555193e+38
5.4689388 -0.40822467 1.7480426 -2.5420047e+38
5.468915 -0.41828558 1.7480426 -2.5420571e+38
5.4688911 -0.42834651 1.7480426 -2.5552976e+38
5.4688673 -0.43840745 1.7480426 -2.5553493e+38
5.4688435 -0.44846836 1.7480426 -2.5818818e+38
5.4688196 -0.45852932 1.7480426 -2.5952262e+38
5.4687958 -0.46859023 1.7480426 -2.5951223e+38
5.4687719 -0.47865117 1.7480426 -2.5950706e+38
5.4687481 -0.48871207 1.7480426 -2.5818822e+38
5.4687243 -0.49877301 1.7480426 -2.5819856e+38
5.4687004 -0.50883389 1.7480426 -2.6085179e+38
5.4686766 -0.51889485 1.7480426 -2.6218107e+38
5.4686527 -0.52895576 1.7480426 -2.6350517e+38
5.4686289 -0.53901666 1.7480426 -2.6483446e+38
5.468605 -0.54907763 1.7480426 -2.6749817e+38
5.4685812 -0.55913854 1.7480426 -2.7017214e+38
5.4685574 -0.5691995 1.7480426 -2.3017582e+38
5.4685335 -0.57926041 1.7480426 -1.888042e+38
5.4685097 -0.58932137 1.7480426 -2.9566226e+38
5.3885045 -0.59134519 1.7403474 nan
5.5515556 -0.14785007 1.7457131 nan
5.5515313 -0.15806718 1.7457131 nan
5.5515075 -0.1682843 1.7457131 nan
5.5514832 -0.17850143 1.7457131 -2.8745712e+38
5.5514588 -0.18871853 1.7457131 -2.674145e+38
5.5514345 -0.19893566 1.7457131 -2.4619896e+38
5.4694152 -0.20700619 1.7379817 -2.5421088e+38
5.4693913 -0.21706709 1.7379817 -2.6085183e+38
5.4693675 -0.22712803 1.7379817 -2.6084144e+38
5.4693437 -0.23718897 1.7379817 -2.5951219e+38
5.4693198 -0.2472499 1.7379817 -2.59507e+38
5.3893027 -0.25445467 1.7304388 -2.5951219e+38
5.3892794 -0.26436323 1.7304388 -2.5818818e+38
5.3892555 -0.27427176 1.7304388 -2.5685378e+38
5.4692249 -0.28749359 1.7379817 -2.5818305e+38
5.3892088 -0.29408884 1.7304388 -2.5950187e+38
5.4691772 -0.30761543 1.7379817 -2.5949666e+38
5.4691534 -0.31767637 1.7379817 -2.5949664e+38
5.4691296 -0.3277373 1.7379817 -2.6082584e+38
5.4691057 -0.33779821 1.7379817 -2.6083104e+38
5.4690819 -0.34785911 1.7379817 -2.5951219e+38
5.469058 -0.35792005 1.7379817 -2.5684855e+38
5.4690342 -0.36798099 1.7379817 -2.555193e+38
5.4690104 -0.37804189 1.7379817 -2.5419526e+38
5.4689865 -0.38810283 1.7379817 -2.555297e+38
5.4689627 -0.39816374 1.7379817 -2.555297e+38
5.4689388 -0.40822467 1.7379817 -2.5554011e+38
5.468915 -0.41828558 1.7379817 -2.5420569e+38
5.4688911 -0.42834651 1.7379817 -2.5420571e+38
5.4688673 -0.43840745 1.7379817 -2.5287127e+38
5.4688435 -0.44846836 1.7379817 -2.555297e+38
5.4688196 -0.45852932 1.7379817 -2.5818299e+38
5.4687958 -0.46859023 1.7379817 -2.5685376e+38
5.4687719 -0.47865117 1.7379817 -2.5552453e+38
5.4687481 -0.48871207 1.7379817 -2.5552455e+38
5.4687243 -0.49877301 1.7379817 -2.5551936e+38
5.4687004 -0.50883389 1.7379817 -2.5817262e+38
5.4686766 -0.51889485 1.7379817 -2.5950706e+38
5.4686527 -0.52895576 1.7379817 -2.6083633e+38
5.4686289 -0.53901666 1.7379817 -2.6217079e+38
5.468605 -0.54907763 1.7379817 -2.6482929e+38
5.4685812 -0.55913854 1.7379817 -2.6614801e+38
5.4685574 -0.5691995 1.7379817 -2.2619838e+38
5.4685335 -0.57926041 1.7379817 -1.8633754e+38
5.4685097 -0.58932137 1.7379817 -2.9974294e+38
5.4684858 -0.59938228 1.7379817 nan
5.5515313 -0.15806718 1.7354959 nan
5.5515075 -0.1682843 1.7354959 nan
5.4694867 -0.17682341 1.7279208 -2.7400888e+38
5.5514588 -0.18871853 1.7354959 -2.6874367e+38
5.5514345 -0.19893566 1.7354959 -2.6346852e+38
5.4694152 -0.20700619 1.7279208 -2.6349469e+38
5.4693913 -0.21706709 1.7279208 -2.634999e+38
5.4693675 -0.22712803 1.7279208 -2.6217067e+38
5.4693437 -0.23718897 1.7279208 -2.6084144e+38
5.4693198 -0.2472499 1.7279208 -2.5951219e+38
5.3893027 -0.25445467 1.7205303 -2.5951743e+38
5.3892794 -0.26436323 1.7205303 -2.5951227e+38
5.3892555 -0.27427176 1.7205303 -2.5949672e+38
5.4692249 -0.28749359 1.7279208 -2.5950193e+38
5.4692011 -0.29755449 1.7279208 -2.5949153e+38
5.4691772 -0.30761543 1.7279208 -2.594967e+38
5.4691534 -0.31767637 1.7279208 -2.5950185e+38
5.4691296 -0.3277373 1.7279208 -2.5816737e+38
5.4691057 -0.33779821 1.7279208 -2.5816739e+38
5.4690819 -0.34785911 1.7279208 -2.5684335e+38
5.469058 -0.35792005 1.7279208 -2.555141e+38
5.4690342 -0.36798099 1.7279208 -2.5419003e+38
5.4690104 -0.37804189 1.7279208 -2.5419009e+38
5.4689865 -0.38810283 1.7279208 -2.5419532e+38
5.4689627 -0.39816374 1.7279208 -2.5420051e+38
5.4689388 -0.40822467 1.7279208 -2.5420049e+38
5.468915 -0.41828558 1.7279208 -2.5286088e+38
5.4688911 -0.42834651 1.7279208 -2.5286607e+38
5.4688673 -0.43840745 1.7279208 -2.5286605e+38
5.4688435 -0.44846836 1.7279208 -2.5419007e+38
5.4688196 -0.45852932 1.7279208 -2.5551413e+38
5.4687958 -0.46859023 1.7279208 -2.5551932e+38
5.4687719 -0.47865117 1.7279208 -2.5552451e+38
5.4687481 -0.48871207 1.7279208 -2.5551413e+38
5.4687243 -0.49877301 1.7279208 -2.5549859e+38
5.4687004 -0.50883389 1.7279208 -2.5684343e+38
5.4686766 -0.51889485 1.7279208 -2.5817266e+38
5.4686527 -0.52895576 1.7279208 -2.6083631e+38
5.4686289 -0.53901666 1.7279208 -2.6217596e+38
5.468605 -0.54907763 1.7279208 -2.6483444e+38
5.4685812 -0.55913854 1.7279208 -2.6883235e+38
5.4685574 -0.5691995 1.7279208 -2.434626e+38
5.4685335 -0.57926041 1.7279208 -2.1934467e+38
5.4685097 -0.58932137 1.7279208 -3.2352839e+38
5.4684858 -0.59938228 1.7279208 nan
5.5515313 -0.15806718 1.7252789 nan
5.4695106 -0.16676247 1.7178597 nan
5.4694867 -0.17682341 1.7178597 -2.5949641e+38
5.4694629 -0.18688433 1.7178597 -2.7007292e+38
5.469439 -0.19694525 1.7178597 -2.8074846e+38
5.4694152 -0.20700619 1.7178597 -2.7413368e+38
5.4693913 -0.21706709 1.7178597 -2.6615831e+38
5.4693675 -0.22712803 1.7178597 -2.6350507e+38
5.4693437 -0.23718897 1.7178597 -2.6084142e+38
5.4693198 -0.2472499 1.7178597 -2.6083625e+38
5.4692965 -0.25731081 1.7178597 -2.5951221e+38
5.4692726 -0.26737174 1.7178597 -2.6084144e+38
5.4692488 -0.27743265 1.7178597 -2.608311e+38
5.4692249 -0.28749359 1.7178597 -2.6083112e+38
5.4692011 -0.29755449 1.7178597 -2.5949666e+38
5.4691772 -0.30761543 1.7178597 -2.5948623e+38
5.4691534 -0.31767637 1.7178597 -2.5816218e+38
5.4691296 -0.3277373 1.7178597 -2.5683295e+38
5.4691057 -0.33779821 1.7178597 -2.5417449e+38
5.4690819 -0.34785911 1.7178597 -2.5417449e+38
5.469058 -0.35792005 1.7178597 -2.5285565e+38
5.4690342 -0.36798099 1.7178597 -2.5286603e+38
5.4690104 -0.37804189 1.7178597 -2.5286086e+38
5.4689865 -0.38810283 1.7178597 -2.5285571e+38
5.4689627 -0.39816374 1.7178597 -2.528609e+38
5.4689388 -0.40822467 1.7178597 -2.5286609e+38
5.468915 -0.41828558 1.7178597 -2.5153165e+38
5.4688911 -0.42834651 1.7178597 -2.5285565e+38
5.4688673 -0.43840745 1.7178597 -2.5285046e+38
5.4688435 -0.44846836 1.7178597 -2.5284007e+38
5.4688196 -0.45852932 1.7178597 -2.5151604e+38
5.4687958 -0.46859023 1.7178597 -2.541849e+38
5.4687719 -0.47865117 1.7178597 -2.5551413e+38
5.4687481 -0.48871207 1.7178597 -2.5550374e+38
5.4687243 -0.49877301 1.7178597 -2.5417973e+38
5.4687004 -0.50883389 1.7178597 -2.5551938e+38
5.4686766 -0.51889485 1.7178597 -2.5684863e+38
5.4686527 -0.52895576 1.7178597 -2.595071e+38
5.4686289 -0.53901666 1.7178597 -2.6217077e+38
5.468605 -0.54907763 1.7178597 -2.661533e+38
5.4685812 -0.55913854 1.7178597 -2.7014602e+38
5.4685574 -0.5691995 1.7178597 -2.6080493e+38
5.4685335 -0.57926041 1.7178597 -2.5153705e+38
5.4685097 -0.58932137 1.7178597 nan
5.5515313 -0.15806718 1.7150617 nan
5.5515075 -0.1682843 1.7150617 nan
5.5514832 -0.17850143 1.7150617 -2.5943932e+38
5.5514588 -0.18871853 1.7150617 -2.7142292e+38
5.469439 -0.19694525 1.7077988 -2.8475173e+38
5.4694152 -0.20700619 1.7077988 -2.767869e+38
5.4693913 -0.21706709 1.7077988 -2.6881156e+38
5.4693675 -0.22712803 1.7077988 -2.6482909e+38
5.4693437 -0.23718897 1.7077988 -2.6083623e+38
5.4693198 -0.2472499 1.7077988 -2.6084663e+38
5.4692965 -0.25731081 1.7077988 -2.5951219e+38
5.4692726 -0.26737174 1.7077988 -2.5951215e+38
5.4692488 -0.27743265 1.7077988 -2.6083104e+38
5.4692249 -0.28749359 1.7077988 -2.5949666e+38
5.4692011 -0.29755449 1.7077988 -2.5816737e+38
5.4691772 -0.30761543 1.7077988 -2.5683287e+38
5.4691534 -0.31767637 1.7077988 -2.5683291e+38
5.4691296 -0.3277373 1.7077988 -2.5417447e+38
5.4691057 -0.33779821 1.7077988 -2.5151602e+38
5.4690819 -0.34785911 1.7077988 -2.5152119e+38
5.469058 -0.35792005 1.7077988 -2.5153161e+38
5.4690342 -0.36798099 1.7077988 -2.5285567e+38
5.4690104 -0.37804189 1.7077988 -2.5417973e+38
5.4689865 -0.38810283 1.7077988 -2.528505e+38
5.4689627 -0.39816374 1.7077988 -2.5285052e+38
5.4689388 -0.40822467 1.7077988 -2.5152131e+38
5.468915 -0.41828558 1.7077988 -2.5152125e+38
5.4688911 -0.42834651 1.7077988 -2.515108e+38
5.4688673 -0.43840745 1.7077988 -2.5282967e+38
5.4688435 -0.44846836 1.7077988 -2.5150565e+38
5.4688196 -0.45852932 1.7077988 -2.5017642e+38
5.4687958 -0.46859023 1.7077988 -2.50192e+38
5.4687719 -0.47865117 1.7077988 -2.5152644e+38
5.4687481 -0.48871207 1.7077988 -2.5285567e+38
5.4687243 -0.49877301 1.7077988 -2.5418492e+38
5.4687004 -0.50883389 1.7077988 -2.5419011e+38
5.4686766 -0.51889485 1.7077988 -2.555194e+38
5.4686527 -0.52895576 1.7077988 -2.5951232e+38
5.4686289 -0.53901666 1.7077988 -2.6350521e+38
5.468605 -0.54907763 1.7077988 -2.6749811e+38
5.4685812 -0.55913854 1.7077988 -2.7149606e+38
5.3885751 -0.56161958 1.7007132 -2.5948096e+38
5.3885517 -0.57152808 1.7007132 -2.4747164e+38
5.3885283 -0.58143663 1.7007132 nan
5.4695106 -0.16676247 1.6977378 nan
5.5514832 -0.17850143 1.7048445 -2.581724e+38
5.5514588 -0.18871853 1.7048445 -2.7274707e+38
5.469439 -0.19694525 1.6977378 -2.8741543e+38
5.4694152 -0.20700619 1.6977378 -2.7945577e+38
5.4693913 -0.21706709 1.6977378 -2.7014598e+38
5.4693675 -0.22712803 1.6977378 -2.6615829e+38
5.4693437 -0.23718897 1.6977378 -2.6085179e+38
5.4693198 -0.2472499 1.6977378 -2.6086219e+38
5.4692965 -0.25731081 1.6977378 -2.5951737e+38
5.4692726 -0.26737174 1.6977378 -2.5951735e+38
5.4692488 -0.27743265 1.6977378 -2.5950179e+38
5.4692249 -0.28749359 1.6977378 -2.5815181e+38
5.4692011 -0.29755449 1.6977378 -2.5683293e+38
5.4691772 -0.30761543 1.6977378 -2.5549849e+38
5.4691534 -0.31767637 1.6977378 -2.5417447e+38
5.4691296 -0.3277373 1.6977378 -2.5151604e+38
5.4691057 -0.33779821 1.6977378 -2.4885758e+38
5.4690819 -0.34785911 1.6977378 -2.5019202e+38
5.469058 -0.35792005 1.6977378 -2.5019202e+38
5.4690342 -0.36798099 1.6977378 -2.5284011e+38
5.4690104 -0.37804189 1.6977378 -2.5416415e+38
5.4689865 -0.38810283 1.6977378 -2.5283494e+38
5.4689627 -0.39816374 1.6977378 -2.5150571e+38
5.4689388 -0.40822467 1.6977378 -2.5150052e+38
5.468915 -0.41828558 1.6977378 -2.5017644e+38
5.4688911 -0.42834651 1.6977378 -2.5149525e+38
5.4688673 -0.43840745 1.6977378 -2.5282965e+38
5.4688435 -0.44846836 1.6977378 -2.5150561e+38
5.4688196 -0.45852932 1.6977378 -2.4885235e+38
5.4687958 -0.46859023 1.6977378 -2.4752833e+38
5.4687719 -0.47865117 1.6977378 -2.462043e+38
5.4687481 -0.48871207 1.6977378 -2.5019719e+38
5.4687243 -0.49877301 1.6977378 -2.5286086e+38
5.4687004 -0.50883389 1.6977378 -2.5418492e+38
5.4686766 -0.51889485 1.6977378 -2.5419017e+38
5.4686527 -0.52895576 1.6977378 -2.5951232e+38
5.4686289 -0.53901666 1.6977378 -2.635104e+38
5.468605 -0.54907763 1.6977378 -2.688377e+38
5.4685812 -0.55913854 1.6977378 -2.7282005e+38
5.3885751 -0.56161958 1.6908045 -2.5815686e+38
5.3885517 -0.57152808 1.6908045 -2.4228446e+38
5.4695106 -0.16676247 1.6876769 nan
5.5514832 -0.17850143 1.6946274 -2.5539973e+38
5.5514588 -0.18871853 1.6946274 -2.6878028e+38
5.469439 -0.19694525 1.6876769 -2.8212974e+38
5.4694152 -0.20700619 1.6876769 -2.7547327e+38
5.4693913 -0.21706709 1.6876769 -2.6881675e+38
5.4693675 -0.22712803 1.6876769 -2.6483424e+38
5.4693437 -0.23718897 1.6876769 -2.6085696e+38
5.4693198 -0.2472499 1.6876769 -2.6085179e+38
5.4692965 -0.25731081 1.6876769 -2.6217063e+38
5.4692726 -0.26737174 1.6876769 -2.6083619e+38
5.4692488 -0.27743265 1.6876769 -2.5949658e+38
5.4692249 -0.28749359 1.6876769 -2.5816214e+38
5.4692011 -0.29755449 1.6876769 -2.5683812e+38
5.4691772 -0.30761543 1.6876769 -2.5682776e+38
5.4691534 -0.31767637 1.6876769 -2.5549855e+38
5.4691296 -0.3277373 1.6876769 -2.5284528e+38
5.4691057 -0.33779821 1.6876769 -2.5151608e+38
5.4690819 -0.34785911 1.6876769 -2.515161e+38
5.469058 -0.35792005 1.6876769 -2.515161e+38
5.4690342 -0.36798099 1.6876769 -2.515005e+38
5.4690104 -0.37804189 1.6876769 -2.5281936e+38
5.4689865 -0.38810283 1.6876769 -2.5149014e+38
5.4689627 -0.39816374 1.6876769 -2.5016089e+38
5.4689388 -0.40822467 1.6876769 -2.5016606e+38
5.468915 -0.41828558 1.6876769 -2.5017644e+38
5.4688911 -0.42834651 1.6876769 -2.5016604e+38
5.4688673 -0.43840745 1.6876769 -2.5150042e+38
5.4688435 -0.44846836 1.6876769 -2.4884709e+38
5.4688196 -0.45852932 1.6876769 -2.475231e+38
5.4687958 -0.46859023 1.6876769 -2.4752831e+38
5.4687719 -0.47865117 1.6876769 -2.4752831e+38
5.4687481 -0.48871207 1.6876769 -2.5019715e+38
5.4687243 -0.49877301 1.6876769 -2.5286603e+38
5.4687004 -0.50883389 1.6876769 -2.5419011e+38
5.4686766 -0.51889485 1.6876769 -2.5685382e+38
5.4686527 -0.52895576 1.6876769 -2.6084674e+38
5.3886456 -0.53189391 1.6808959 -2.648448e+38
5.468605 -0.54907763 1.6876769 -2.7016691e+38
5.3885984 -0.55171102 1.6808959 -2.7549924e+38
5.3885751 -0.56161958 1.6808959 -2.6214968e+38
5.4685335 -0.57926041 1.6876769 -2.4881109e+38
5.3115463 -0.57384765 1.6743693 nan
5.4695106 -0.16676247 1.6776159 nan
5.5514832 -0.17850143 1.6844102 -2.5155232e+38
5.5514588 -0.18871853 1.6844102 -2.648341e+38
5.5514345 -0.19893566 1.6844102 -2.7680244e+38
5.4694152 -0.20700619 1.6776159 -2.7282003e+38
5.4693913 -0.21706709 1.6776159 -2.6749791e+38
5.4693675 -0.22712803 1.6776159 -2.6483943e+38
5.4693437 -0.23718897 1.6776159 -2.6084657e+38
5.4693198 -0.2472499 1.6776159 -2.6216542e+38
5.4692965 -0.25731081 1.6776159 -2.6349467e+38
5.4692726 -0.26737174 1.6776159 -2.6082582e+38
5.4692488 -0.27743265 1.6776159 -2.5816735e+38
5.4692249 -0.28749359 1.6776159 -2.5816216e+38
5.4692011 -0.29755449 1.6776159 -2.5682774e+38
5.4691772 -0.30761543 1.6776159 -2.5682256e+38
5.4691534 -0.31767637 1.6776159 -2.5682776e+38
5.4691296 -0.3277373 1.6776159 -2.5550893e+38
5.4691057 -0.33779821 1.6776159 -2.5284526e+38
5.4690819 -0.34785911 1.6776159 -2.5284007e+38
5.469058 -0.35792005 1.6776159 -2.5282969e+38
5.4690342 -0.36798099 1.6776159 -2.5149007e+38
5.4690104 -0.37804189 1.6776159 -2.5015565e+38
5.4689865 -0.38810283 1.6776159 -2.5015046e+38
5.4689627 -0.39816374 1.6776159 -2.4882643e+38
5.4689388 -0.40822467 1.6776159 -2.4883162e+38
5.468915 -0.41828558 1.6776159 -2.488316e+38
5.4688911 -0.42834651 1.6776159 -2.48816e+38
5.4688673 -0.43840745 1.6776159 -2.4883673e+38
5.4688435 -0.44846836 1.6776159 -2.4751267e+38
5.388833 -0.45262557 1.6709874 -2.4618866e+38
5.4687958 -0.46859023 1.6776159 -2.4752831e+38
5.4687719 -0.47865117 1.6776159 -2.4885754e+38
5.4687481 -0.48871207 1.6776159 -2.5151602e+38
5.4687243 -0.49877301 1.6776159 -2.5286088e+38
5.4687004 -0.50883389 1.6776159 -2.555194e+38
5.4686766 -0.51889485 1.6776159 -2.5818309e+38
5.388669 -0.52198541 1.6709874 -2.62176e+38
5.3886456 -0.53189391 1.6709874 -2.6483446e+38
5.468605 -0.54907763 1.6776159 -2.7148062e+38
5.3885984 -0.55171102 1.6709874 -2.7680784e+38
5.3885751 -0.56161958 1.6709874 -2.6613756e+38
5.4685335 -0.57926041 1.6776159 -2.5427359e+38
5.3885283 -0.58143663 1.6709874 nan
5.4695106 -0.16676247 1.667555 nan
5.4694867 -0.17682341 1.667555 -2.7543697e+38
5.4694629 -0.18688433 1.667555 -2.7012501e+38
5.469439 -0.19694525 1.667555 -2.648186e+38
5.4694152 -0.20700619 1.667555 -2.6483949e+38
5.4693913 -0.21706709 1.667555 -2.6616351e+38
5.4693675 -0.22712803 1.667555 -2.6483424e+38
5.4693437 -0.23718897 1.667555 -2.621602e+38
5.4693198 -0.2472499 1.667555 -2.621654e+38
5.4692965 -0.25731081 1.667555 -2.6216024e+38
5.4692726 -0.26737174 1.667555 -2.6082584e+38
5.4692488 -0.27743265 1.667555 -2.594914e+38
5.4692249 -0.28749359 1.667555 -2.5815696e+38
5.4692011 -0.29755449 1.667555 -2.5682254e+38
5.4691772 -0.30761543 1.667555 -2.5549332e+38
5.4691534 -0.31767637 1.667555 -2.541693e+38
5.4691296 -0.3277373 1.667555 -2.5284007e+38
5.4691057 -0.33779821 1.667555 -2.5284524e+38
5.4690819 -0.34785911 1.667555 -2.5150559e+38
5.469058 -0.35792005 1.667555 -2.5016081e+38
5.5510235 -0.37262663 1.6741931 -2.5016081e+38
5.4690104 -0.37804189 1.667555 -2.4882639e+38
5.4689865 -0.38810283 1.667555 -2.4749195e+38
5.4689627 -0.39816374 1.667555 -2.4483351e+38
5.4689388 -0.40822467 1.667555 -2.4616793e+38
5.468915 -0.41828558 1.667555 -2.461731e+38
5.4688911 -0.42834651 1.667555 -2.4750231e+38
5.4688673 -0.43840745 1.667555 -2.4751267e+38
5.4688435 -0.44846836 1.667555 -2.4884188e+38
5.4688196 -0.45852932 1.667555 -2.4884192e+38
5.4687958 -0.46859023 1.667555 -2.5017636e+38
5.4687719 -0.47865117 1.667555 -2.501764e+38
5.4687481 -0.48871207 1.667555 -2.5152123e+38
5.4687243 -0.49877301 1.667555 -2.5286092e+38
5.4687004 -0.50883389 1.667555 -2.5551944e+38
5.4686766 -0.51889485 1.667555 -2.5951236e+38
5.388669 -0.52198541 1.6610788 -2.6216564e+38
5.3886456 -0.53189391 1.6610788 -2.6614817e+38
5.468605 -0.54907763 1.667555 -2.7148068e+38
5.3885984 -0.55171102 1.6610788 -2.7549431e+38
5.4685574 -0.5691995 1.667555 -2.634897e+38
5.4685335 -0.57926041 1.667555 -2.5148553e+38
