# .PCD v0.7 - Point Cloud Data file format
VERSION 0.7
FIELDS x y z rgb
SIZE 4 4 4 4
TYPE F F F F
COUNT 1 1 1 1
WIDTH 1003
HEIGHT 1
VIEWPOINT 0 0 0 1 0 0 0
POINTS 1003
DATA ascii
-0.78650004 -0.25116667 1.9250001 -2.3957933e+38
-0.7828334 -0.25116667 1.9250001 -2.3957935e+38
-0.7791667 -0.25116667 1.9250001 -2.3957939e+38
-0.77550006 -0.25116667 1.9250001 -2.3958462e+38
-0.77183336 -0.25116667 1.9250001 -2.4091383e+38
-0.76816672 -0.25116667 1.9250001 -2.4224302e+38
-0.76052862 -0.24986193 1.9150001 -2.4356186e+38
-0.756881 -0.24986193 1.9150001 -2.4223264e+38
-0.75323337 -0.24986193 1.9150001 -2.4223781e+38
-0.74958575 -0.24986193 1.9150001 -2.4489622e+38
-0.74593812 -0.24986193 1.9150001 -2.4623588e+38
-0.74616671 -0.25116667 1.9250001 -2.4755993e+38
-0.74250007 -0.25116667 1.9250001 -2.475548e+38
-0.73883337 -0.25116667 1.9250001 -2.4755484e+38
-0.73516673 -0.25116667 1.9250001 -2.4755484e+38
-0.73150003 -0.25116667 1.9250001 -2.4490156e+38
-0.72783339 -0.25116667 1.9250001 -2.4357754e+38
-0.72416669 -0.25116667 1.9250001 -2.4357754e+38
-0.72050005 -0.25116667 1.9250001 -2.4358273e+38
-0.71683335 -0.25116667 1.9250001 -2.4225868e+38
-0.71316671 -0.25116667 1.9250001 -2.4092947e+38
-0.70950007 -0.25116667 1.9250001 -2.4092428e+38
-0.70583338 -0.25116667 1.9250001 -2.4091389e+38
-0.70216674 -0.25116667 1.9250001 -2.4092428e+38
-0.69850004 -0.25116667 1.9250001 -2.3960024e+38
-0.6948334 -0.25116667 1.9250001 -2.4091907e+38
-0.6911667 -0.25116667 1.9250001 -2.4224312e+38
-0.68750006 -0.25116667 1.9250001 -2.4091389e+38
-0.68383336 -0.25116667 1.9250001 -2.4090866e+38
-0.68016672 -0.25116667 1.9250001 -2.4091379e+38
-0.67650002 -0.25116667 1.9250001 -2.4224819e+38
-0.67283338 -0.25116667 1.9250001 -2.4223777e+38
-0.66916668 -0.25116667 1.9250001 -2.4223257e+38
-0.66930288 -0.25260192 1.9360001 -2.3957412e+38
-0.66183341 -0.25116667 1.9250001 -2.382397e+38
-0.66192764 -0.25260192 1.9360001 -2.395741e+38
-0.65824002 -0.25260192 1.9360001 -2.4222219e+38
-0.6545524 -0.25260192 1.9360001 -2.4354625e+38
-0.65086478 -0.25260192 1.9360001 -2.4487024e+38
-0.64717716 -0.25260192 1.9360001 -2.4221692e+38
-0.63983339 -0.25116667 1.9250001 -2.4088767e+38
-0.63980192 -0.25260192 1.9360001 -2.3689994e+38
-0.6361143 -0.25260192 1.9360001 -2.3424151e+38
-0.63242668 -0.25260192 1.9360001 -2.3424153e+38
-0.62873912 -0.25260192 1.9360001 -2.3424157e+38
-0.6250515 -0.25260192 1.9360001 -2.3424159e+38
-0.62136388 -0.25260192 1.9360001 -2.3423122e+38
-0.61767626 -0.25260192 1.9360001 -2.3689489e+38
-0.61398864 -0.25260192 1.9360001 -2.3955335e+38
-0.61030102 -0.25260192 1.9360001 -2.4220659e+38
-0.6066134 -0.25260192 1.9360001 -2.435358e+38
-0.60292578 -0.25260192 1.9360001 -2.4354616e+38
-0.59923816 -0.25260192 1.9360001 -2.4488061e+38
-0.59555054 -0.25260192 1.9360001 -2.4222215e+38
-0.59522575 -0.25403717 1.9470001 -2.4089815e+38
-0.59151721 -0.25403717 1.9470001 -2.3825012e+38
-0.58780861 -0.25403717 1.9470001 -2.3559682e+38
-0.58410007 -0.25403717 1.9470001 -2.3559159e+38
-0.5836705 -0.25547239 1.9580001 -2.3558118e+38
-0.57994097 -0.25547239 1.9580001 -2.3558114e+38
-0.57944858 -0.25690764 1.9690001 -2.3557599e+38
-0.57569814 -0.25690764 1.9690001 -2.342468e+38
-0.57514292 -0.25834286 1.9800001 -2.3424682e+38
-0.5713715 -0.25834286 1.9800001 -2.3424684e+38
-0.57104003 -0.25990859 1.9920001 -2.3424163e+38
-0.56724572 -0.25990859 1.9920001 -2.32902e+38
-0.56345147 -0.25990859 1.9920001 -2.3290202e+38
-0.55965716 -0.25990859 1.9920001 -2.3290202e+38
-0.55893242 -0.26134384 2.003 -2.3290721e+38
-0.55511719 -0.26134384 2.003 -2.3290721e+38
-0.55460477 -0.26290953 2.0150001 -2.3423127e+38
-0.55076671 -0.26290953 2.0150001 -2.3424165e+38
-0.55018574 -0.26447526 2.0270002 -2.3424686e+38
-0.54632479 -0.26447526 2.0270002 -2.3424167e+38
-0.54567528 -0.26604098 2.039 -2.3557096e+38
-0.54498005 -0.26760668 2.0510001 -2.3425216e+38
-0.54766864 -0.2708686 2.0760002 -2.3425216e+38
-0.55026191 -0.27413049 2.1010001 -2.3557617e+38
-0.54964006 -0.27582669 2.1140001 -2.3690544e+38
-0.54561335 -0.27582669 2.1140001 -2.3692104e+38
-0.54491717 -0.27752286 2.1270001 -2.3825546e+38
-0.54417145 -0.27921906 2.1400001 -2.3958986e+38
-0.54009527 -0.27921906 2.1400001 -2.4091371e+38
-0.53927529 -0.28091526 2.1530001 -2.4087197e+38
-0.53517431 -0.28091526 2.1530001 -2.408356e+38
-0.53107339 -0.28091526 2.1530001 -3.0614429e+38
-0.52379054 -0.27921906 2.1400001 nan
-0.5197143 -0.27921906 2.1400001 -3.1002787e+38
-0.50937337 -0.27582669 2.1140001 -2.4998415e+38
-0.50534672 -0.27582669 2.1140001 -2.4208147e+38
-0.49823716 -0.27413049 2.1010001 -2.3418409e+38
-0.49117717 -0.27243429 2.0880001 -2.3818224e+38
-0.48720002 -0.27243429 2.0880001 -2.4085112e+38
-0.4832229 -0.27243429 2.0880001 -2.4086672e+38
-0.47649145 -0.2708686 2.0760002 -2.3954274e+38
-0.4752686 -0.27243429 2.0880001 -2.4220643e+38
-0.4685829 -0.2708686 2.0760002 -2.4354608e+38
-0.46462861 -0.2708686 2.0760002 -2.4620458e+38
-0.46333718 -0.27243429 2.0880001 -2.4887865e+38
-0.45672002 -0.2708686 2.0760002 -2.4886829e+38
-0.45538288 -0.27243429 2.0880001 -2.4886312e+38
-0.45140573 -0.27243429 2.0880001 -2.4621505e+38
-0.44742861 -0.27243429 2.0880001 -2.4488586e+38
-0.44345146 -0.27243429 2.0880001 -2.4622551e+38
-0.43947431 -0.27243429 2.0880001 -2.4756521e+38
-0.43549716 -0.27243429 2.0880001 -2.5023411e+38
-0.43152002 -0.27243429 2.0880001 -2.5289786e+38
-0.43020478 -0.27413049 2.1010001 -2.5556678e+38
-0.42620289 -0.27413049 2.1010001 -2.595701e+38
-0.42742574 -0.27752286 2.1270001 -2.6223379e+38
-0.42337433 -0.27752286 2.1270001 -2.6623196e+38
-0.41932288 -0.27752286 2.1270001 -2.6891648e+38
-0.41527146 -0.27752286 2.1270001 -2.7294051e+38
-0.41122001 -0.27752286 2.1270001 -2.6358916e+38
-0.98252672 -0.26370001 2.0510001 nan
-0.97289437 -0.26215717 2.039 nan
-0.96330768 -0.26061431 2.0270002 nan
-0.96512675 -0.26215717 2.039 nan
-0.96124291 -0.26215717 2.039 nan
-0.95735914 -0.26215717 2.039 nan
-0.94786388 -0.26061431 2.0270002 nan
-0.94400293 -0.26061431 2.0270002 -2.5560262e+38
-0.94014198 -0.26061431 2.0270002 -2.4621969e+38
-0.9418239 -0.26215717 2.039 -2.3689457e+38
-0.93794006 -0.26215717 2.039 -2.4490133e+38
-0.93405622 -0.26215717 2.039 -2.5153188e+38
-0.93017244 -0.26215717 2.039 -2.4886302e+38
-0.93174005 -0.26370001 2.0510001 -2.4487008e+38
-0.92783338 -0.26370001 2.0510001 -2.4354079e+38
-0.92392671 -0.26370001 2.0510001 -2.4087193e+38
-0.92002004 -0.26370001 2.0510001 -2.4086672e+38
-0.91611338 -0.26370001 2.0510001 -2.3953743e+38
-0.91754389 -0.26524287 2.0630002 -2.3687374e+38
-0.91361433 -0.26524287 2.0630002 -2.3288084e+38
-0.91541719 -0.26691431 2.0760002 -2.3287046e+38
-0.91673148 -0.26845717 2.0880001 -2.3287042e+38
-0.91275436 -0.26845717 2.0880001 -2.3153078e+38
-0.90877718 -0.26845717 2.0880001 -2.3020152e+38
-0.91043341 -0.27012858 2.1010001 -2.3019628e+38
-0.9064315 -0.27012858 2.1010001 -2.301963e+38
-0.9080134 -0.27180001 2.1140001 -2.2886708e+38
-0.89842767 -0.27012858 2.1010001 -2.2754306e+38
-0.89442575 -0.27012858 2.1010001 -2.3152555e+38
-0.86923337 -0.26370001 2.0510001 -2.3417882e+38
-0.84043431 -0.2561143 1.9920001 -2.3417364e+38
-0.83160007 -0.25457144 1.9800001 -2.341737e+38
-0.82322955 -0.25315717 1.9690001 -2.3681666e+38
-0.81032288 -0.2503286 1.9470001 -2.3818232e+38
-0.80661434 -0.2503286 1.9470001 -2.3822394e+38
-0.79836959 -0.2489143 1.9360001 -2.3691554e+38
-0.79468197 -0.2489143 1.9360001 -2.3825521e+38
-0.78650004 -0.24750002 1.9250001 -2.3825525e+38
-0.7828334 -0.24750002 1.9250001 -2.3825532e+38
-0.7791667 -0.24750002 1.9250001 -2.3825534e+38
-0.77550006 -0.24750002 1.9250001 -2.3958978e+38
-0.77183336 -0.24750002 1.9250001 -2.4091379e+38
-0.76816672 -0.24750002 1.9250001 -2.4357225e+38
-0.76052862 -0.2462143 1.9150001 -2.4622549e+38
-0.756881 -0.2462143 1.9150001 -2.4489107e+38
-0.75323337 -0.2462143 1.9150001 -2.4356182e+38
-0.74958575 -0.2462143 1.9150001 -2.4622026e+38
-0.74593812 -0.2462143 1.9150001 -2.4754433e+38
-0.74616671 -0.24750002 1.9250001 -2.4753397e+38
-0.74250007 -0.24750002 1.9250001 -2.475444e+38
-0.73883337 -0.24750002 1.9250001 -2.4754963e+38
-0.73516673 -0.24750002 1.9250001 -2.4622559e+38
-0.73150003 -0.24750002 1.9250001 -2.4489636e+38
-0.72783339 -0.24750002 1.9250001 -2.4357235e+38
-0.72416669 -0.24750002 1.9250001 -2.4490679e+38
-0.72050005 -0.24750002 1.9250001 -2.4491196e+38
-0.71683335 -0.24750002 1.9250001 -2.4491715e+38
-0.71316671 -0.24750002 1.9250001 -2.4358795e+38
-0.70950007 -0.24750002 1.9250001 -2.4491719e+38
-0.70583338 -0.24750002 1.9250001 -2.4491202e+38
-0.70216674 -0.24750002 1.9250001 -2.4358279e+38
-0.69850004 -0.24750002 1.9250001 -2.4092432e+38
-0.6948334 -0.24750002 1.9250001 -2.4357756e+38
-0.6911667 -0.24750002 1.9250001 -2.4491196e+38
-0.68750006 -0.24750002 1.9250001 -2.4491196e+38
-0.68383336 -0.24750002 1.9250001 -2.4357229e+38
-0.68016672 -0.24750002 1.9250001 -2.4490148e+38
-0.67650002 -0.24750002 1.9250001 -2.4489624e+38
-0.67283338 -0.24750002 1.9250001 -2.4622026e+38
-0.66916668 -0.24750002 1.9250001 -2.4622026e+38
-0.66550004 -0.24750002 1.9250001 -2.4356699e+38
-0.66183341 -0.24750002 1.9250001 -2.4090333e+38
-0.65816671 -0.24750002 1.9250001 -2.4223255e+38
-0.65450007 -0.24750002 1.9250001 -2.4355659e+38
-0.6545524 -0.2489143 1.9360001 -2.4354621e+38
-0.65086478 -0.2489143 1.9360001 -2.4221696e+38
-0.64717716 -0.2489143 1.9360001 -2.4089292e+38
-0.64348954 -0.2489143 1.9360001 -2.3822923e+38
-0.63980192 -0.2489143 1.9360001 -2.3557076e+38
-0.6361143 -0.2489143 1.9360001 -2.3291232e+38
-0.63242668 -0.2489143 1.9360001 -2.3291234e+38
-0.62873912 -0.2489143 1.9360001 -2.3291236e+38
-0.6250515 -0.2489143 1.9360001 -2.3291238e+38
-0.62136388 -0.2489143 1.9360001 -2.3290719e+38
-0.61767626 -0.2489143 1.9360001 -2.3688968e+38
-0.61398864 -0.2489143 1.9360001 -2.3954294e+38
-0.61030102 -0.2489143 1.9360001 -2.422014e+38
-0.6066134 -0.2489143 1.9360001 -2.4486503e+38
-0.60292578 -0.2489143 1.9360001 -2.4486501e+38
-0.59923816 -0.2489143 1.9360001 -2.4354097e+38
-0.59555054 -0.2489143 1.9360001 -2.4088771e+38
-0.59186292 -0.2489143 1.9360001 -2.3823968e+38
-0.5881753 -0.2489143 1.9360001 -2.3559684e+38
-0.58780861 -0.2503286 1.9470001 -2.3293315e+38
-0.58410007 -0.2503286 1.9470001 -2.3293313e+38
-0.58039147 -0.2503286 1.9470001 -2.3292273e+38
-0.57994097 -0.25174287 1.9580001 -2.3424674e+38
-0.57944858 -0.25315717 1.9690001 -2.355812e+38
-0.57569814 -0.25315717 1.9690001 -2.3425201e+38
-0.57514292 -0.25457144 1.9800001 -2.3158839e+38
-0.5713715 -0.25457144 1.9800001 -2.3291763e+38
-0.56760001 -0.25457144 1.9800001 -2.3291242e+38
-0.56724572 -0.2561143 1.9920001 -2.3024358e+38
-0.56345147 -0.2561143 1.9920001 -2.2759032e+38
-0.55965716 -0.2561143 1.9920001 -2.2759032e+38
-0.5558629 -0.2561143 1.9920001 -2.2759551e+38
-0.55511719 -0.2575286 2.003 -2.2892474e+38
-0.55460477 -0.25907144 2.0150001 -2.3025395e+38
-0.55076671 -0.25907144 2.0150001 -2.3291757e+38
-0.55018574 -0.26061431 2.0270002 -2.3424682e+38
-0.54632479 -0.26061431 2.0270002 -2.3557088e+38
-0.54567528 -0.26215717 2.039 -2.3557092e+38
-0.54498005 -0.26370001 2.0510001 -2.3557617e+38
-0.54766864 -0.26691431 2.0760002 -2.3557619e+38
-0.55366671 -0.27180001 2.1140001 -2.3557621e+38
-0.54964006 -0.27180001 2.1140001 -2.3425737e+38
-0.54561335 -0.27180001 2.1140001 -2.3826063e+38
-0.54491717 -0.27347144 2.1270001 -2.4091391e+38
-0.54417145 -0.27514288 2.1400001 -2.4357239e+38
-0.54009527 -0.27514288 2.1400001 -2.4621509e+38
-0.53927529 -0.27681431 2.1530001 -2.421753e+38
-0.53517431 -0.27681431 2.1530001 -2.369053e+38
-0.52786672 -0.27514288 2.1400001 -3.3423509e+38
-0.52379054 -0.27514288 2.1400001 nan
-0.5197143 -0.27514288 2.1400001 nan
-0.50937337 -0.27180001 2.1140001 -2.5413271e+38
-0.50534672 -0.27180001 2.1140001 -2.4197199e+38
-0.49823716 -0.27012858 2.1010001 -2.2878386e+38
-0.49117717 -0.26845717 2.0880001 -2.3552376e+38
-0.48720002 -0.26845717 2.0880001 -2.4218033e+38
-0.4832229 -0.26845717 2.0880001 -2.4086672e+38
-0.47649145 -0.26691431 2.0760002 -2.3954274e+38
-0.4752686 -0.26845717 2.0880001 -2.4087201e+38
-0.4685829 -0.26691431 2.0760002 -2.4221166e+38
-0.46462861 -0.26691431 2.0760002 -2.4487016e+38
-0.46067432 -0.26691431 2.0760002 -2.4620981e+38
-0.45672002 -0.26691431 2.0760002 -2.4619945e+38
-0.45538288 -0.26845717 2.0880001 -2.4488582e+38
-0.45140573 -0.26845717 2.0880001 -2.4356702e+38
-0.44742861 -0.26845717 2.0880001 -2.4223783e+38
-0.44345146 -0.26845717 2.0880001 -2.4489113e+38
-0.43947431 -0.26845717 2.0880001 -2.46236e+38
-0.43549716 -0.26845717 2.0880001 -2.5023413e+38
-0.43420669 -0.27012858 2.1010001 -2.5289784e+38
-0.43020478 -0.27012858 2.1010001 -2.5689079e+38
-0.42884004 -0.27180001 2.1140001 -2.5956487e+38
-0.42742574 -0.27347144 2.1270001 -2.6488703e+38
-0.42337433 -0.27347144 2.1270001 -2.6890076e+38
-0.41932288 -0.27347144 2.1270001 -2.7158009e+38
-0.41527146 -0.27347144 2.1270001 -2.7291453e+38
-0.41122001 -0.27347144 2.1270001 -2.622444e+38
-0.40965718 -0.27514288 2.1400001 -2.5036998e+38
-0.98827529 -0.26131335 2.0630002 nan
-0.97862005 -0.25979334 2.0510001 nan
-0.97471339 -0.25979334 2.0510001 nan
-0.96512675 -0.25827336 2.039 nan
-0.96124291 -0.25827336 2.039 nan
-0.95735914 -0.25827336 2.039 nan
-0.9534753 -0.25827336 2.039 nan
-0.94959152 -0.25827336 2.039 -2.9805999e+38
-0.94570768 -0.25827336 2.039 -2.6877503e+38
-0.9418239 -0.25827336 2.039 -2.4085627e+38
-0.93794006 -0.25827336 2.039 -2.4621494e+38
-0.93405622 -0.25827336 2.039 -2.5153184e+38
-0.93564671 -0.25979334 2.0510001 -2.4886815e+38
-0.93174005 -0.25979334 2.0510001 -2.4619927e+38
-0.92783338 -0.25979334 2.0510001 -2.4220635e+38
-0.92392671 -0.25979334 2.0510001 -2.395323e+38
-0.92002004 -0.25979334 2.0510001 -2.3820824e+38
-0.92147338 -0.26131335 2.0630002 -2.3821341e+38
-0.91754389 -0.26131335 2.0630002 -2.342153e+38
-0.91361433 -0.26131335 2.0630002 -2.3155685e+38
-0.92070866 -0.26448002 2.0880001 -2.3021723e+38
-0.9224391 -0.26612669 2.1010001 -2.30212e+38
-0.91843718 -0.26612669 2.1010001 -2.3020158e+38
-0.91443533 -0.26612669 2.1010001 -2.2886712e+38
-0.91043341 -0.26612669 2.1010001 -2.301963e+38
-0.91204005 -0.26777336 2.1140001 -2.3152553e+38
-0.9080134 -0.26777336 2.1140001 -2.301963e+38
-0.89842767 -0.26612669 2.1010001 -2.302015e+38
-0.89442575 -0.26612669 2.1010001 -2.3152032e+38
-0.89042389 -0.26612669 2.1010001 -2.3417358e+38
-0.83537149 -0.25080001 1.9800001 -2.3417358e+38
-0.83160007 -0.25080001 1.9800001 -2.3417366e+38
-0.82322955 -0.24940668 1.9690001 -2.3550297e+38
-0.81947911 -0.24940668 1.9690001 -2.3818749e+38
-0.80661434 -0.24662001 1.9470001 -2.3821873e+38
-0.79836959 -0.24522668 1.9360001 -2.3957915e+38
-0.79468197 -0.24522668 1.9360001 -2.4091361e+38
-0.78650004 -0.24383335 1.9250001 -2.4224811e+38
-0.7828334 -0.24383335 1.9250001 -2.4224817e+38
-0.7791667 -0.24383335 1.9250001 -2.4224817e+38
-0.77550006 -0.24383335 1.9250001 -2.4224817e+38
-0.77183336 -0.24383335 1.9250001 -2.4357223e+38
-0.76816672 -0.24383335 1.9250001 -2.4490148e+38
-0.76052862 -0.24256669 1.9150001 -2.4755472e+38
-0.756881 -0.24256669 1.9150001 -2.4754949e+38
-0.75323337 -0.24256669 1.9150001 -2.4754949e+38
-0.74958575 -0.24256669 1.9150001 -2.4754429e+38
-0.74593812 -0.24256669 1.9150001 -2.4886318e+38
-0.74616671 -0.24383335 1.9250001 -2.4753916e+38
-0.74250007 -0.24383335 1.9250001 -2.475444e+38
-0.73883337 -0.24383335 1.9250001 -2.4622038e+38
-0.73516673 -0.24383335 1.9250001 -2.4623079e+38
-0.73150003 -0.24383335 1.9250001 -2.4489636e+38
-0.72783339 -0.24383335 1.9250001 -2.4357235e+38
-0.72416669 -0.24383335 1.9250001 -2.4357756e+38
-0.72050005 -0.24383335 1.9250001 -2.4491198e+38
-0.71683335 -0.24383335 1.9250001 -2.4491198e+38
-0.71316671 -0.24383335 1.9250001 -2.4491202e+38
-0.70950007 -0.24383335 1.9250001 -2.4358282e+38
-0.70583338 -0.24383335 1.9250001 -2.4358284e+38
-0.70216674 -0.24383335 1.9250001 -2.4358805e+38
-0.69850004 -0.24383335 1.9250001 -2.4358284e+38
-0.6948334 -0.24383335 1.9250001 -2.4358799e+38
-0.6911667 -0.24383335 1.9250001 -2.4493275e+38
-0.68750006 -0.24383335 1.9250001 -2.4491194e+38
-0.68383336 -0.24383335 1.9250001 -2.4623074e+38
-0.68016672 -0.24383335 1.9250001 -2.4623068e+38
-0.67650002 -0.24383335 1.9250001 -2.4754951e+38
-0.67283338 -0.24383335 1.9250001 -2.4754947e+38
-0.66916668 -0.24383335 1.9250001 -2.4754427e+38
-0.66930288 -0.24522668 1.9360001 -2.4489101e+38
-0.66561526 -0.24522668 1.9360001 -2.4223255e+38
-0.66192764 -0.24522668 1.9360001 -2.4356176e+38
-0.65824002 -0.24522668 1.9360001 -2.448858e+38
-0.6545524 -0.24522668 1.9360001 -2.4355655e+38
-0.65086478 -0.24522668 1.9360001 -2.4222215e+38
-0.64717716 -0.24522668 1.9360001 -2.4089294e+38
-0.64348954 -0.24522668 1.9360001 -2.395585e+38
-0.63980192 -0.24522668 1.9360001 -2.369052e+38
-0.6361143 -0.24522668 1.9360001 -2.3557599e+38
-0.63242668 -0.24522668 1.9360001 -2.3424678e+38
-0.62873912 -0.24522668 1.9360001 -2.342468e+38
-0.6250515 -0.24522668 1.9360001 -2.342468e+38
-0.62136388 -0.24522668 1.9360001 -2.3424159e+38
-0.61767626 -0.24522668 1.9360001 -2.3688964e+38
-0.61398864 -0.24522668 1.9360001 -2.3953254e+38
-0.61030102 -0.24522668 1.9360001 -2.4087734e+38
-0.6066134 -0.24522668 1.9360001 -2.435358e+38
-0.60292578 -0.24522668 1.9360001 -2.4353578e+38
-0.59923816 -0.24522668 1.9360001 -2.4353059e+38
-0.59555054 -0.24522668 1.9360001 -2.4221172e+38
-0.59522575 -0.24662001 1.9470001 -2.4089292e+38
-0.59151721 -0.24662001 1.9470001 -2.3691045e+38
-0.58780861 -0.24662001 1.9470001 -2.342468e+38
-0.58410007 -0.24662001 1.9470001 -2.355812e+38
-0.58039147 -0.24662001 1.9470001 -2.3690522e+38
-0.57668287 -0.24662001 1.9470001 -2.3823442e+38
-0.57944858 -0.24940668 1.9690001 -2.3823968e+38
-0.57569814 -0.24940668 1.9690001 -2.3823453e+38
-0.57514292 -0.25080001 1.9800001 -2.3690013e+38
-0.5713715 -0.25080001 1.9800001 -2.3557609e+38
-0.56760001 -0.25080001 1.9800001 -2.3424686e+38
-0.56724572 -0.25232002 1.9920001 -2.3158841e+38
-0.56345147 -0.25232002 1.9920001 -2.3026437e+38
-0.55965716 -0.25232002 1.9920001 -2.2892993e+38
-0.55893242 -0.25371334 2.003 -2.2892995e+38
-0.55844289 -0.25523335 2.0150001 -2.3025918e+38
-0.55790764 -0.25675336 2.0270002 -2.3292279e+38
-0.55404669 -0.25675336 2.0270002 -2.3424676e+38
-0.55018574 -0.25675336 2.0270002 -2.3557082e+38
-0.54955906 -0.25827336 2.039 -2.3557084e+38
-0.54567528 -0.25827336 2.039 -2.355709e+38
-0.54498005 -0.25979334 2.0510001 -2.3557615e+38
-0.5508343 -0.26448002 2.0880001 -2.3690544e+38
-0.55366671 -0.26777336 2.1140001 -2.3558664e+38
-0.55302006 -0.26942003 2.1270001 -2.35597e+38
-0.54896861 -0.26942003 2.1270001 -2.3958465e+38
-0.54824764 -0.2710667 2.1400001 -2.4223795e+38
-0.54417145 -0.2710667 2.1400001 -2.4623087e+38
-0.54337621 -0.27271336 2.1530001 -2.4888916e+38
-0.54278195 -0.27448669 2.1670001 -2.3550326e+38
-0.53865433 -0.27448669 2.1670001 -2.2209194e+38
-0.5206086 -0.26942003 2.1270001 nan
-0.51655716 -0.26942003 2.1270001 nan
-0.51250577 -0.26942003 2.1270001 nan
-0.50534672 -0.26777336 2.1140001 -2.713028e+38
-0.49823716 -0.26612669 2.1010001 -1.9946271e+38
-0.49423528 -0.26612669 2.1010001 -2.221899e+38
-0.48720002 -0.26448002 2.0880001 -2.4615761e+38
-0.4832229 -0.26448002 2.0880001 -2.4351479e+38
-0.47924575 -0.26448002 2.0880001 -2.4219601e+38
-0.4752686 -0.26448002 2.0880001 -2.4220643e+38
-0.4685829 -0.26296002 2.0760002 -2.4221166e+38
-0.46462861 -0.26296002 2.0760002 -2.422169e+38
-0.46067432 -0.26296002 2.0760002 -2.4355655e+38
-0.45672002 -0.26296002 2.0760002 -2.4355657e+38
-0.45276573 -0.26296002 2.0760002 -2.4489622e+38
-0.44881147 -0.26296002 2.0760002 -2.4490146e+38
-0.44742861 -0.26448002 2.0880001 -2.449015e+38
-0.44345146 -0.26448002 2.0880001 -2.4623596e+38
-0.43947431 -0.26448002 2.0880001 -2.4757563e+38
-0.43820861 -0.26612669 2.1010001 -2.5156336e+38
-0.43420669 -0.26612669 2.1010001 -2.555511e+38
-0.43286669 -0.26777336 2.1140001 -2.5689597e+38
-0.42884004 -0.26777336 2.1140001 -2.5956485e+38
-0.42742574 -0.26942003 2.1270001 -2.6356815e+38
-0.42337433 -0.26942003 2.1270001 -2.675767e+38
-0.41932288 -0.26942003 2.1270001 -2.7025082e+38
-0.41527146 -0.26942003 2.1270001 -2.7424895e+38
-0.41122001 -0.26942003 2.1270001 -2.6228076e+38
-0.4071686 -0.26942003 2.1270001 -2.5035432e+38
-0.98842961 -0.25438955 2.039 nan
-0.98252672 -0.25588667 2.0510001 nan
-0.97862005 -0.25588667 2.0510001 nan
-0.96901053 -0.25438955 2.039 nan
-0.96512675 -0.25438955 2.039 nan
-0.96124291 -0.25438955 2.039 nan
-0.95735914 -0.25438955 2.039 nan
-0.94786388 -0.2528924 2.0270002 nan
-0.94959152 -0.25438955 2.039 -3.3940128e+38
-0.94570768 -0.25438955 2.039 -2.926287e+38
-0.9418239 -0.25438955 2.039 -2.4483888e+38
-0.93794006 -0.25438955 2.039 -2.4888898e+38
-0.93405622 -0.25438955 2.039 -2.5153697e+38
-0.93564671 -0.25588667 2.0510001 -2.4887843e+38
-0.93174005 -0.25588667 2.0510001 -2.4619919e+38
-0.92783338 -0.25588667 2.0510001 -2.4220112e+38
-0.92392671 -0.25588667 2.0510001 -2.3687899e+38
-0.92002004 -0.25588667 2.0510001 -2.3687899e+38
-0.92147338 -0.25738382 2.0630002 -2.3554974e+38
-0.91754389 -0.25738382 2.0630002 -2.328809e+38
-0.91937149 -0.25900573 2.0760002 -2.2888801e+38
-0.92070866 -0.26050287 2.0880001 -2.2888281e+38
-0.9224391 -0.26212478 2.1010001 -2.2754835e+38
-0.91843718 -0.26212478 2.1010001 -2.2753795e+38
-0.91443533 -0.26212478 2.1010001 -2.2753793e+38
-0.91606671 -0.26374668 2.1140001 -2.3019636e+38
-0.91204005 -0.26374668 2.1140001 -2.3152557e+38
-0.9080134 -0.26374668 2.1140001 -2.3152555e+38
-0.90398675 -0.26374668 2.1140001 -2.3152555e+38
-0.89996004 -0.26374668 2.1140001 -2.3284437e+38
-0.89593339 -0.26374668 2.1140001 -2.3284437e+38
-0.83537149 -0.24702859 1.9800001 -2.341736e+38
-0.83160007 -0.24702859 1.9800001 -2.3417366e+38
-0.82782865 -0.24702859 1.9800001 -2.3549257e+38
-0.81947911 -0.24565621 1.9690001 -2.3685301e+38
-0.81117147 -0.24428383 1.9580001 -2.3954266e+38
-0.80290574 -0.24291144 1.9470001 -2.4089795e+38
-0.79468197 -0.24153906 1.9360001 -2.4356687e+38
-0.79099435 -0.24153906 1.9360001 -2.4489616e+38
-0.7828334 -0.24016668 1.9250001 -2.4490139e+38
-0.7791667 -0.24016668 1.9250001 -2.4490142e+38
-0.77550006 -0.24016668 1.9250001 -2.4490144e+38
-0.77183336 -0.24016668 1.9250001 -2.4489624e+38
-0.76816672 -0.24016668 1.9250001 -2.4622549e+38
-0.76450002 -0.24016668 1.9250001 -2.475547e+38
-0.76083338 -0.24016668 1.9250001 -2.4887873e+38
-0.75323337 -0.23891906 1.9150001 -2.5020794e+38
-0.74958575 -0.23891906 1.9150001 -2.5020794e+38
-0.74593812 -0.23891906 1.9150001 -2.4887871e+38
-0.74616671 -0.24016668 1.9250001 -2.4754951e+38
-0.74250007 -0.24016668 1.9250001 -2.4622032e+38
-0.73883337 -0.24016668 1.9250001 -2.4622036e+38
-0.73516673 -0.24016668 1.9250001 -2.4489115e+38
-0.73150003 -0.24016668 1.9250001 -2.4355675e+38
-0.72783339 -0.24016668 1.9250001 -2.4223791e+38
-0.72416669 -0.24016668 1.9250001 -2.4357235e+38
-0.72050005 -0.24016668 1.9250001 -2.4357754e+38
-0.71683335 -0.24016668 1.9250001 -2.4490677e+38
-0.71316671 -0.24016668 1.9250001 -2.44912e+38
-0.70950007 -0.24016668 1.9250001 -2.4358279e+38
-0.70583338 -0.24016668 1.9250001 -2.4226397e+38
-0.70216674 -0.24016668 1.9250001 -2.436036e+38
-0.69850004 -0.24016668 1.9250001 -2.4492243e+38
-0.6948334 -0.24016668 1.9250001 -2.4492241e+38
-0.6911667 -0.24016668 1.9250001 -2.4491719e+38
-0.68750006 -0.24016668 1.9250001 -2.4623083e+38
-0.68383336 -0.24016668 1.9250001 -2.4756519e+38
-0.68016672 -0.24016668 1.9250001 -2.4888918e+38
-0.67650002 -0.24016668 1.9250001 -2.4888397e+38
-0.67283338 -0.24016668 1.9250001 -2.4887876e+38
-0.66916668 -0.24016668 1.9250001 -2.4754951e+38
-0.66930288 -0.24153906 1.9360001 -2.4621509e+38
-0.66561526 -0.24153906 1.9360001 -2.4356699e+38
-0.66192764 -0.24153906 1.9360001 -2.448962e+38
-0.65824002 -0.24153906 1.9360001 -2.4622024e+38
-0.6545524 -0.24153906 1.9360001 -2.4356697e+38
-0.65086478 -0.24153906 1.9360001 -2.4090333e+38
-0.64717716 -0.24153906 1.9360001 -2.4090335e+38
-0.64348954 -0.24153906 1.9360001 -2.3956891e+38
-0.63980192 -0.24153906 1.9360001 -2.3823966e+38
-0.6361143 -0.24153906 1.9360001 -2.3691562e+38
-0.63242668 -0.24153906 1.9360001 -2.3558641e+38
-0.62873912 -0.24153906 1.9360001 -2.3425201e+38
-0.6250515 -0.24153906 1.9360001 -2.3424682e+38
-0.62136388 -0.24153906 1.9360001 -2.3424163e+38
-0.61767626 -0.24153906 1.9360001 -2.3688968e+38
-0.61398864 -0.24153906 1.9360001 -2.3821891e+38
-0.61030102 -0.24153906 1.9360001 -2.3955852e+38
-0.6066134 -0.24153906 1.9360001 -2.4087736e+38
-0.60292578 -0.24153906 1.9360001 -2.422014e+38
-0.59923816 -0.24153906 1.9360001 -2.435358e+38
-0.59555054 -0.24153906 1.9360001 -2.4353059e+38
-0.59522575 -0.24291144 1.9470001 -2.4221694e+38
-0.59151721 -0.24291144 1.9470001 -2.3956369e+38
-0.58780861 -0.24291144 1.9470001 -2.3557601e+38
-0.58410007 -0.24291144 1.9470001 -2.3823447e+38
-0.58039147 -0.24291144 1.9470001 -2.4089292e+38
-0.57668287 -0.24291144 1.9470001 -2.4088775e+38
-0.57944858 -0.24565621 1.9690001 -2.4089296e+38
-0.57569814 -0.24565621 1.9690001 -2.4222221e+38
-0.57514292 -0.24702859 1.9800001 -2.4221704e+38
-0.5713715 -0.24702859 1.9800001 -2.395586e+38
-0.57104003 -0.24852572 1.9920001 -2.3558128e+38
-0.56724572 -0.24852572 1.9920001 -2.3426244e+38
-0.56345147 -0.24852572 1.9920001 -2.3159879e+38
-0.55965716 -0.24852572 1.9920001 -2.315936e+38
-0.55893242 -0.24989811 2.003 -2.3026437e+38
-0.55844289 -0.25139526 2.0150001 -2.3292285e+38
-0.55790764 -0.2528924 2.0270002 -2.3424684e+38
-0.55404669 -0.2528924 2.0270002 -2.3557086e+38
-0.55018574 -0.2528924 2.0270002 -2.3557086e+38
-0.54955906 -0.25438955 2.039 -2.3557086e+38
-0.54567528 -0.25438955 2.039 -2.3557611e+38
-0.54498005 -0.25588667 2.0510001 -2.369054e+38
-0.5508343 -0.26050287 2.0880001 -2.369158e+38
-0.55366671 -0.26374668 2.1140001 -2.3692621e+38
-0.55302006 -0.26536858 2.1270001 -2.3692104e+38
-0.54896861 -0.26536858 2.1270001 -2.4090353e+38
-0.54824764 -0.26699048 2.1400001 -2.4357239e+38
-0.54417145 -0.26699048 2.1400001 -2.4757048e+38
-0.54009527 -0.26699048 2.1400001 -2.5152687e+38
-0.53927529 -0.26861238 2.1530001 -2.2885716e+38
-0.53517431 -0.26861238 2.1530001 -2.0631251e+38
-0.51655716 -0.26536858 2.1270001 nan
-0.51250577 -0.26536858 2.1270001 nan
-0.50534672 -0.26374668 2.1140001 -3.0176617e+38
-0.49823716 -0.26212478 2.1010001 -1.7023521e+38
-0.49423528 -0.26212478 2.1010001 -2.1026813e+38
-0.48720002 -0.26050287 2.0880001 -2.4881075e+38
-0.4832229 -0.26050287 2.0880001 -2.4617326e+38
-0.47924575 -0.26050287 2.0880001 -2.4352523e+38
-0.4752686 -0.26050287 2.0880001 -2.4354085e+38
-0.4685829 -0.25900573 2.0760002 -2.4221686e+38
-0.46462861 -0.25900573 2.0760002 -2.4089284e+38
-0.46067432 -0.25900573 2.0760002 -2.3957402e+38
-0.45672002 -0.25900573 2.0760002 -2.4223771e+38
-0.45538288 -0.26050287 2.0880001 -2.4357217e+38
-0.45140573 -0.26050287 2.0880001 -2.4490663e+38
-0.44742861 -0.26050287 2.0880001 -2.4624111e+38
-0.44345146 -0.26050287 2.0880001 -2.475808e+38
-0.43947431 -0.26050287 2.0880001 -2.4758084e+38
-0.43820861 -0.26212478 2.1010001 -2.5289262e+38
-0.43420669 -0.26212478 2.1010001 -2.5689075e+38
-0.43286669 -0.26374668 2.1140001 -2.5822521e+38
-0.42884004 -0.26374668 2.1140001 -2.5957004e+38
-0.42742574 -0.26536858 2.1270001 -2.6223892e+38
-0.42337433 -0.26536858 2.1270001 -2.6491301e+38
-0.41932288 -0.26536858 2.1270001 -2.7024558e+38
-0.41527146 -0.26536858 2.1270001 -2.7423335e+38
-0.41122001 -0.26536858 2.1270001 -2.6227038e+38
-0.4071686 -0.26536858 2.1270001 -2.5033333e+38
-0.98643339 -0.25198001 2.0510001 nan
-0.98252672 -0.25198001 2.0510001 nan
-0.97862005 -0.25198001 2.0510001 nan
-0.96901053 -0.25050575 2.039 nan
-0.96512675 -0.25050575 2.039 nan
-0.95558578 -0.24903144 2.0270002 nan
-0.95172483 -0.24903144 2.0270002 nan
-0.94786388 -0.24903144 2.0270002 nan
-0.94959152 -0.25050575 2.039 nan
-0.94570768 -0.25050575 2.039 -3.0604065e+38
-0.9418239 -0.25050575 2.039 -2.4083577e+38
-0.93794006 -0.25050575 2.039 -2.4620975e+38
-0.93955338 -0.25198001 2.0510001 -2.5286094e+38
-0.93564671 -0.25198001 2.0510001 -2.4886273e+38
-0.93174005 -0.25198001 2.0510001 -2.4484911e+38
-0.92783338 -0.25198001 2.0510001 -2.4087183e+38
-0.92392671 -0.25198001 2.0510001 -2.3687897e+38
-0.92540294 -0.2534543 2.0630002 -2.3554974e+38
-0.92147338 -0.2534543 2.0630002 -2.3554455e+38
-0.91754389 -0.2534543 2.0630002 -2.3287571e+38
-0.91937149 -0.25505143 2.0760002 -2.3154129e+38
-0.92644101 -0.25812286 2.1010001 -2.3020685e+38
-0.9224391 -0.25812286 2.1010001 -2.3020683e+38
-0.91843718 -0.25812286 2.1010001 -2.2887237e+38
-0.92009342 -0.25972003 2.1140001 -2.2886718e+38
-0.91606671 -0.25972003 2.1140001 -2.2886718e+38
-0.91204005 -0.25972003 2.1140001 -2.3019119e+38
-0.9080134 -0.25972003 2.1140001 -2.3019634e+38
-0.90398675 -0.25972003 2.1140001 -2.3152557e+38
-0.89996004 -0.25972003 2.1140001 -2.3019113e+38
-0.89593339 -0.25972003 2.1140001 -2.3018594e+38
-0.83537149 -0.24325716 1.9800001 -2.3284439e+38
-0.83160007 -0.24325716 1.9800001 -2.3550289e+38
-0.82782865 -0.24325716 1.9800001 -2.3948542e+38
-0.81947911 -0.24190573 1.9690001 -2.434939e+38
-0.81117147 -0.2405543 1.9580001 -2.5819329e+38
-0.80290574 -0.23920287 1.9470001 -2.7280975e+38
-0.79468197 -0.23785144 1.9360001 -2.6216568e+38
-0.79099435 -0.23785144 1.9360001 -2.5285074e+38
-0.7828334 -0.23650001 1.9250001 -2.4887865e+38
-0.7791667 -0.23650001 1.9250001 -2.4622543e+38
-0.77550006 -0.23650001 1.9250001 -2.4622545e+38
-0.77183336 -0.23650001 1.9250001 -2.4489105e+38
-0.76816672 -0.23650001 1.9250001 -2.4489624e+38
-0.76450002 -0.23650001 1.9250001 -2.4489624e+38
-0.76083338 -0.23650001 1.9250001 -2.4622547e+38
-0.75323337 -0.23527144 1.9150001 -2.4755468e+38
-0.74958575 -0.23527144 1.9150001 -2.4622543e+38
-0.74593812 -0.23527144 1.9150001 -2.448962e+38
-0.7422905 -0.23527144 1.9150001 -2.448962e+38
-0.74250007 -0.23650001 1.9250001 -2.4489626e+38
-0.73883337 -0.23650001 1.9250001 -2.448963e+38
-0.73516673 -0.23650001 1.9250001 -2.4488594e+38
-0.73150003 -0.23650001 1.9250001 -2.4356192e+38
-0.72783339 -0.23650001 1.9250001 -2.422431e+38
-0.72416669 -0.23650001 1.9250001 -2.422431e+38
-0.72050005 -0.23650001 1.9250001 -2.4224829e+38
-0.71683335 -0.23650001 1.9250001 -2.4357752e+38
-0.71316671 -0.23650001 1.9250001 -2.4491198e+38
-0.70950007 -0.23650001 1.9250001 -2.4358797e+38
-0.70583338 -0.23650001 1.9250001 -2.4359837e+38
-0.70216674 -0.23650001 1.9250001 -2.4625685e+38
-0.69850004 -0.23650001 1.9250001 -2.4758088e+38
-0.6948334 -0.23650001 1.9250001 -2.4757567e+38
-0.6911667 -0.23650001 1.9250001 -2.4757048e+38
-0.68750006 -0.23650001 1.9250001 -2.4757046e+38
-0.68383336 -0.23650001 1.9250001 -2.4889965e+38
-0.68016672 -0.23650001 1.9250001 -2.4889441e+38
-0.67650002 -0.23650001 1.9250001 -2.4888403e+38
-0.67283338 -0.23650001 1.9250001 -2.4755997e+38
-0.66916668 -0.23650001 1.9250001 -2.4623072e+38
-0.66930288 -0.23785144 1.9360001 -2.4623068e+38
-0.66561526 -0.23785144 1.9360001 -2.4623586e+38
-0.66192764 -0.23785144 1.9360001 -2.4755468e+38
-0.65824002 -0.23785144 1.9360001 -2.4754951e+38
-0.6545524 -0.23785144 1.9360001 -2.4489105e+38
-0.65086478 -0.23785144 1.9360001 -2.4356182e+38
-0.64717716 -0.23785144 1.9360001 -2.4223257e+38
-0.64348954 -0.23785144 1.9360001 -2.4090854e+38
-0.63980192 -0.23785144 1.9360001 -2.3957929e+38
-0.6361143 -0.23785144 1.9360001 -2.3825008e+38
-0.63242668 -0.23785144 1.9360001 -2.3692085e+38
-0.62873912 -0.23785144 1.9360001 -2.3558645e+38
-0.6250515 -0.23785144 1.9360001 -2.3558126e+38
-0.62136388 -0.23785144 1.9360001 -2.3558126e+38
-0.61767626 -0.23785144 1.9360001 -2.3557088e+38
-0.61398864 -0.23785144 1.9360001 -2.3690009e+38
-0.61030102 -0.23785144 1.9360001 -2.3689487e+38
-0.6066134 -0.23785144 1.9360001 -2.3688451e+38
-0.60292578 -0.23785144 1.9360001 -2.3954816e+38
-0.59923816 -0.23785144 1.9360001 -2.4088256e+38
-0.59555054 -0.23785144 1.9360001 -2.4088252e+38
-0.59522575 -0.23920287 1.9470001 -2.4088252e+38
-0.59151721 -0.23920287 1.9470001 -2.3955846e+38
-0.58780861 -0.23920287 1.9470001 -2.3955848e+38
-0.58410007 -0.23920287 1.9470001 -2.408929e+38
-0.58039147 -0.23920287 1.9470001 -2.4222217e+38
-0.57668287 -0.23920287 1.9470001 -2.4088779e+38
-0.57944858 -0.24190573 1.9690001 -2.408826e+38
-0.57569814 -0.24190573 1.9690001 -2.4088779e+38
-0.57514292 -0.24325716 1.9800001 -2.4221704e+38
-0.5713715 -0.24325716 1.9800001 -2.3823457e+38
-0.57104003 -0.24473144 1.9920001 -2.355813e+38
-0.56724572 -0.24473144 1.9920001 -2.3426244e+38
-0.56345147 -0.24473144 1.9920001 -2.3426246e+38
-0.55965716 -0.24473144 1.9920001 -2.3425727e+38
-0.55893242 -0.24608287 2.003 -2.3425208e+38
-0.55844289 -0.24755716 2.0150001 -2.3424688e+38
-0.55790764 -0.24903144 2.0270002 -2.3557092e+38
-0.55404669 -0.24903144 2.0270002 -2.355709e+38
-0.5534429 -0.25050575 2.039 -2.3690011e+38
-0.54955906 -0.25050575 2.039 -2.3690528e+38
-0.54888672 -0.25198001 2.0510001 -2.3690536e+38
-0.54498005 -0.25198001 2.0510001 -2.3558138e+38
-0.5508343 -0.25652573 2.0880001 -2.3559177e+38
-0.55026191 -0.25812286 2.1010001 -2.3692617e+38
-0.54964006 -0.25972003 2.1140001 -2.3824507e+38
-0.54561335 -0.25972003 2.1140001 -2.3957953e+38
-0.54491717 -0.26131716 2.1270001 -2.4224837e+38
-0.54417145 -0.2629143 2.1400001 -2.4623604e+38
-0.54009527 -0.2629143 2.1400001 -2.5155283e+38
-0.53927529 -0.26451144 2.1530001 -2.3016564e+38
-0.51655716 -0.26131716 2.1270001 nan
-0.50937337 -0.25972003 2.1140001 nan
-0.50845432 -0.26131716 2.1270001 nan
-0.49823716 -0.25812286 2.1010001 -2.5789153e+38
-0.49423528 -0.25812286 2.1010001 -2.4470837e+38
-0.48720002 -0.25652573 2.0880001 -2.315047e+38
-0.4832229 -0.25652573 2.0880001 -2.381979e+38
-0.47924575 -0.25652573 2.0880001 -2.4485446e+38
-0.4752686 -0.25652573 2.0880001 -2.4354085e+38
-0.4685829 -0.25505143 2.0760002 -2.4221684e+38
-0.4673143 -0.25652573 2.0880001 -2.4222205e+38
-0.46067432 -0.25505143 2.0760002 -2.4090322e+38
-0.45936003 -0.25652573 2.0880001 -2.4356689e+38
-0.45538288 -0.25652573 2.0880001 -2.4624097e+38
-0.45140573 -0.25652573 2.0880001 -2.4757024e+38
-0.44742861 -0.25652573 2.0880001 -2.4890476e+38
-0.44345146 -0.25652573 2.0880001 -2.5023928e+38
-0.4422105 -0.25812286 2.1010001 -2.5156857e+38
-0.43820861 -0.25812286 2.1010001 -2.5289786e+38
-0.43689337 -0.25972003 2.1140001 -2.5556674e+38
-0.43286669 -0.25972003 2.1140001 -2.569012e+38
-0.42884004 -0.25972003 2.1140001 -2.5824602e+38
-0.42742574 -0.26131716 2.1270001 -2.6090967e+38
-0.42337433 -0.26131716 2.1270001 -2.649078e+38
-0.41932288 -0.26131716 2.1270001 -2.6757151e+38
-0.41527146 -0.26131716 2.1270001 -2.7156449e+38
-0.41373336 -0.2629143 2.1400001 -2.6626323e+38
-0.40965718 -0.2629143 2.1400001 -2.6231175e+38
-0.40558097 -0.2629143 2.1400001 -2.6094085e+38
-0.98643339 -0.24807335 2.0510001 nan
-0.98252672 -0.24807335 2.0510001 nan
-0.97862005 -0.24807335 2.0510001 nan
-0.96901053 -0.24662192 2.039 nan
-0.96512675 -0.24662192 2.039 nan
-0.96124291 -0.24662192 2.039 nan
-0.95735914 -0.24662192 2.039 nan
-0.9534753 -0.24662192 2.039 nan
-0.94959152 -0.24662192 2.039 nan
-0.94570768 -0.24662192 2.039 -3.1927066e+38
-0.9418239 -0.24662192 2.039 -2.3685851e+38
-0.93794006 -0.24662192 2.039 -2.4490653e+38
-0.93955338 -0.24807335 2.0510001 -2.5286098e+38
-0.93564671 -0.24807335 2.0510001 -2.4752835e+38
-0.93174005 -0.24807335 2.0510001 -2.4220625e+38
-0.92783338 -0.24807335 2.0510001 -2.395582e+38
-0.92392671 -0.24807335 2.0510001 -2.3688416e+38
-0.92540294 -0.24952477 2.0630002 -2.3554976e+38
-0.92147338 -0.24952477 2.0630002 -2.3421013e+38
-0.91754389 -0.24952477 2.0630002 -2.3419973e+38
-0.91937149 -0.25109717 2.0760002 -2.3286529e+38
-0.92644101 -0.25412098 2.1010001 -2.3285488e+38
-0.9224391 -0.25412098 2.1010001 -2.3152563e+38
-0.92412007 -0.25569335 2.1140001 -2.3152561e+38
-0.92009342 -0.25569335 2.1140001 -2.3019638e+38
-0.91606671 -0.25569335 2.1140001 -2.2886714e+38
-0.91204005 -0.25569335 2.1140001 -2.2753789e+38
-0.91359723 -0.25726572 2.1270001 -2.2887231e+38
-0.90398675 -0.25569335 2.1140001 -2.3019632e+38
-0.89996004 -0.25569335 2.1140001 -2.288619e+38
-0.85397625 -0.24371906 2.0150001 -2.2753268e+38
-0.84043431 -0.24093716 1.9920001 -2.3284959e+38
-0.83160007 -0.23948573 1.9800001 -2.3682687e+38
-0.82782865 -0.23948573 1.9800001 -2.43447e+38
-0.81947911 -0.23815526 1.9690001 -2.4885766e+38
-0.8157286 -0.23815526 1.9690001 -2.7693267e+38
-0.80744195 -0.23682478 1.9580001 -3.0347044e+38
-0.79468197 -0.23416382 1.9360001 -2.8208852e+38
-0.79099435 -0.23416382 1.9360001 -2.5949169e+38
-0.7828334 -0.23283336 1.9250001 -2.542008e+38
-0.7791667 -0.23283336 1.9250001 -2.4755985e+38
-0.77550006 -0.23283336 1.9250001 -2.4623064e+38
-0.77183336 -0.23283336 1.9250001 -2.4490142e+38
-0.76816672 -0.23283336 1.9250001 -2.435774e+38
-0.76450002 -0.23283336 1.9250001 -2.4091894e+38
-0.76083338 -0.23283336 1.9250001 -2.435774e+38
-0.75716674 -0.23283336 1.9250001 -2.4490142e+38
-0.75350004 -0.23283336 1.9250001 -2.4223775e+38
-0.74983341 -0.23283336 1.9250001 -2.3958448e+38
-0.74616671 -0.23283336 1.9250001 -2.4223777e+38
-0.74250007 -0.23283336 1.9250001 -2.4356702e+38
-0.73883337 -0.23283336 1.9250001 -2.4490148e+38
-0.73516673 -0.23283336 1.9250001 -2.448963e+38
-0.73150003 -0.23283336 1.9250001 -2.435671e+38
-0.72783339 -0.23283336 1.9250001 -2.4090866e+38
-0.72416669 -0.23283336 1.9250001 -2.4090868e+38
-0.72050005 -0.23283336 1.9250001 -2.4090868e+38
-0.71683335 -0.23283336 1.9250001 -2.4223793e+38
-0.71316671 -0.23283336 1.9250001 -2.4357756e+38
-0.70950007 -0.23283336 1.9250001 -2.4492239e+38
-0.70583338 -0.23283336 1.9250001 -2.4491719e+38
-0.70216674 -0.23283336 1.9250001 -2.4757567e+38
-0.69850004 -0.23283336 1.9250001 -2.5023413e+38
-0.6948334 -0.23283336 1.9250001 -2.5022893e+38
-0.6911667 -0.23283336 1.9250001 -2.5023411e+38
-0.68750006 -0.23283336 1.9250001 -2.502393e+38
-0.68383336 -0.23283336 1.9250001 -2.4889967e+38
-0.68016672 -0.23283336 1.9250001 -2.4889445e+38
-0.67650002 -0.23283336 1.9250001 -2.4756001e+38
-0.67283338 -0.23283336 1.9250001 -2.4623598e+38
-0.66916668 -0.23283336 1.9250001 -2.4358267e+38
-0.66930288 -0.23416382 1.9360001 -2.4624111e+38
-0.66561526 -0.23416382 1.9360001 -2.4888916e+38
-0.66192764 -0.23416382 1.9360001 -2.4887876e+38
-0.65450007 -0.23283336 1.9250001 -2.4887876e+38
-0.6545524 -0.23416382 1.9360001 -2.4754433e+38
-0.65086478 -0.23416382 1.9360001 -2.4489107e+38
-0.64717716 -0.23416382 1.9360001 -2.4356184e+38
-0.64348954 -0.23416382 1.9360001 -2.4223777e+38
-0.63980192 -0.23416382 1.9360001 -2.4090852e+38
-0.6361143 -0.23416382 1.9360001 -2.3957929e+38
-0.63242668 -0.23416382 1.9360001 -2.3825008e+38
-0.62873912 -0.23416382 1.9360001 -2.3558645e+38
-0.6250515 -0.23416382 1.9360001 -2.3558645e+38
-0.62136388 -0.23416382 1.9360001 -2.3558126e+38
-0.61767626 -0.23416382 1.9360001 -2.3556567e+38
-0.61398864 -0.23416382 1.9360001 -2.3556567e+38
-0.61030102 -0.23416382 1.9360001 -2.3423122e+38
-0.6066134 -0.23416382 1.9360001 -2.3290198e+38
-0.60635149 -0.2354943 1.9470001 -2.3555522e+38
-0.59923816 -0.23416382 1.9360001 -2.3822404e+38
-0.59555054 -0.23416382 1.9360001 -2.3822404e+38
-0.59522575 -0.2354943 1.9470001 -2.3822402e+38
-0.59151721 -0.2354943 1.9470001 -2.4088246e+38
-0.58780861 -0.2354943 1.9470001 -2.422117e+38
-0.58410007 -0.2354943 1.9470001 -2.4221694e+38
-0.58039147 -0.2354943 1.9470001 -2.4221179e+38
-0.57668287 -0.2354943 1.9470001 -2.408826e+38
-0.57944858 -0.23815526 1.9690001 -2.3955339e+38
-0.57569814 -0.23815526 1.9690001 -2.4088781e+38
-0.57194763 -0.23815526 1.9690001 -2.4222225e+38
-0.5713715 -0.23948573 1.9800001 -2.3824497e+38
-0.56760001 -0.23948573 1.9800001 -2.3426248e+38
-0.56724572 -0.24093716 1.9920001 -2.355969e+38
-0.56345147 -0.24093716 1.9920001 -2.3692094e+38
-0.55965716 -0.24093716 1.9920001 -2.3691576e+38
-0.55893242 -0.24226764 2.003 -2.3691055e+38
-0.55844289 -0.24371906 2.0150001 -2.3690536e+38
-0.55790764 -0.24517049 2.0270002 -2.3690536e+38
-0.55404669 -0.24517049 2.0270002 -2.3690534e+38
-0.5534429 -0.24662192 2.039 -2.3691051e+38
-0.54955906 -0.24662192 2.039 -2.3690532e+38
-0.54888672 -0.24807335 2.0510001 -2.3690536e+38
-0.54498005 -0.24807335 2.0510001 -2.3558136e+38
-0.54766864 -0.25109717 2.0760002 -2.3426252e+38
-0.54685718 -0.25254858 2.0880001 -2.3693136e+38
-0.54964006 -0.25569335 2.1140001 -2.3825544e+38
-0.54561335 -0.25569335 2.1140001 -2.3958469e+38
-0.54491717 -0.25726572 2.1270001 -2.395899e+38
-0.54086578 -0.25726572 2.1270001 -2.4490681e+38
-0.54009527 -0.25883812 2.1400001 -2.5020281e+38
-0.53601909 -0.25883812 2.1400001 -2.3285521e+38
-0.51655716 -0.25726572 2.1270001 nan
-0.51250577 -0.25726572 2.1270001 nan
-0.50845432 -0.25726572 2.1270001 nan
-0.50132 -0.25569335 2.1140001 nan
-0.49729335 -0.25569335 2.1140001 -2.7915911e+38
-0.49023336 -0.25412098 2.1010001 -2.1281752e+38
-0.4832229 -0.25254858 2.0880001 -2.3024847e+38
-0.47924575 -0.25254858 2.0880001 -2.4618888e+38
-0.4752686 -0.25254858 2.0880001 -2.4487531e+38
-0.47129145 -0.25254858 2.0880001 -2.4221688e+38
-0.4673143 -0.25254858 2.0880001 -2.4222211e+38
-0.46333718 -0.25254858 2.0880001 -2.422273e+38
-0.45936003 -0.25254858 2.0880001 -2.4489097e+38
-0.45538288 -0.25254858 2.0880001 -2.4755983e+38
-0.45140573 -0.25254858 2.0880001 -2.5022871e+38
-0.44742861 -0.25254858 2.0880001 -2.5156321e+38
-0.44345146 -0.25254858 2.0880001 -2.5289773e+38
-0.4422105 -0.25412098 2.1010001 -2.5422702e+38
-0.43820861 -0.25412098 2.1010001 -2.5422189e+38
-0.43689337 -0.25569335 2.1140001 -2.5290307e+38
-0.43286669 -0.25569335 2.1140001 -2.5423751e+38
-0.42884004 -0.25569335 2.1140001 -2.5558231e+38
-0.42742574 -0.25726572 2.1270001 -2.5957521e+38
-0.42337433 -0.25726572 2.1270001 -2.6356813e+38
-0.41932288 -0.25726572 2.1270001 -2.6622143e+38
-0.41527146 -0.25726572 2.1270001 -2.6756111e+38
-0.41122001 -0.25726572 2.1270001 -2.7156445e+38
-0.4071686 -0.25726572 2.1270001 -2.7421761e+38
-0.40311718 -0.25726572 2.1270001 -2.5156873e+38
-0.98643339 -0.24416669 2.0510001 nan
-0.98252672 -0.24416669 2.0510001 nan
-0.97862005 -0.24416669 2.0510001 nan
-0.96901053 -0.24273811 2.039 nan
-0.96512675 -0.24273811 2.039 nan
-0.96124291 -0.24273811 2.039 nan
-0.95735914 -0.24273811 2.039 nan
-0.9534753 -0.24273811 2.039 nan
-0.94959152 -0.24273811 2.039 nan
-0.94570768 -0.24273811 2.039 -2.927848e+38
-0.9418239 -0.24273811 2.039 -2.301501e+38
-0.93794006 -0.24273811 2.039 -2.4087734e+38
-0.93955338 -0.24416669 2.0510001 -2.5019738e+38
-0.93564671 -0.24416669 2.0510001 -2.4620436e+38
-0.93174005 -0.24416669 2.0510001 -2.4221148e+38
-0.92783338 -0.24416669 2.0510001 -2.3954781e+38
-0.92933244 -0.24559526 2.0630002 -2.368738e+38
-0.92540294 -0.24559526 2.0630002 -2.3686861e+38
-0.92147338 -0.24559526 2.0630002 -2.3552897e+38
-0.91754389 -0.24559526 2.0630002 -2.3552374e+38
-0.91937149 -0.24714287 2.0760002 -2.341893e+38
-0.92644101 -0.25011906 2.1010001 -2.3285484e+38
-0.9224391 -0.25011906 2.1010001 -2.3152042e+38
-0.92412007 -0.25166669 2.1140001 -2.2886194e+38
-0.92009342 -0.25166669 2.1140001 -2.275327e+38
-0.91606671 -0.25166669 2.1140001 -2.2620345e+38
-0.91204005 -0.25166669 2.1140001 -2.2486903e+38
-0.9080134 -0.25166669 2.1140001 -2.2620864e+38
-0.90398675 -0.25166669 2.1140001 -2.2620864e+38
-0.89442575 -0.25011906 2.1010001 -2.2753265e+38
-0.84889054 -0.23845239 2.003 -2.2885671e+38
-0.84043431 -0.23714288 1.9920001 -2.3417882e+38
-0.83160007 -0.2357143 1.9800001 -2.4081966e+38
-0.82782865 -0.2357143 1.9800001 -2.5010339e+38
-0.81947911 -0.23440477 1.9690001 -2.5947603e+38
-0.8157286 -0.23440477 1.9690001 -2.9558898e+38
-0.80744195 -0.23309526 1.9580001 -3.3021097e+38
-0.79468197 -0.2304762 1.9360001 -2.8878657e+38
-0.79099435 -0.2304762 1.9360001 -2.4750269e+38
-0.7828334 -0.22916669 1.9250001 -2.4754951e+38
-0.7791667 -0.22916669 1.9250001 -2.4889429e+38
-0.77550006 -0.22916669 1.9250001 -2.4623582e+38
-0.77183336 -0.22916669 1.9250001 -2.4490142e+38
-0.76816672 -0.22916669 1.9250001 -2.4357738e+38
-0.76450002 -0.22916669 1.9250001 -2.4224815e+38
-0.76083338 -0.22916669 1.9250001 -2.4357738e+38
-0.75716674 -0.22916669 1.9250001 -2.4490142e+38
-0.75350004 -0.22916669 1.9250001 -2.4357217e+38
-0.74983341 -0.22916669 1.9250001 -2.4224815e+38
-0.74616671 -0.22916669 1.9250001 -2.4224296e+38
-0.74250007 -0.22916669 1.9250001 -2.4223779e+38
-0.73883337 -0.22916669 1.9250001 -2.42243e+38
-0.73516673 -0.22916669 1.9250001 -2.4357225e+38
-0.73150003 -0.22916669 1.9250001 -2.4224304e+38
-0.72783339 -0.22916669 1.9250001 -2.4090864e+38
-0.72416669 -0.22916669 1.9250001 -2.4090866e+38
-0.72050005 -0.22916669 1.9250001 -2.4090351e+38
-0.71683335 -0.22916669 1.9250001 -2.4223795e+38
-0.71316671 -0.22916669 1.9250001 -2.4357237e+38
-0.70950007 -0.22916669 1.9250001 -2.4357756e+38
-0.70583338 -0.22916669 1.9250001 -2.4490681e+38
-0.70216674 -0.22916669 1.9250001 -2.4756527e+38
-0.69850004 -0.22916669 1.9250001 -2.5155297e+38
-0.6948334 -0.22916669 1.9250001 -2.5022893e+38
-0.6911667 -0.22916669 1.9250001 -2.4889969e+38
-0.68750006 -0.22916669 1.9250001 -2.4757044e+38
-0.68383336 -0.22916669 1.9250001 -2.4623083e+38
-0.68016672 -0.22916669 1.9250001 -2.4623602e+38
-0.67650002 -0.22916669 1.9250001 -2.4756005e+38
-0.67283338 -0.22916669 1.9250001 -2.4624119e+38
-0.66916668 -0.22916669 1.9250001 -2.4625675e+38
-0.66930288 -0.2304762 1.9360001 -2.4757038e+38
-0.66561526 -0.2304762 1.9360001 -2.488892e+38
-0.66192764 -0.2304762 1.9360001 -2.5021322e+38
-0.65824002 -0.2304762 1.9360001 -2.5020802e+38
-0.6545524 -0.2304762 1.9360001 -2.4754955e+38
-0.65086478 -0.2304762 1.9360001 -2.448859e+38
-0.64717716 -0.2304762 1.9360001 -2.4356186e+38
-0.64348954 -0.2304762 1.9360001 -2.4223779e+38
-0.63980192 -0.2304762 1.9360001 -2.409085e+38
-0.6361143 -0.2304762 1.9360001 -2.395741e+38
-0.63242668 -0.2304762 1.9360001 -2.3691566e+38
-0.62873912 -0.2304762 1.9360001 -2.3558645e+38
-0.6250515 -0.2304762 1.9360001 -2.3558645e+38
-0.62136388 -0.2304762 1.9360001 -2.3425201e+38
-0.61767626 -0.2304762 1.9360001 -2.342468e+38
-0.61398864 -0.2304762 1.9360001 -2.3557084e+38
-0.61030102 -0.2304762 1.9360001 -2.3423642e+38
-0.6066134 -0.2304762 1.9360001 -2.3290713e+38
-0.60635149 -0.23178573 1.9470001 -2.342311e+38
-0.59923816 -0.2304762 1.9360001 -2.3556554e+38
-0.59555054 -0.2304762 1.9360001 -2.3689477e+38
-0.59522575 -0.23178573 1.9470001 -2.3955321e+38
-0.59151721 -0.23178573 1.9470001 -2.4087203e+38
-0.58780861 -0.23178573 1.9470001 -2.4219091e+38
-0.58410007 -0.23178573 1.9470001 -2.4087211e+38
-0.58039147 -0.23178573 1.9470001 -2.4087217e+38
-0.57994097 -0.23309526 1.9580001 -2.4087741e+38
-0.57944858 -0.23440477 1.9690001 -2.4221185e+38
-0.57569814 -0.23440477 1.9690001 -2.4221706e+38
-0.57194763 -0.23440477 1.9690001 -2.4222227e+38
-0.5713715 -0.2357143 1.9800001 -2.395742e+38
-0.56760001 -0.2357143 1.9800001 -2.3692615e+38
-0.56724572 -0.23714288 1.9920001 -2.3692615e+38
-0.56345147 -0.23714288 1.9920001 -2.3692098e+38
-0.55965716 -0.23714288 1.9920001 -2.3692098e+38
-0.55893242 -0.23845239 2.003 -2.3824501e+38
-0.55844289 -0.23988096 2.0150001 -2.382398e+38
-0.55790764 -0.24130954 2.0270002 -2.3956384e+38
-0.55404669 -0.24130954 2.0270002 -2.3824497e+38
-0.5534429 -0.24273811 2.039 -2.3692094e+38
-0.54955906 -0.24273811 2.039 -2.3691053e+38
-0.54888672 -0.24416669 2.0510001 -2.3690536e+38
-0.54498005 -0.24416669 2.0510001 -2.3558654e+38
-0.54766864 -0.24714287 2.0760002 -2.3559694e+38
-0.54685718 -0.24857144 2.0880001 -2.3693136e+38
-0.54964006 -0.25166669 2.1140001 -2.382658e+38
-0.54561335 -0.25166669 2.1140001 -2.3958984e+38
-0.54491717 -0.2532143 2.1270001 -2.409243e+38
-0.54086578 -0.2532143 2.1270001 -2.44912e+38
-0.54009527 -0.25476193 2.1400001 -2.4890472e+38
-0.53601909 -0.25476193 2.1400001 -2.2890383e+38
-0.51250577 -0.2532143 2.1270001 nan
-0.50845432 -0.2532143 2.1270001 nan
-0.50132 -0.25166669 2.1140001 nan
-0.49729335 -0.25166669 2.1140001 -3.2066619e+38
-0.49023336 -0.25011906 2.1010001 -2.3531047e+38
-0.4832229 -0.24857144 2.0880001 -2.4212321e+38
-0.47924575 -0.24857144 2.0880001 -2.5016099e+38
-0.4752686 -0.24857144 2.0880001 -2.475234e+38
-0.47129145 -0.24857144 2.0880001 -2.4619424e+38
-0.4673143 -0.24857144 2.0880001 -2.4487543e+38
-0.46333718 -0.24857144 2.0880001 -2.435514e+38
