# .PCD v0.7 - Point Cloud Data file format
VERSION 0.7
FIELDS x y z rgb
SIZE 4 4 4 4
TYPE F F F F
COUNT 1 1 1 1
WIDTH 1072
HEIGHT 1
VIEWPOINT 0 0 0 1 0 0 0
POINTS 1072
DATA ascii
3.0293214 -1.4103251 2.0934646 -2.5016079e+38
3.006335 -1.4048438 2.0865645 -2.5147452e+38
3.0063214 -1.4102191 2.0865645 -2.5411748e+38
3.0063081 -1.4155943 2.0865645 -2.5676036e+38
3.0062947 -1.4209695 2.0865645 -2.5144345e+38
3.0062811 -1.4263448 2.0865645 -2.4628804e+38
3.0062678 -1.43172 2.0865645 -2.7038085e+38
3.0062544 -1.4370953 2.0865645 -2.9422886e+38
3.0062408 -1.4424704 2.0865645 -2.9022021e+38
3.0062275 -1.4478456 2.0865645 -2.8486151e+38
3.0062141 -1.4532208 2.0865645 -2.727892e+38
3.0062006 -1.4585961 2.0865645 -2.5950722e+38
3.0061872 -1.4639714 2.0865645 -2.6222273e+38
3.0061738 -1.4693465 2.0865645 -2.6481862e+38
3.0061603 -1.4747218 2.0865645 -2.6071125e+38
2.9831758 -1.4685833 2.0796645 -2.5539436e+38
2.96119 -1.4628599 2.0730646 -2.5269958e+38
3.00612 -1.4908473 2.0865645 -2.5008274e+38
2.9611635 -1.4734389 2.0730646 -2.4749708e+38
2.9611504 -1.4787283 2.0730646 -2.4482828e+38
2.9381664 -1.4722852 2.0661645 -2.4353544e+38
2.9381533 -1.4775308 2.0661645 -2.4086144e+38
2.9381402 -1.4827764 2.0661645 -2.4086146e+38
2.938127 -1.4880222 2.0661645 -2.3952183e+38
2.9381139 -1.4932679 2.0661645 -2.4084065e+38
2.9381008 -1.4985136 2.0661645 -2.4085102e+38
2.9380877 -1.5037593 2.0661645 -2.3952177e+38
2.9380746 -1.5090051 2.0661645 -2.3819254e+38
2.9380615 -1.5142508 2.0661645 -2.3819773e+38
2.9380484 -1.5194963 2.0661645 -2.3818218e+38
2.9380352 -1.524742 2.0661645 -2.3683739e+38
2.9380221 -1.5299878 2.0661645 -2.3551853e+38
2.938009 -1.5352335 2.0661645 -2.3418411e+38
2.9170237 -1.5292467 2.0598645 -2.315308e+38
2.9170108 -1.5344524 2.0598645 -2.3152559e+38
2.9169977 -1.5396582 2.0598645 -2.3020679e+38
2.9609256 -1.56865 2.0730646 -2.2755357e+38
2.9379435 -1.5614619 2.0661645 -2.2357109e+38
3.2306216 -1.2905318 2.1479626 -3.1552799e+38
3.2036343 -1.2854406 2.139914 -3.0492011e+38
3.2036197 -1.2911909 2.139914 -2.9435889e+38
3.1776316 -1.2863528 2.1321635 -2.9294132e+38
3.1776175 -1.2920536 2.1321635 -2.9022562e+38
3.1516299 -1.2870666 2.124413 -2.8488261e+38
3.1516159 -1.2927181 2.124413 -2.78226e+38
3.1266277 -1.2879975 2.1169608 -2.7423302e+38
3.1266136 -1.2936013 2.1169608 -2.7156408e+38
3.1265996 -1.2992051 2.1169608 -2.6624188e+38
3.1265857 -1.3048089 2.1169608 -2.6224882e+38
3.1265717 -1.3104126 2.1169608 -2.5286616e+38
3.1265576 -1.3160164 2.1169608 -2.4223225e+38
3.1265435 -1.3216203 2.1169608 -2.4347832e+38
3.1265297 -1.327224 2.1169608 -2.4477631e+38
3.1265156 -1.3328278 2.1169608 -2.4079893e+38
3.1265016 -1.3384316 2.1169608 -2.3813528e+38
3.1264875 -1.3440354 2.1169608 -2.3681125e+38
3.1015005 -1.3387434 2.1095083 -2.354976e+38
3.1264596 -1.3552431 2.1169608 -2.3683719e+38
3.1014729 -1.3498558 2.1095083 -2.3817684e+38
3.1014588 -1.355412 2.1095083 -2.3685285e+38
3.101445 -1.3609682 2.1095083 -2.3553922e+38
3.1014311 -1.3665242 2.1095083 -2.3685289e+38
3.1014173 -1.3720804 2.1095083 -2.3815618e+38
3.0774302 -1.3668567 2.102354 -2.3817175e+38
3.0774164 -1.3723671 2.102354 -2.3948542e+38
3.0064828 -1.3457165 2.0811892 -2.4083542e+38
2.9834955 -1.3406295 2.0743332 -2.4349907e+38
2.9834821 -1.3459609 2.0743332 -2.461575e+38
2.983469 -1.3512924 2.0743332 -2.4749195e+38
3.0294027 -1.377811 2.0880456 -2.5015561e+38
3.0293891 -1.38323 2.0880456 -2.5148999e+38
3.0293756 -1.388649 2.0880456 -2.5149515e+38
3.029362 -1.3940681 2.0880456 -2.5016588e+38
3.0293486 -1.3994871 2.0880456 -2.4882103e+38
3.029335 -1.404906 2.0880456 -2.4615742e+38
3.0293214 -1.4103251 2.0880456 -2.4481264e+38
3.0293078 -1.4157442 2.0880456 -2.4349394e+38
3.0292943 -1.4211632 2.0880456 -2.3944926e+38
3.0292807 -1.4265822 2.0880456 -2.3680638e+38
3.0062947 -1.4209695 2.0811892 -2.4620442e+38
3.0062811 -1.4263448 2.0811892 -2.5564493e+38
3.0062678 -1.43172 2.0811892 -2.7971211e+38
3.0062544 -1.4370953 2.0811892 -3.0498272e+38
3.0062408 -1.4424704 2.0811892 -2.9564667e+38
3.0062275 -1.4478456 2.0811892 -2.8500712e+38
3.0062141 -1.4532208 2.0811892 -2.795443e+38
3.0062006 -1.4585961 2.0811892 -2.740664e+38
3.0061872 -1.4639714 2.0811892 -2.7551501e+38
3.0061738 -1.4693465 2.0811892 -2.7818343e+38
3.0061603 -1.4747218 2.0811892 -2.6612649e+38
3.0061469 -1.4800969 2.0811892 -2.5406493e+38
3.0061333 -1.4854722 2.0811892 -2.5809427e+38
3.00612 -1.4908473 2.0811892 -2.6340096e+38
2.9611635 -1.4734389 2.067775 -2.5547249e+38
2.9381795 -1.4670395 2.0609188 -2.4879525e+38
2.9381664 -1.4722852 2.0609188 -2.4484917e+38
2.9381533 -1.4775308 2.0609188 -2.408667e+38
2.9381402 -1.4827764 2.0609188 -2.3953747e+38
2.938127 -1.4880222 2.0609188 -2.3819262e+38
2.9381139 -1.4932679 2.0609188 -2.3819777e+38
2.9381008 -1.4985136 2.0609188 -2.3820814e+38
2.9380877 -1.5037593 2.0609188 -2.3686329e+38
2.9380746 -1.5090051 2.0609188 -2.3552887e+38
2.9380615 -1.5142508 2.0609188 -2.3418924e+38
2.9380484 -1.5194963 2.0609188 -2.3416849e+38
2.9380352 -1.524742 2.0609188 -2.3417888e+38
2.9380221 -1.5299878 2.0609188 -2.3285486e+38
2.938009 -1.5352335 2.0609188 -2.3285488e+38
2.9170237 -1.5292467 2.0546589 -2.3153085e+38
2.9170108 -1.5344524 2.0546589 -2.3154121e+38
2.9169977 -1.5396582 2.0546589 -2.3288088e+38
2.9379566 -1.5562162 2.0609188 -2.3155691e+38
2.9609125 -1.5739396 2.067775 -2.3023291e+38
3.2576091 -1.2955202 2.1501579 nan
3.2306216 -1.2905318 2.1421607 -3.0085423e+38
3.2036343 -1.2854406 2.1341636 -2.9680939e+38
3.2036197 -1.2911909 2.1341636 -2.9287887e+38
3.2036054 -1.2969414 2.1341636 -2.8886526e+38
3.1776175 -1.2920536 2.1264627 -2.8355346e+38
3.1516299 -1.2870666 2.1187615 -2.7823128e+38
3.1516159 -1.2927181 2.1187615 -2.7290907e+38
3.1266277 -1.2879975 2.111357 -2.689213e+38
3.1266136 -1.2936013 2.111357 -2.6359389e+38
3.1265996 -1.2992051 2.111357 -2.5560282e+38
3.1265857 -1.3048089 2.111357 -2.4755454e+38
3.1265717 -1.3104126 2.111357 -2.4342127e+38
3.1265576 -1.3160164 2.111357 -2.3944902e+38
3.1265435 -1.3216203 2.111357 -2.3938657e+38
3.1265297 -1.327224 2.111357 -2.3810924e+38
3.1265156 -1.3328278 2.111357 -2.3679038e+38
3.1265016 -1.3384316 2.111357 -2.354716e+38
3.1264875 -1.3440354 2.111357 -2.3547685e+38
3.1264737 -1.3496392 2.111357 -2.3417362e+38
3.1264596 -1.3552431 2.111357 -2.3685289e+38
3.1014729 -1.3498558 2.1039522 -2.3951136e+38
3.1014588 -1.355412 2.1039522 -2.3819256e+38
3.101445 -1.3609682 2.1039522 -2.3554449e+38
3.1014311 -1.3665242 2.1039522 -2.3686855e+38
3.1014173 -1.3720804 2.1039522 -2.3687372e+38
3.0774302 -1.3668567 2.0968437 -2.3554968e+38
3.0064962 -1.3403412 2.075814 -2.3421003e+38
3.0064828 -1.3457165 2.075814 -2.3952692e+38
3.0064692 -1.3510916 2.075814 -2.4350418e+38
3.0064559 -1.3564669 2.075814 -2.4481779e+38
3.0064425 -1.3618422 2.075814 -2.4483339e+38
3.0294027 -1.377811 2.0826263 -2.4883148e+38
3.0293891 -1.38323 2.0826263 -2.5148993e+38
3.0293756 -1.388649 2.0826263 -2.501763e+38
3.029362 -1.3940681 2.0826263 -2.4748667e+38
3.0293486 -1.3994871 2.0826263 -2.4614185e+38
3.029335 -1.404906 2.0826263 -2.4346781e+38
3.0063484 -1.3994687 2.075814 -2.3944376e+38
3.0293078 -1.4157442 2.0826263 -2.3541983e+38
3.0292943 -1.4211632 2.0826263 -2.2603226e+38
3.0063081 -1.4155943 2.075814 -2.1553896e+38
3.0062947 -1.4209695 2.075814 -2.3959519e+38
3.0062811 -1.4263448 2.075814 -2.6369329e+38
3.0062678 -1.43172 2.075814 -2.9048619e+38
3.0062544 -1.4370953 2.075814 -3.1568423e+38
3.0062408 -1.4424704 2.075814 -3.0103655e+38
3.0062275 -1.4478456 2.075814 -2.850127e+38
3.0062141 -1.4532208 2.075814 -2.8630516e+38
3.0062006 -1.4585961 2.075814 -2.8756177e+38
3.0061872 -1.4639714 2.075814 -2.9024627e+38
3.0061738 -1.4693465 2.075814 -2.9154915e+38
3.0061603 -1.4747218 2.075814 -2.7286688e+38
2.9382319 -1.4460566 2.0556731 -2.5289731e+38
2.9382188 -1.4513023 2.0556731 -2.6487596e+38
2.9382057 -1.456548 2.0556731 -2.7548897e+38
2.9381926 -1.4617937 2.0556731 -2.635259e+38
2.9381795 -1.4670395 2.0556731 -2.5151612e+38
2.9381664 -1.4722852 2.0556731 -2.4619401e+38
2.9381533 -1.4775308 2.0556731 -2.408771e+38
2.9381402 -1.4827764 2.0556731 -2.3954787e+38
2.938127 -1.4880222 2.0556731 -2.3688416e+38
2.9381139 -1.4932679 2.0556731 -2.3688412e+38
2.9381008 -1.4985136 2.0556731 -2.3553926e+38
2.9380877 -1.5037593 2.0556731 -2.341996e+38
2.9380746 -1.5090051 2.0556731 -2.3153594e+38
2.9380615 -1.5142508 2.0556731 -2.3151517e+38
2.9380484 -1.5194963 2.0556731 -2.3019115e+38
2.9380352 -1.524742 2.0556731 -2.3020158e+38
2.9380221 -1.5299878 2.0556731 -2.3019642e+38
2.938009 -1.5352335 2.0556731 -2.3152569e+38
2.9170237 -1.5292467 2.0494533 -2.3153608e+38
2.9170108 -1.5344524 2.0494533 -2.3288088e+38
2.9169977 -1.5396582 2.0494533 -2.3421015e+38
2.9379566 -1.5562162 2.0556731 -2.355498e+38
2.9379435 -1.5614619 2.0556731 -2.355654e+38
3.2576091 -1.2955202 2.1443045 -3.2352352e+38
3.2306216 -1.2905318 2.1363587 -2.7022974e+38
3.2036343 -1.2854406 2.1284132 -2.7687063e+38
3.2036197 -1.2911909 2.1284132 -2.8483578e+38
3.2036054 -1.2969414 2.1284132 -2.7821574e+38
3.1776175 -1.2920536 2.1207616 -2.72904e+38
3.1776032 -1.2977545 2.1207616 -2.7025072e+38
3.1516159 -1.2927181 2.1131103 -2.6626293e+38
3.1516018 -1.2983694 2.1131103 -2.5961669e+38
3.1515877 -1.3040209 2.1131103 -2.5429444e+38
3.1265996 -1.2992051 2.1057532 -2.5025469e+38
3.1265857 -1.3048089 2.1057532 -2.4754409e+38
3.1265717 -1.3104126 2.1057532 -2.421179e+38
3.1265576 -1.3160164 2.1057532 -2.3540925e+38
3.1265435 -1.3216203 2.1057532 -2.3542981e+38
3.1265297 -1.327224 2.1057532 -2.3680062e+38
3.1265156 -1.3328278 2.1057532 -2.3413699e+38
3.1265016 -1.3384316 2.1057532 -2.3147868e+38
3.1264875 -1.3440354 2.1057532 -2.2884111e+38
3.1015005 -1.3387434 2.0983958 -2.2753276e+38
3.1014867 -1.3442997 2.0983958 -2.3019649e+38
3.1014729 -1.3498558 2.0983958 -2.3419457e+38
3.1014588 -1.355412 2.0983958 -2.3553419e+38
3.101445 -1.3609682 2.0983958 -2.3689459e+38
3.1014311 -1.3665242 2.0983958 -2.3821862e+38
3.1014173 -1.3720804 2.0983958 -2.40903e+38
3.0774302 -1.3668567 2.0913332 -2.3823412e+38
3.0774164 -1.3723671 2.0913332 -2.355756e+38
3.0064828 -1.3457165 2.0704389 -2.382184e+38
3.0064692 -1.3510916 2.0704389 -2.3953199e+38
3.0064559 -1.3564669 2.0704389 -2.4085075e+38
3.0533891 -1.3834006 2.0842702 -2.4217481e+38
3.0294027 -1.377811 2.0772073 -2.4350406e+38
3.0293891 -1.38323 2.0772073 -2.4482816e+38
3.0293756 -1.388649 2.0772073 -2.3949573e+38
3.029362 -1.3940681 2.0772073 -2.3415287e+38
3.0293486 -1.3994871 2.0772073 -2.2217424e+38
3.029335 -1.404906 2.0772073 -2.0889231e+38
3.0063484 -1.3994687 2.0704389 -2.1017994e+38
3.006335 -1.4048438 2.0704389 -2.1144173e+38
3.0063214 -1.4102191 2.0704389 -2.2485868e+38
3.0063081 -1.4155943 2.0704389 -2.3947048e+38
3.0062947 -1.4209695 2.0704389 -2.5964841e+38
3.0062811 -1.4263448 2.0704389 -2.796755e+38
3.0062678 -1.43172 2.0704389 -2.9442201e+38
3.0062544 -1.4370953 2.0704389 -3.1039344e+38
3.0062408 -1.4424704 2.0704389 -3.1034663e+38
3.0062275 -1.4478456 2.0704389 -3.1156649e+38
3.0062141 -1.4532208 2.0704389 -3.0893886e+38
3.0062006 -1.4585961 2.0704389 -3.0627023e+38
3.0061872 -1.4639714 2.0704389 -3.0497233e+38
3.0061738 -1.4693465 2.0704389 -3.0496161e+38
3.0061603 -1.4747218 2.0704389 -2.9425472e+38
2.9612033 -1.4575703 2.0571959 -2.849033e+38
2.96119 -1.4628599 2.0571959 -2.7556742e+38
2.9382057 -1.456548 2.0504274 -2.6495417e+38
2.9381926 -1.4617937 2.0504274 -2.568955e+38
2.9381795 -1.4670395 2.0504274 -2.5020257e+38
2.9381664 -1.4722852 2.0504274 -2.4354598e+38
2.9381533 -1.4775308 2.0504274 -2.3823424e+38
2.9381402 -1.4827764 2.0504274 -2.3556019e+38
2.938127 -1.4880222 2.0504274 -2.3290688e+38
2.9381139 -1.4932679 2.0504274 -2.3022241e+38
2.9381008 -1.4985136 2.0504274 -2.2622426e+38
2.9380877 -1.5037593 2.0504274 -2.2621898e+38
2.9380746 -1.5090051 2.0504274 -2.2488976e+38
2.9380615 -1.5142508 2.0504274 -2.2753781e+38
2.9380484 -1.5194963 2.0504274 -2.288671e+38
2.9170628 -1.5136297 2.0442474 -2.2886196e+38
2.9380221 -1.5299878 2.0504274 -2.2885683e+38
2.9170368 -1.5240411 2.0442474 -2.3019649e+38
2.9170237 -1.5292467 2.0442474 -2.3020689e+38
2.9170108 -1.5344524 2.0442474 -2.3153614e+38
2.9379697 -1.5509707 2.0504274 -2.3419462e+38
2.9379566 -1.5562162 2.0504274 -2.3421538e+38
2.9169717 -1.5500696 2.0442474 -2.3557059e+38
3.2576239 -1.2896668 2.1384511 nan
3.2306361 -1.28473 2.1305571 -2.9677759e+38
3.2306216 -1.2905318 2.1305571 -2.3963129e+38
3.2036343 -1.2854406 2.1226625 -2.5827178e+38
3.2036197 -1.2911909 2.1226625 -2.7554668e+38
3.2036054 -1.2969414 2.1226625 -2.6891106e+38
3.1776175 -1.2920536 2.1150608 -2.6226492e+38
3.1776032 -1.2977545 2.1150608 -2.6093569e+38
3.1516159 -1.2927181 2.1074588 -2.5961669e+38
3.1516018 -1.2983694 2.1074588 -2.5163599e+38
3.1515877 -1.3040209 2.1074588 -2.4361371e+38
3.1515734 -1.3096722 2.1074588 -2.4622523e+38
3.1265857 -1.3048089 2.1001492 -2.4748162e+38
3.1265717 -1.3104126 2.1001492 -2.3944378e+38
3.1265576 -1.3160164 2.1001492 -2.3145791e+38
3.1265435 -1.3216203 2.1001492 -2.3278702e+38
3.1265297 -1.327224 2.1001492 -2.3413703e+38
3.1265156 -1.3328278 2.1001492 -2.314786e+38
3.1265016 -1.3384316 2.1001492 -2.2750657e+38
3.1015143 -1.3331872 2.0928397 -2.2352416e+38
3.1015005 -1.3387434 2.0928397 -2.1955216e+38
3.1014867 -1.3442997 2.0928397 -2.2486917e+38
3.1014729 -1.3498558 2.0928397 -2.2886207e+38
3.1014588 -1.355412 2.0928397 -2.3285496e+38
3.0774715 -1.3503253 2.0858226 -2.3686346e+38
3.0774577 -1.3558358 2.0858226 -2.4087195e+38
3.0774441 -1.3613464 2.0858226 -2.4355113e+38
3.0774302 -1.3668567 2.0858226 -2.4090304e+38
3.0774164 -1.3723671 2.0858226 -2.3691011e+38
3.0774026 -1.3778776 2.0858226 -2.3689966e+38
3.0534163 -1.372471 2.0788054 -2.3555995e+38
3.0064559 -1.3564669 2.0650635 -2.3820274e+38
3.0533891 -1.3834006 2.0788054 -2.395268e+38
3.0533755 -1.3888654 2.0788054 -2.3951124e+38
3.0293891 -1.38323 2.0717883 -2.3816127e+38
3.0293756 -1.388649 2.0717883 -2.3014955e+38
3.029362 -1.3940681 2.0717883 -2.2082404e+38
3.0293486 -1.3994871 2.0717883 -1.9818551e+38
3.029335 -1.404906 2.0717883 -1.742545e+38
3.0063484 -1.3994687 2.0650635 -1.8093209e+38
3.006335 -1.4048438 2.0650635 -1.8638962e+38
3.0063214 -1.4102191 2.0650635 -2.2514535e+38
3.0063081 -1.4155943 2.0650635 -2.6369856e+38
3.0062947 -1.4209695 2.0650635 -2.7985219e+38
3.0062811 -1.4263448 2.0650635 -2.9575114e+38
3.0062678 -1.43172 2.0650635 -2.9979087e+38
3.0062544 -1.4370953 2.0650635 -3.0377859e+38
3.0062408 -1.4424704 2.0650635 -3.2105339e+38
3.0062275 -1.4478456 2.0650635 -3.3696244e+38
3.0062141 -1.4532208 2.0650635 -3.3028498e+38
3.0062006 -1.4585961 2.0650635 -3.236597e+38
3.0061872 -1.4639714 2.0650635 -3.2105842e+38
3.0061738 -1.4693465 2.0650635 -3.1700299e+38
3.0061603 -1.4747218 2.0650635 -3.1694563e+38
2.9382319 -1.4460566 2.0451818 -3.1687249e+38
2.9382188 -1.4513023 2.0451818 -2.8619595e+38
2.9382057 -1.456548 2.0451818 -2.5426838e+38
2.9381926 -1.4617937 2.0451818 -2.5156303e+38
2.9381795 -1.4670395 2.0451818 -2.4754413e+38
2.9381664 -1.4722852 2.0451818 -2.4087716e+38
2.9381533 -1.4775308 2.0451818 -2.342206e+38
2.9381402 -1.4827764 2.0451818 -2.3154135e+38
2.938127 -1.4880222 2.0451818 -2.2888281e+38
2.9381139 -1.4932679 2.0451818 -2.2353469e+38
2.9381008 -1.4985136 2.0451818 -2.1690408e+38
2.9380877 -1.5037593 2.0451818 -2.1823327e+38
2.9380746 -1.5090051 2.0451818 -2.1823327e+38
2.9380615 -1.5142508 2.0451818 -2.235398e+38
2.9380484 -1.5194963 2.0451818 -2.2752233e+38
2.9170628 -1.5136297 2.0390418 -2.2752237e+38
2.9380221 -1.5299878 2.0451818 -2.2753278e+38
2.9170368 -1.5240411 2.0390418 -2.2886722e+38
2.9170237 -1.5292467 2.0390418 -2.2886722e+38
2.9170108 -1.5344524 2.0390418 -2.3151529e+38
2.9169977 -1.5396582 2.0390418 -2.3286015e+38
2.9379566 -1.5562162 2.0451818 -2.3419981e+38
2.9379435 -1.5614619 2.0451818 -2.3554985e+38
3.2306652 -1.2731261 2.1247549 nan
3.2306507 -1.278928 2.1247549 nan
3.2306361 -1.28473 2.1247549 -2.928466e+38
3.2306216 -1.2905318 2.1247549 -2.3692588e+38
3.2036343 -1.2854406 2.1169121 -2.555925e+38
3.2036197 -1.2911909 2.1169121 -2.7422258e+38
3.2036054 -1.2969414 2.1169121 -2.6757656e+38
3.2035911 -1.3026918 2.1169121 -2.6093044e+38
3.2035768 -1.3084424 2.1169121 -2.5562911e+38
3.1775889 -1.3034555 2.1093597 -2.503172e+38
3.1775746 -1.3091564 2.1093597 -2.4758585e+38
3.1775606 -1.3148574 2.1093597 -2.4623042e+38
3.1515734 -1.3096722 2.1018074 -2.4482826e+38
3.1515594 -1.3153237 2.1018074 -2.447555e+38
3.1265717 -1.3104126 2.0945454 -2.3811967e+38
3.1265576 -1.3160164 2.0945454 -2.3147349e+38
3.1265435 -1.3216203 2.0945454 -2.3148381e+38
3.1265297 -1.327224 2.0945454 -2.3282864e+38
3.1015422 -1.322075 2.0872836 -2.3018058e+38
3.1015284 -1.327631 2.0872836 -2.2753255e+38
3.1015143 -1.3331872 2.0872836 -2.2355008e+38
3.1015005 -1.3387434 2.0872836 -2.2088134e+38
3.1014867 -1.3442997 2.0872836 -2.2353471e+38
3.0774992 -1.3393044 2.0803123 -2.2752243e+38
3.0774853 -1.3448149 2.0803123 -2.2751726e+38
3.0774715 -1.3503253 2.0803123 -2.2751734e+38
3.0774577 -1.3558358 2.0803123 -2.3287066e+38
3.0774441 -1.3613464 2.0803123 -2.3690505e+38
3.0774302 -1.3668567 2.0803123 -2.3690503e+38
3.0534437 -1.3615416 2.0733407 -2.3559134e+38
3.0534301 -1.3670063 2.0733407 -2.355809e+38
3.0534163 -1.372471 2.0733407 -2.3689964e+38
3.0773752 -1.3888986 2.0803123 -2.3821838e+38
3.0773613 -1.3944091 2.0803123 -2.4086647e+38
3.0533755 -1.3888654 2.0733407 -2.4084572e+38
3.0293891 -1.38323 2.0663693 -2.4214376e+38
3.0293756 -1.388649 2.0663693 -2.3680084e+38
3.029362 -1.3940681 2.0663693 -2.3144211e+38
3.0293486 -1.3994871 2.0663693 -2.1813916e+38
3.0063617 -1.3940935 2.0596883 -2.0604176e+38
3.0063484 -1.3994687 2.0596883 -2.3295406e+38
3.006335 -1.4048438 2.0596883 -2.6095174e+38
2.9833491 -1.3992751 2.0530074 -2.8903766e+38
3.0063081 -1.4155943 2.0596883 -3.1829638e+38
3.0062947 -1.4209695 2.0596883 -3.0773537e+38
3.0062811 -1.4263448 2.0596883 -2.9842026e+38
3.0062678 -1.43172 2.0596883 -3.051078e+38
3.0062544 -1.4370953 2.0596883 -3.1311446e+38
3.0062408 -1.4424704 2.0596883 -3.3174976e+38
2.9832556 -1.436595 2.0530074 nan
3.0062141 -1.4532208 2.0596883 nan
3.0062006 -1.4585961 2.0596883 nan
3.0061872 -1.4639714 2.0596883 -3.3968872e+38
3.0061738 -1.4693465 2.0596883 -3.3434051e+38
3.0061603 -1.4747218 2.0596883 -3.1701887e+38
2.9382319 -1.4460566 2.0399361 -2.996914e+38
2.9382188 -1.4513023 2.0399361 -2.7157435e+38
2.9382057 -1.456548 2.0399361 -2.4360336e+38
2.9381926 -1.4617937 2.0399361 -2.4090846e+38
2.9381795 -1.4670395 2.0399361 -2.3822398e+38
2.9381664 -1.4722852 2.0399361 -2.3421545e+38
2.9381533 -1.4775308 2.0399361 -2.3022253e+38
2.9381402 -1.4827764 2.0399361 -2.2887768e+38
2.938127 -1.4880222 2.0399361 -2.2754318e+38
2.9381139 -1.4932679 2.0399361 -2.2487945e+38
2.9381008 -1.4985136 2.0399361 -2.2222619e+38
2.9171147 -1.4928069 2.0338359 -2.2355022e+38
2.9171019 -1.4980125 2.0338359 -2.2488466e+38
2.9380615 -1.5142508 2.0399361 -2.2752754e+38
2.9380484 -1.5194963 2.0399361 -2.3149448e+38
2.9380352 -1.524742 2.0399361 -2.3152046e+38
2.9380221 -1.5299878 2.0399361 -2.3153082e+38
2.938009 -1.5352335 2.0399361 -2.31536e+38
2.9170237 -1.5292467 2.0338359 -2.315308e+38
2.9379828 -1.5457249 2.0399361 -2.3286001e+38
2.9379697 -1.5509707 2.0399361 -2.3418415e+38
2.9379566 -1.5562162 2.0399361 -2.34205e+38
2.9609125 -1.5739396 2.046617 -2.3554467e+38
3.2306652 -1.2731261 2.1189532 nan
3.2306507 -1.278928 2.1189532 nan
3.2306361 -1.28473 2.1189532 -2.8871901e+38
3.2036486 -1.27969 2.1111617 -2.3294351e+38
3.2036343 -1.2854406 2.1111617 -2.5294442e+38
3.2036197 -1.2911909 2.1111617 -2.7155889e+38
3.2036054 -1.2969414 2.1111617 -2.6624725e+38
3.2035911 -1.3026918 2.1111617 -2.5960628e+38
3.2035768 -1.3084424 2.1111617 -2.5033284e+38
3.2035623 -1.3141928 2.1111617 -2.396261e+38
3.1775746 -1.3091564 2.1036589 -2.4482339e+38
3.1775606 -1.3148574 2.1036589 -2.4880051e+38
3.1515734 -1.3096722 2.0961559 -2.4475033e+38
3.1265857 -1.3048089 2.0889416 -2.407782e+38
3.1265717 -1.3104126 2.0889416 -2.3547166e+38
3.1265576 -1.3160164 2.0889416 -2.301599e+38
3.1265435 -1.3216203 2.0889416 -2.314943e+38
3.1265297 -1.327224 2.0889416 -2.3152024e+38
3.1015422 -1.322075 2.0817275 -2.2888774e+38
3.1015284 -1.327631 2.0817275 -2.2623448e+38
3.1015143 -1.3331872 2.0817275 -2.2491566e+38
3.1015005 -1.3387434 2.0817275 -2.2222091e+38
3.1014867 -1.3442997 2.0817275 -2.2352945e+38
3.0774992 -1.3393044 2.0748017 -2.2484832e+38
3.0774853 -1.3448149 2.0748017 -2.2216392e+38
3.0534983 -1.3396826 2.0678759 -2.1819709e+38
3.0534847 -1.3451474 2.0678759 -2.2485371e+38
3.0534711 -1.350612 2.0678759 -2.3021218e+38
3.0534573 -1.3560768 2.0678759 -2.3289664e+38
3.0534437 -1.3615416 2.0678759 -2.3424662e+38
3.0534301 -1.3670063 2.0678759 -2.3558623e+38
3.0534163 -1.372471 2.0678759 -2.3691536e+38
3.0534027 -1.3779358 2.0678759 -2.3956852e+38
3.0533891 -1.3834006 2.0678759 -2.4220617e+38
3.0533755 -1.3888654 2.0678759 -2.4351459e+38
3.0293891 -1.38323 2.0609503 -2.4482304e+38
3.0293756 -1.388649 2.0609503 -2.4346266e+38
3.029362 -1.3940681 2.0609503 -2.4080417e+38
3.0293486 -1.3994871 2.0609503 -2.3954759e+38
3.0063617 -1.3940935 2.0543132 -2.3698339e+38
3.0063484 -1.3994687 2.0543132 -2.8655505e+38
3.006335 -1.4048438 2.0543132 -3.3568512e+38
3.0063214 -1.4102191 2.0543132 nan
3.0063081 -1.4155943 2.0543132 nan
2.9833224 -1.4099377 2.0476761 -3.357012e+38
2.983309 -1.4152693 2.0476761 -2.9978596e+38
2.9832957 -1.4206007 2.0476761 -3.1043526e+38
2.9832823 -1.425932 2.0476761 -3.2110038e+38
2.983269 -1.4312636 2.0476761 nan
2.9832556 -1.436595 2.0476761 nan
3.0062141 -1.4532208 2.0543132 nan
3.0062006 -1.4585961 2.0543132 nan
3.0061872 -1.4639714 2.0543132 nan
3.0061738 -1.4693465 2.0543132 nan
3.0061603 -1.4747218 2.0543132 -3.1709118e+38
2.9612033 -1.4575703 2.0413275 -2.8231757e+38
2.96119 -1.4628599 2.0413275 -2.5814145e+38
2.9611769 -1.4681494 2.0413275 -2.3289658e+38
2.9381926 -1.4617937 2.0346904 -2.3023301e+38
2.9381795 -1.4670395 2.0346904 -2.2755892e+38
2.9381664 -1.4722852 2.0346904 -2.2752771e+38
2.9381533 -1.4775308 2.0346904 -2.2621403e+38
2.9381402 -1.4827764 2.0346904 -2.2620363e+38
2.938127 -1.4880222 2.0346904 -2.2621395e+38
2.9381139 -1.4932679 2.0346904 -2.2754312e+38
2.9381008 -1.4985136 2.0346904 -2.2754314e+38
2.9171147 -1.4928069 2.0286303 -2.3019121e+38
2.9171019 -1.4980125 2.0286303 -2.3152565e+38
2.9380615 -1.5142508 2.0346904 -2.328549e+38
2.9380484 -1.5194963 2.0346904 -2.3418932e+38
2.9380352 -1.524742 2.0346904 -2.3420492e+38
2.9380221 -1.5299878 2.0346904 -2.342049e+38
2.9170368 -1.5240411 2.0286303 -2.3421009e+38
2.9170237 -1.5292467 2.0286303 -2.3420488e+38
2.9170108 -1.5344524 2.0286303 -2.3420486e+38
2.9169977 -1.5396582 2.0286303 -2.3421013e+38
2.9169846 -1.5448639 2.0286303 -2.3554463e+38
2.9169717 -1.5500696 2.0286303 -2.3554987e+38
3.2306795 -1.2673242 2.1131511 nan
3.2306652 -1.2731261 2.1131511 nan
3.2306507 -1.278928 2.1131511 nan
3.2036629 -1.2739396 2.1054113 -3.087875e+38
3.2036486 -1.27969 2.1054113 -2.542113e+38
3.2036343 -1.2854406 2.1054113 -2.6089902e+38
3.2036197 -1.2911909 2.1054113 -2.688952e+38
3.2036054 -1.2969414 2.1054113 -2.622335e+38
3.2035911 -1.3026918 2.1054113 -2.5425812e+38
3.2035768 -1.3084424 2.1054113 -2.4760155e+38
3.2035623 -1.3141928 2.1054113 -2.4093442e+38
3.1775746 -1.3091564 2.0979578 -2.4083554e+38
3.1775606 -1.3148574 2.0979578 -2.4212311e+38
3.1515734 -1.3096722 2.0905046 -2.3812492e+38
3.1515594 -1.3153237 2.0905046 -2.3413726e+38
3.1265717 -1.3104126 2.0833378 -2.314944e+38
3.1265576 -1.3160164 2.0833378 -2.3017555e+38
3.1265435 -1.3216203 2.0833378 -2.3151515e+38
3.1265297 -1.327224 2.0833378 -2.3287032e+38
3.1015422 -1.322075 2.0761712 -2.3155662e+38
3.1015284 -1.327631 2.0761712 -2.3157737e+38
3.1015143 -1.3331872 2.0761712 -2.2889294e+38
3.1015005 -1.3387434 2.0761712 -2.2620339e+38
3.1014867 -1.3442997 2.0761712 -2.2619823e+38
3.0774992 -1.3393044 2.0692911 -2.2750152e+38
3.0774853 -1.3448149 2.0692911 -2.2350345e+38
3.0534983 -1.3396826 2.0624113 -2.208451e+38
3.0534847 -1.3451474 2.0624113 -2.2484327e+38
3.0534711 -1.350612 2.0624113 -2.2884144e+38
3.0534573 -1.3560768 2.0624113 -2.302019e+38
3.0534437 -1.3615416 2.0624113 -2.3157269e+38
3.0294569 -1.3561349 2.0555313 -2.3292271e+38
3.0294433 -1.3615539 2.0555313 -2.3559664e+38
3.0534027 -1.3779358 2.0624113 -2.3824461e+38
3.0533891 -1.3834006 2.0624113 -2.4089258e+38
3.0294027 -1.377811 2.0555313 -2.4354055e+38
3.0293891 -1.38323 2.0555313 -2.4618866e+38
3.0293756 -1.388649 2.0555313 -2.4747639e+38
3.029362 -1.3940681 2.0555313 -2.4875392e+38
3.0293486 -1.3994871 2.0555313 -2.4887873e+38
3.0063617 -1.3940935 2.0489378 -2.4901469e+38
3.0063484 -1.3994687 2.0489378 -2.8781248e+38
3.006335 -1.4048438 2.0489378 -3.2783503e+38
3.0063214 -1.4102191 2.0489378 nan
2.9833357 -1.4046063 2.0423446 nan
2.9833224 -1.4099377 2.0423446 nan
2.983309 -1.4152693 2.0423446 -3.2769989e+38
2.9832957 -1.4206007 2.0423446 -3.2507249e+38
2.9832823 -1.425932 2.0423446 -3.2238823e+38
2.983269 -1.4312636 2.0423446 -3.384274e+38
2.9832556 -1.436595 2.0423446 nan
3.0062141 -1.4532208 2.0489378 nan
3.0062006 -1.4585961 2.0489378 nan
3.0061872 -1.4639714 2.0489378 nan
3.0061738 -1.4693465 2.0489378 -3.3311462e+38
3.0061603 -1.4747218 2.0489378 -2.9034008e+38
2.9612033 -1.4575703 2.0360379 -2.4901897e+38
2.96119 -1.4628599 2.0360379 -2.4087144e+38
2.9382057 -1.456548 2.0294445 -2.3283403e+38
2.9381926 -1.4617937 2.0294445 -2.2887255e+38
2.9381795 -1.4670395 2.0294445 -2.2487963e+38
2.9381664 -1.4722852 2.0294445 -2.262088e+38
2.9381533 -1.4775308 2.0294445 -2.2754322e+38
2.9381402 -1.4827764 2.0294445 -2.2754839e+38
2.938127 -1.4880222 2.0294445 -2.2754837e+38
2.9381139 -1.4932679 2.0294445 -2.2888275e+38
2.9381008 -1.4985136 2.0294445 -2.3153604e+38
2.9171147 -1.4928069 2.0234246 -2.3153606e+38
2.9171019 -1.4980125 2.0234246 -2.3286013e+38
2.9170887 -1.5032183 2.0234246 -2.3419457e+38
2.9170759 -1.508424 2.0234246 -2.3553419e+38
2.9170628 -1.5136297 2.0234246 -2.3553936e+38
2.9170496 -1.5188353 2.0234246 -2.3553938e+38
2.9170368 -1.5240411 2.0234246 -2.3554457e+38
2.9170237 -1.5292467 2.0234246 -2.3554974e+38
2.9170108 -1.5344524 2.0234246 -2.3422048e+38
2.9169977 -1.5396582 2.0234246 -2.3422573e+38
2.9379566 -1.5562162 2.0294445 -2.3423617e+38
2.9169717 -1.5500696 2.0234246 -2.3423619e+38
3.2306795 -1.2673242 2.1073494 nan
3.2306652 -1.2731261 2.1073494 nan
3.2306507 -1.278928 2.1073494 nan
3.2036629 -1.2739396 2.0996609 -3.285855e+38
3.2036486 -1.27969 2.0996609 -2.7411851e+38
3.2036343 -1.2854406 2.0996609 -2.7019853e+38
3.2036197 -1.2911909 2.0996609 -2.6621076e+38
3.2036054 -1.2969414 2.0996609 -2.5820935e+38
3.1776175 -1.2920536 2.092257 -2.488891e+38
3.1776032 -1.2977545 2.092257 -2.4487016e+38
3.1775889 -1.3034555 2.092257 -2.4084075e+38
3.1775746 -1.3091564 2.092257 -2.3811981e+38
3.1775606 -1.3148574 2.092257 -2.341321e+38
3.1515734 -1.3096722 2.0848532 -2.3148401e+38
3.1515594 -1.3153237 2.0848532 -2.2750154e+38
3.1265717 -1.3104126 2.077734 -2.2884117e+38
3.1265576 -1.3160164 2.077734 -2.2885152e+38
3.1015699 -1.3109626 2.0706151 -2.3151513e+38
3.1015561 -1.3165188 2.0706151 -2.3288068e+38
3.1015422 -1.322075 2.0706151 -2.3422548e+38
3.1015284 -1.327631 2.0706151 -2.3554952e+38
3.1015143 -1.3331872 2.0706151 -2.328651e+38
3.1015005 -1.3387434 2.0706151 -2.3021705e+38
3.1014867 -1.3442997 2.0706151 -2.3021188e+38
3.0774992 -1.3393044 2.0637808 -2.2884631e+38
3.0774853 -1.3448149 2.0637808 -2.2616706e+38
3.0534983 -1.3396826 2.0569465 -2.2350349e+38
3.029511 -1.3344587 2.0501122 -2.2615165e+38
3.0294974 -1.3398777 2.0501122 -2.2749134e+38
3.029484 -1.3452967 2.0501122 -2.2748623e+38
3.0294704 -1.3507158 2.0501122 -2.275486e+38
3.0294569 -1.3561349 2.0501122 -2.3025384e+38
3.0294433 -1.3615539 2.0501122 -2.3291741e+38
3.0294297 -1.3669728 2.0501122 -2.3558619e+38
3.0294163 -1.3723918 2.0501122 -2.3824461e+38
3.0294027 -1.377811 2.0501122 -2.4356669e+38
3.0293891 -1.38323 2.0501122 -2.4753369e+38
3.0293756 -1.388649 2.0501122 -2.5283512e+38
3.029362 -1.3940681 2.0501122 -2.5685424e+38
3.0293486 -1.3994871 2.0501122 -2.5952339e+38
3.0063617 -1.3940935 2.0435627 -2.6102987e+38
3.0063484 -1.3994687 2.0435627 -2.9049688e+38
3.006335 -1.4048438 2.0435627 -3.1853565e+38
3.0063214 -1.4102191 2.0435627 nan
3.0063081 -1.4155943 2.0435627 nan
2.9833224 -1.4099377 2.0370131 nan
2.983309 -1.4152693 2.0370131 nan
2.9832957 -1.4206007 2.0370131 -3.3843754e+38
2.9832823 -1.425932 2.0370131 -3.2247129e+38
2.983269 -1.4312636 2.0370131 -3.3448113e+38
2.9832556 -1.436595 2.0370131 nan
2.9832423 -1.4419262 2.0370131 nan
2.9832292 -1.4472576 2.0370131 nan
2.9832158 -1.4525892 2.0370131 nan
2.9832025 -1.4579206 2.0370131 -3.142816e+38
2.9831891 -1.4632519 2.0370131 -2.6479298e+38
2.9831758 -1.4685833 2.0370131 -2.1556459e+38
2.96119 -1.4628599 2.0307484 -2.2482224e+38
2.9382057 -1.456548 2.0241988 -2.3283411e+38
2.9381926 -1.4617937 2.0241988 -2.2754332e+38
2.9381795 -1.4670395 2.0241988 -2.2222639e+38
2.9171929 -1.4615726 2.0182188 -2.2489002e+38
2.9171798 -1.4667784 2.0182188 -2.2756409e+38
2.9171669 -1.4719841 2.0182188 -2.2889855e+38
2.9171538 -1.4771898 2.0182188 -2.2889847e+38
2.9171407 -1.4823954 2.0182188 -2.3156206e+38
2.9171278 -1.4876012 2.0182188 -2.3421013e+38
2.9171147 -1.4928069 2.0182188 -2.3422054e+38
2.9171019 -1.4980125 2.0182188 -2.3287573e+38
2.9170887 -1.5032183 2.0182188 -2.3420498e+38
2.9170759 -1.508424 2.0182188 -2.355394e+38
2.9170628 -1.5136297 2.0182188 -2.355394e+38
2.9170496 -1.5188353 2.0182188 -2.3554459e+38
2.9170368 -1.5240411 2.0182188 -2.3554459e+38
2.9170237 -1.5292467 2.0182188 -2.3555498e+38
2.9170108 -1.5344524 2.0182188 -2.3556017e+38
2.9169977 -1.5396582 2.0182188 -2.3424654e+38
2.9169846 -1.5448639 2.0182188 -2.3292774e+38
2.9169717 -1.5500696 2.0182188 -2.3159331e+38
3.2306795 -1.2673242 2.1015475 nan
3.2306652 -1.2731261 2.1015475 nan
3.2306507 -1.278928 2.1015475 -3.1436451e+38
3.2036629 -1.2739396 2.0939102 -2.7681808e+38
3.2036486 -1.27969 2.0939102 -2.3949621e+38
3.2036343 -1.2854406 2.0939102 -2.4355174e+38
3.2036197 -1.2911909 2.0939102 -2.4892559e+38
3.2036054 -1.2969414 2.0939102 -2.4620983e+38
3.1776175 -1.2920536 2.086556 -2.4354085e+38
3.1776032 -1.2977545 2.086556 -2.4083031e+38
3.1775889 -1.3034555 2.086556 -2.3942825e+38
3.1775746 -1.3091564 2.086556 -2.3545081e+38
3.1775606 -1.3148574 2.086556 -2.3278205e+38
3.1515734 -1.3096722 2.0792017 -2.3148403e+38
3.1515594 -1.3153237 2.0792017 -2.3149963e+38
3.1265717 -1.3104126 2.0721302 -2.3151004e+38
3.1265576 -1.3160164 2.0721302 -2.3152036e+38
3.1265435 -1.3216203 2.0721302 -2.3554431e+38
3.1015561 -1.3165188 2.0650587 -2.4089239e+38
3.1015422 -1.322075 2.0650587 -2.4222681e+38
3.1015284 -1.327631 2.0650587 -2.4353012e+38
3.1015143 -1.3331872 2.0650587 -2.3956323e+38
3.0775266 -1.3282834 2.0582702 -2.3689958e+38
3.0775127 -1.333794 2.0582702 -2.3553918e+38
3.0774992 -1.3393044 2.0582702 -2.3416839e+38
3.0535119 -1.3342178 2.0514817 -2.3149432e+38
3.0295246 -1.3290396 2.044693 -2.2882034e+38
3.029511 -1.3344587 2.044693 -2.2882041e+38
3.0294974 -1.3398777 2.044693 -2.2882049e+38
3.029484 -1.3452967 2.044693 -2.2883093e+38
3.0294704 -1.3507158 2.044693 -2.2753296e+38
3.0294569 -1.3561349 2.044693 -2.302019e+38
3.0294433 -1.3615539 2.044693 -2.3155186e+38
3.0294297 -1.3669728 2.044693 -2.3291737e+38
3.0294163 -1.3723918 2.044693 -2.3426741e+38
3.0294027 -1.377811 2.044693 -2.3957917e+38
3.0293891 -1.38323 2.044693 -2.4489105e+38
3.0293756 -1.388649 2.044693 -2.422587e+38
3.029362 -1.3940681 2.044693 -2.3971484e+38
3.0293486 -1.3994871 2.044693 -2.5699517e+38
3.0063617 -1.3940935 2.0381875 -2.7432754e+38
3.0063484 -1.3994687 2.0381875 -3.0641642e+38
3.006335 -1.4048438 2.0381875 -3.3842219e+38
3.0063214 -1.4102191 2.0381875 nan
3.0063081 -1.4155943 2.0381875 nan
2.9833224 -1.4099377 2.0316815 nan
2.983309 -1.4152693 2.0316815 nan
2.9832957 -1.4206007 2.0316815 nan
2.961309 -1.4152542 2.0254588 nan
2.983269 -1.4312636 2.0316815 nan
2.9832556 -1.436595 2.0316815 nan
2.9832423 -1.4419262 2.0316815 nan
2.9832292 -1.4472576 2.0316815 nan
2.9832158 -1.4525892 2.0316815 -3.0899649e+38
2.9832025 -1.4579206 2.0316815 -2.4771576e+38
2.9831891 -1.4632519 2.0316815 -2.3416263e+38
2.9831758 -1.4685833 2.0316815 -2.2198706e+38
2.96119 -1.4628599 2.0254588 -2.2612566e+38
2.9382057 -1.456548 2.0189531 -2.288517e+38
2.9381926 -1.4617937 2.0189531 -2.2887253e+38
2.9381795 -1.4670395 2.0189531 -2.2754852e+38
2.9171929 -1.4615726 2.0130131 -2.2889851e+38
2.9381533 -1.4775308 2.0189531 -2.2892458e+38
2.9171669 -1.4719841 2.0130131 -2.3157273e+38
2.9171538 -1.4771898 2.0130131 -2.3290705e+38
2.9171407 -1.4823954 2.0130131 -2.342206e+38
2.9171278 -1.4876012 2.0130131 -2.3686867e+38
2.9171147 -1.4928069 2.0130131 -2.3554461e+38
2.9171019 -1.4980125 2.0130131 -2.34205e+38
2.9170887 -1.5032183 2.0130131 -2.3554459e+38
2.9170759 -1.508424 2.0130131 -2.3687384e+38
2.9170628 -1.5136297 2.0130131 -2.3687903e+38
2.9170496 -1.5188353 2.0130131 -2.3687903e+38
2.8950663 -1.5123158 2.0067902 -2.3688942e+38
2.8950534 -1.5174794 2.0067902 -2.3689982e+38
2.9170108 -1.5344524 2.0130131 -2.3557581e+38
2.9169977 -1.5396582 2.0130131 -2.3426216e+38
2.9169846 -1.5448639 2.0130131 -2.3425177e+38
2.9169717 -1.5500696 2.0130131 -2.3424658e+38
3.2306795 -1.2673242 2.0957456 nan
3.2036917 -1.2624387 2.0881598 -3.3295332e+38
3.2036774 -1.2681891 2.0881598 -2.450469e+38
3.2036629 -1.2739396 2.0881598 -2.2483248e+38
3.2036486 -1.27969 2.0881598 -2.0357558e+38
3.2036343 -1.2854406 2.0881598 -2.1823899e+38
3.2036197 -1.2911909 2.0881598 -2.315519e+38
3.2036054 -1.2969414 2.0881598 -2.341635e+38
3.1776175 -1.2920536 2.0808549 -2.3682707e+38
3.1776032 -1.2977545 2.0808549 -2.3680103e+38
3.1775889 -1.3034555 2.0808549 -2.3678539e+38
3.1775746 -1.3091564 2.0808549 -2.3412168e+38
3.1775606 -1.3148574 2.0808549 -2.3147886e+38
3.1775463 -1.3205583 2.0808549 -2.3282373e+38
3.1515594 -1.3153237 2.0735502 -2.3416338e+38
3.1265717 -1.3104126 2.0665264 -2.3416861e+38
3.1265576 -1.3160164 2.0665264 -2.3422062e+38
3.1265435 -1.3216203 2.0665264 -2.4091357e+38
3.1265297 -1.327224 2.0665264 -2.4757518e+38
3.1015422 -1.322075 2.0595026 -2.489251e+38
3.1015284 -1.327631 2.0595026 -2.502439e+38
3.1015143 -1.3331872 2.0595026 -2.4628733e+38
3.0775266 -1.3282834 2.0527596 -2.4224249e+38
3.0775127 -1.333794 2.0527596 -2.4088205e+38
3.0535257 -1.328753 2.0460169 -2.3951646e+38
3.0535119 -1.3342178 2.0460169 -2.3682681e+38
3.0295246 -1.3290396 2.039274 -2.3415798e+38
3.029511 -1.3344587 2.039274 -2.3280801e+38
3.0294974 -1.3398777 2.039274 -2.3015478e+38
3.029484 -1.3452967 2.039274 -2.2881521e+38
3.0294704 -1.3507158 2.039274 -2.274913e+38
3.0294569 -1.3561349 2.039274 -2.2879988e+38
3.0294433 -1.3615539 2.039274 -2.3020184e+38
3.0294297 -1.3669728 2.039274 -2.302538e+38
3.0064425 -1.3618422 2.0328121 -2.3026421e+38
3.006429 -1.3672173 2.0328121 -2.3559672e+38
3.0064156 -1.3725926 2.0328121 -2.4090852e+38
3.0064023 -1.3779677 2.0328121 -2.3159362e+38
3.029362 -1.3940681 2.039274 -2.2105894e+38
3.0293486 -1.3994871 2.039274 -2.5441995e+38
3.0063617 -1.3940935 2.0328121 -2.8772375e+38
3.0063484 -1.3994687 2.0328121 -3.2374314e+38
3.006335 -1.4048438 2.0328121 nan
3.0063214 -1.4102191 2.0328121 nan
2.9833357 -1.4046063 2.0263503 nan
2.9833224 -1.4099377 2.0263503 nan
2.9613354 -1.4046752 2.0201693 nan
2.9832957 -1.4206007 2.0263503 nan
2.961309 -1.4152542 2.0201693 nan
2.9612958 -1.4205438 2.0201693 nan
2.9832556 -1.436595 2.0263503 nan
2.9832423 -1.4419262 2.0263503 nan
2.9832292 -1.4472576 2.0263503 nan
2.9832158 -1.4525892 2.0263503 -2.7013634e+38
2.9832025 -1.4579206 2.0263503 -1.796756e+38
2.9831891 -1.4632519 2.0263503 -2.0481615e+38
2.9612033 -1.4575703 2.0201693 -2.2876838e+38
2.96119 -1.4628599 2.0201693 -2.275172e+38
2.9382057 -1.456548 2.0137074 -2.2487436e+38
2.9381926 -1.4617937 2.0137074 -2.2888288e+38
2.9381795 -1.4670395 2.0137074 -2.3287577e+38
2.9171929 -1.4615726 2.0078073 -2.3156214e+38
2.9171798 -1.4667784 2.0078073 -2.3023819e+38
2.9171669 -1.4719841 2.0078073 -2.3422076e+38
2.9171538 -1.4771898 2.0078073 -2.3688433e+38
2.9171407 -1.4823954 2.0078073 -2.3820828e+38
2.9171278 -1.4876012 2.0078073 -2.3820307e+38
2.9171147 -1.4928069 2.0078073 -2.3687382e+38
2.9171019 -1.4980125 2.0078073 -2.3554978e+38
2.9170887 -1.5032183 2.0078073 -2.3688422e+38
2.9170759 -1.508424 2.0078073 -2.3688422e+38
2.9170628 -1.5136297 2.0078073 -2.3821347e+38
2.9170496 -1.5188353 2.0078073 -2.3821867e+38
2.8950663 -1.5123158 2.0016265 -2.3822388e+38
2.9170237 -1.5292467 2.0078073 -2.3689986e+38
2.9170108 -1.5344524 2.0078073 -2.3557587e+38
2.9169977 -1.5396582 2.0078073 -2.3425181e+38
2.9169846 -1.5448639 2.0078073 -2.3557585e+38
2.9169717 -1.5500696 2.0078073 -2.3691027e+38
3.2306941 -1.2615223 2.0899436 nan
3.2306795 -1.2673242 2.0899436 nan
3.2036917 -1.2624387 2.0824094 -3.1960855e+38
3.2036774 -1.2681891 2.0824094 -2.4760108e+38
3.2036629 -1.2739396 2.0824094 -2.2885618e+38
3.2036486 -1.27969 2.0824094 -2.1015909e+38
3.2036343 -1.2854406 2.0824094 -2.2087116e+38
3.2036197 -1.2911909 2.0824094 -2.3284454e+38
3.2036054 -1.2969414 2.0824094 -2.3282369e+38
3.2035911 -1.3026918 2.0824094 -2.3413732e+38
3.2035768 -1.3084424 2.0824094 -2.341373e+38
3.1775889 -1.3034555 2.0751541 -2.3413212e+38
3.203548 -1.3199433 2.0824094 -2.3414253e+38
3.1775606 -1.3148574 2.0751541 -2.3415817e+38
3.1775463 -1.3205583 2.0751541 -2.3548746e+38
3.1515594 -1.3153237 2.0678988 -2.3682713e+38
3.1265717 -1.3104126 2.0609226 -2.3820313e+38
3.1265576 -1.3160164 2.0609226 -2.3958972e+38
3.1265435 -1.3216203 2.0609226 -2.4626723e+38
3.1265297 -1.327224 2.0609226 -2.5292877e+38
3.1015422 -1.322075 2.0539465 -2.5558704e+38
3.1015284 -1.327631 2.0539465 -2.5692136e+38
3.0775404 -1.3227731 2.0472493 -2.5292317e+38
3.0775266 -1.3282834 2.0472493 -2.4755945e+38
3.0775127 -1.333794 2.0472493 -2.4356647e+38
3.0774992 -1.3393044 2.0472493 -2.4087684e+38
3.0535119 -1.3342178 2.0405521 -2.3819757e+38
3.0534983 -1.3396826 2.0405521 -2.3550794e+38
3.0534847 -1.3451474 2.0405521 -2.3551311e+38
3.0534711 -1.350612 2.0405521 -2.3416314e+38
3.029484 -1.3452967 2.033855 -2.3414756e+38
3.0294704 -1.3507158 2.033855 -2.327977e+38
3.0294569 -1.3561349 2.033855 -2.3281342e+38
3.0294433 -1.3615539 2.033855 -2.3418431e+38
3.0294297 -1.3669728 2.033855 -2.3288117e+38
3.0064425 -1.3618422 2.027437 -2.3157273e+38
3.006429 -1.3672173 2.027437 -2.3691041e+38
3.0064156 -1.3725926 2.027437 -2.4091369e+38
3.0293756 -1.388649 2.033855 -2.409085e+38
3.029362 -1.3940681 2.033855 -2.4091432e+38
3.0063753 -1.3887182 2.027437 -2.5434221e+38
3.0063617 -1.3940935 2.027437 -2.6782695e+38
3.0063484 -1.3994687 2.027437 -3.3045678e+38
3.006335 -1.4048438 2.027437 nan
3.0063214 -1.4102191 2.027437 nan
3.0063081 -1.4155943 2.027437 nan
2.9833224 -1.4099377 2.0210187 nan
2.983309 -1.4152693 2.0210187 nan
2.9832957 -1.4206007 2.0210187 nan
2.9832823 -1.425932 2.0210187 nan
2.983269 -1.4312636 2.0210187 nan
2.9832556 -1.436595 2.0210187 nan
2.9832423 -1.4419262 2.0210187 -3.3038907e+38
2.9832292 -1.4472576 2.0210187 -2.7194342e+38
2.9832158 -1.4525892 2.0210187 -2.382079e+38
2.9832025 -1.4579206 2.0210187 -2.0471253e+38
2.9612164 -1.4522808 2.0148797 -2.154763e+38
2.9612033 -1.4575703 2.0148797 -2.2751203e+38
2.9382188 -1.4513023 2.0084617 -2.2752756e+38
2.9382057 -1.456548 2.0084617 -2.2754318e+38
2.9172189 -1.4511613 2.0026016 -2.2888803e+38
2.9381795 -1.4670395 2.0084617 -2.3155172e+38
2.9171929 -1.4615726 2.0026016 -2.3155693e+38
2.9171798 -1.4667784 2.0026016 -2.3155699e+38
2.9171669 -1.4719841 2.0026016 -2.342207e+38
2.9171538 -1.4771898 2.0026016 -2.3687909e+38
2.9171407 -1.4823954 2.0026016 -2.3820826e+38
2.9171278 -1.4876012 2.0026016 -2.3820305e+38
2.9171147 -1.4928069 2.0026016 -2.3688938e+38
2.9171019 -1.4980125 2.0026016 -2.3423613e+38
2.9170887 -1.5032183 2.0026016 -2.3556019e+38
2.9170759 -1.508424 2.0026016 -2.3688425e+38
2.9170628 -1.5136297 2.0026016 -2.3688425e+38
2.9170496 -1.5188353 2.0026016 -2.3821869e+38
2.8950663 -1.5123158 1.9964626 -2.3557063e+38
2.8950534 -1.5174794 1.9964626 -2.3424145e+38
2.9170108 -1.5344524 2.0026016 -2.3424668e+38
2.9169977 -1.5396582 2.0026016 -2.3424149e+38
2.9169846 -1.5448639 2.0026016 -2.3557589e+38
2.9169717 -1.5500696 2.0026016 -2.3690512e+38
3.2037203 -1.2509377 2.0766587 nan
3.2306795 -1.2673242 2.0841417 nan
3.2036917 -1.2624387 2.0766587 -3.0479458e+38
3.2036774 -1.2681891 2.0766587 -2.5021794e+38
3.2036629 -1.2739396 2.0766587 -2.3415255e+38
3.2036486 -1.27969 2.0766587 -2.1687796e+38
3.2036343 -1.2854406 2.0766587 -2.2489505e+38
3.2036197 -1.2911909 2.0766587 -2.3283924e+38
3.2036054 -1.2969414 2.0766587 -2.3280807e+38
3.2035911 -1.3026918 2.0766587 -2.3147884e+38
3.2035768 -1.3084424 2.0766587 -2.3147365e+38
3.1775889 -1.3034555 2.0694532 -2.3148409e+38
3.1775746 -1.3091564 2.0694532 -2.3415819e+38
3.1775606 -1.3148574 2.0694532 -2.368167e+38
3.1515734 -1.3096722 2.0622473 -2.3814082e+38
3.1515594 -1.3153237 2.0622473 -2.3952203e+38
3.1265717 -1.3104126 2.0553188 -2.4222728e+38
3.1265576 -1.3160164 2.0553188 -2.4493265e+38
3.1015699 -1.3109626 2.0483904 -2.5163092e+38
3.1015561 -1.3165188 2.0483904 -2.5826136e+38
3.1015422 -1.322075 2.0483904 -2.609145e+38
3.1015284 -1.327631 2.0483904 -2.6357287e+38
3.0775404 -1.3227731 2.0417387 -2.5825586e+38
3.0775266 -1.3282834 2.0417387 -2.5291291e+38
3.0775127 -1.333794 2.0417387 -2.4759589e+38
3.0535257 -1.328753 2.0350873 -2.4091856e+38
3.0535119 -1.3342178 2.0350873 -2.3957371e+38
3.0534983 -1.3396826 2.0350873 -2.3689962e+38
3.0534847 -1.3451474 2.0350873 -2.3823396e+38
3.0534711 -1.350612 2.0350873 -2.3818715e+38
3.029484 -1.3452967 2.0284359 -2.3815074e+38
3.0294704 -1.3507158 2.0284359 -2.3814048e+38
3.0294569 -1.3561349 2.0284359 -2.3812502e+38
3.0294433 -1.3615539 2.0284359 -2.3681668e+38
3.0064559 -1.3564669 2.0220618 -2.3550315e+38
3.0064425 -1.3618422 2.0220618 -2.3287589e+38
3.006429 -1.3672173 2.0220618 -2.3689477e+38
3.0064156 -1.3725926 2.0220618 -2.4089809e+38
3.0064023 -1.3779677 2.0220618 -2.5021833e+38
3.029362 -1.3940681 2.0284359 -2.594971e+38
3.0063753 -1.3887182 2.0220618 -2.528719e+38
3.0063617 -1.3940935 2.0220618 -2.4645517e+38
3.0063484 -1.3994687 2.0220618 -3.3724863e+38
3.006335 -1.4048438 2.0220618 nan
3.0063214 -1.4102191 2.0220618 nan
2.9833357 -1.4046063 2.0156875 nan
2.9833224 -1.4099377 2.0156875 nan
2.983309 -1.4152693 2.0156875 nan
2.9832957 -1.4206007 2.0156875 nan
2.9832823 -1.425932 2.0156875 nan
2.983269 -1.4312636 2.0156875 nan
2.9832556 -1.436595 2.0156875 nan
2.9832423 -1.4419262 2.0156875 -2.8617573e+38
2.9832292 -1.4472576 2.0156875 -1.8240158e+38
2.9832158 -1.4525892 2.0156875 -2.0603081e+38
2.9832025 -1.4579206 2.0156875 -2.2874226e+38
2.9612164 -1.4522808 2.0095901 -2.2752241e+38
2.9612033 -1.4575703 2.0095901 -2.2487434e+38
2.9382188 -1.4513023 2.003216 -2.2754318e+38
2.9382057 -1.456548 2.003216 -2.2888281e+38
2.9381926 -1.4617937 2.003216 -2.2889843e+38
2.9381795 -1.4670395 2.003216 -2.2889326e+38
2.9171929 -1.4615726 1.997396 -2.3155176e+38
2.9381533 -1.4775308 2.003216 -2.3289139e+38
2.9381402 -1.4827764 2.003216 -2.3554989e+38
2.9171538 -1.4771898 1.997396 -2.3687909e+38
2.9171407 -1.4823954 1.997396 -2.3820311e+38
2.9171278 -1.4876012 1.997396 -2.3821869e+38
2.9171147 -1.4928069 1.997396 -2.3558619e+38
2.9171019 -1.4980125 1.997396 -2.3291216e+38
2.9170887 -1.5032183 1.997396 -2.3556025e+38
2.9170759 -1.508424 1.997396 -2.368895e+38
2.9170628 -1.5136297 1.997396 -2.3688433e+38
2.8950791 -1.507152 1.9912988 -2.3689473e+38
2.8950663 -1.5123158 1.9912988 -2.3424668e+38
2.8950534 -1.5174794 1.9912988 -2.3159342e+38
2.8950405 -1.5226432 1.9912988 -2.3292786e+38
2.9169977 -1.5396582 1.997396 -2.3425706e+38
2.9169846 -1.5448639 1.997396 -2.3558629e+38
2.9169717 -1.5500696 1.997396 -2.3691552e+38
3.2037203 -1.2509377 2.0709083 nan
3.203706 -1.2566881 2.0709083 -3.0904253e+38
3.2036917 -1.2624387 2.0709083 -2.7689602e+38
3.2036774 -1.2681891 2.0709083 -2.4355616e+38
3.2036629 -1.2739396 2.0709083 -2.3686315e+38
3.2036486 -1.27969 2.0709083 -2.3020143e+38
3.2036343 -1.2854406 2.0709083 -2.3284951e+38
3.2036197 -1.2911909 2.0709083 -2.3681125e+38
3.2036054 -1.2969414 2.0709083 -2.3414762e+38
3.1776175 -1.2920536 2.0637522 -2.3280805e+38
3.1776032 -1.2977545 2.0637522 -2.3281845e+38
3.1775889 -1.3034555 2.0637522 -2.3282375e+38
3.1775746 -1.3091564 2.0637522 -2.3548748e+38
3.1775606 -1.3148574 2.0637522 -2.3815121e+38
3.1515734 -1.3096722 2.056596 -2.3950648e+38
3.1515594 -1.3153237 2.056596 -2.3955329e+38
3.1265717 -1.3104126 2.049715 -2.4358257e+38
3.1265576 -1.3160164 2.049715 -2.4627234e+38
3.1265435 -1.3216203 2.049715 -2.5161536e+38
3.1015561 -1.3165188 2.042834 -2.5692704e+38
3.1015422 -1.322075 2.042834 -2.5959063e+38
3.1015284 -1.327631 2.042834 -2.6224902e+38
3.0775404 -1.3227731 2.0362284 -2.5692684e+38
3.0775266 -1.3282834 2.0362284 -2.529183e+38
3.0775127 -1.333794 2.0362284 -2.4760129e+38
3.0774992 -1.3393044 2.0362284 -2.4359799e+38
3.0774853 -1.3448149 2.0362284 -2.4226351e+38
3.0534983 -1.3396826 2.0296226 -2.3958935e+38
3.0534847 -1.3451474 2.0296226 -2.3957365e+38
3.0534711 -1.350612 2.0296226 -2.3953714e+38
3.029484 -1.3452967 2.0230169 -2.3954217e+38
3.0294704 -1.3507158 2.0230169 -2.408196e+38
3.0294569 -1.3561349 2.0230169 -2.3815605e+38
3.0064692 -1.3510916 2.0166864 -2.367906e+38
3.0064559 -1.3564669 2.0166864 -2.341634e+38
3.0064425 -1.3618422 2.0166864 -2.3151541e+38
3.006429 -1.3672173 2.0166864 -2.3421027e+38
3.0064156 -1.3725926 2.0166864 -2.369e+38
3.0064023 -1.3779677 2.0166864 -2.4485472e+38
3.0063887 -1.383343 2.0166864 -2.5278304e+38
3.0063753 -1.3887182 2.0166864 -2.4484369e+38
3.0063617 -1.3940935 2.0166864 -2.3686991e+38
3.0063484 -1.3994687 2.0166864 -2.8912674e+38
3.006335 -1.4048438 2.0166864 nan
3.0063214 -1.4102191 2.0166864 nan
2.9833357 -1.4046063 2.0103559 nan
2.9833224 -1.4099377 2.0103559 nan
2.983309 -1.4152693 2.0103559 nan
3.0062678 -1.43172 2.0166864 nan
2.9832823 -1.425932 2.0103559 nan
2.983269 -1.4312636 2.0103559 nan
3.0062275 -1.4478456 2.0166864 -3.3313513e+38
3.0062141 -1.4532208 2.0166864 -2.5687467e+38
2.9832292 -1.4472576 2.0103559 -1.8211533e+38
2.9832158 -1.4525892 2.0103559 -2.0612903e+38
2.9832025 -1.4579206 2.0103559 -2.3016992e+38
2.9612164 -1.4522808 2.0043006 -2.2885679e+38
2.9612033 -1.4575703 2.0043006 -2.2754837e+38
2.9382188 -1.4513023 1.9979702 -2.2888283e+38
2.9382057 -1.456548 1.9979702 -2.3022247e+38
2.9172189 -1.4511613 1.9921902 -2.3022766e+38
2.9381795 -1.4670395 1.9979702 -2.3022251e+38
2.9171929 -1.4615726 1.9921902 -2.3156214e+38
2.9381533 -1.4775308 1.9979702 -2.3422581e+38
2.9171669 -1.4719841 1.9921902 -2.3555504e+38
2.9171538 -1.4771898 1.9921902 -2.3687909e+38
2.9171407 -1.4823954 1.9921902 -2.3555506e+38
2.9171278 -1.4876012 1.9921902 -2.3556029e+38
2.9171147 -1.4928069 1.9921902 -2.3424147e+38
2.9171019 -1.4980125 1.9921902 -2.3290185e+38
2.9170887 -1.5032183 1.9921902 -2.3423106e+38
2.9170759 -1.508424 1.9921902 -2.3556033e+38
2.9170628 -1.5136297 1.9921902 -2.3556554e+38
2.9170496 -1.5188353 1.9921902 -2.369e+38
2.9170368 -1.5240411 1.9921902 -2.3425195e+38
2.8950534 -1.5174794 1.986135 -2.3293309e+38
2.8950405 -1.5226432 1.986135 -2.3425708e+38
2.8950276 -1.527807 1.986135 -2.355967e+38
2.9169846 -1.5448639 1.9921902 -2.3692073e+38
2.9169717 -1.5500696 1.9921902 -2.3957919e+38
3.2037203 -1.2509377 2.0651579 nan
3.203706 -1.2566881 2.0651579 -2.5832377e+38
3.2036917 -1.2624387 2.0651579 -2.4753878e+38
3.2036774 -1.2681891 2.0651579 -2.3691008e+38
3.2036629 -1.2739396 2.0651579 -2.4087694e+38
3.2036486 -1.27969 2.0651579 -2.4350939e+38
3.2036343 -1.2854406 2.0651579 -2.4215416e+38
3.2036197 -1.2911909 2.0651579 -2.3948013e+38
3.2036054 -1.2969414 2.0651579 -2.368165e+38
3.1776175 -1.2920536 2.0580511 -2.3415807e+38
3.1776032 -1.2977545 2.0580511 -2.3417368e+38
3.1775889 -1.3034555 2.0580511 -2.3416857e+38
3.1775746 -1.3091564 2.0580511 -2.3682194e+38
3.1775606 -1.3148574 2.0580511 -2.3949605e+38
3.1515734 -1.3096722 2.0509446 -2.3952209e+38
3.1515594 -1.3153237 2.0509446 -2.3957929e+38
3.1265717 -1.3104126 2.0441113 -2.4361379e+38
3.1265576 -1.3160164 2.0441113 -2.4762236e+38
