# .PCD v0.7 - Point Cloud Data file format
VERSION 0.7
FIELDS x y z rgb
SIZE 4 4 4 4
TYPE F F F F
COUNT 1 1 1 1
WIDTH 1216
HEIGHT 1
VIEWPOINT 0 0 0 1 0 0 0
POINTS 1216
DATA ascii
0.4681848 -0.7204172 1.8140001 nan
0.47164002 -0.7204172 1.8140001 -3.3701428e+38
0.47247621 -0.71644574 1.8040001 -3.3299021e+38
0.47591242 -0.71644574 1.8040001 nan
0.47695717 -0.71287149 1.7950001 nan
0.48037621 -0.71287149 1.7950001 nan
0.48379526 -0.71287149 1.7950001 nan
0.48721433 -0.71287149 1.7950001 -3.35575e+38
0.49063337 -0.71287149 1.7950001 -3.1151303e+38
0.49157527 -0.70929718 1.7860001 -2.9148027e+38
0.49497718 -0.70929718 1.7860001 -2.7276261e+38
0.49837908 -0.70929718 1.7860001 -2.6878069e+38
0.50178099 -0.70929718 1.7860001 -2.6466835e+38
0.50518286 -0.70929718 1.7860001 -2.675033e+38
0.5085848 -0.70929718 1.7860001 -2.6883788e+38
0.50940669 -0.70572293 1.7770001 -2.9693354e+38
0.51538861 -0.70929718 1.7860001 -3.2496187e+38
0.51617622 -0.70572293 1.7770001 -3.249933e+38
0.51956099 -0.70572293 1.7770001 -3.2498337e+38
0.52294576 -0.70572293 1.7770001 -3.2370131e+38
0.52633053 -0.70572293 1.7770001 -3.2240306e+38
0.52703243 -0.70214862 1.7680001 -3.2237172e+38
0.53040004 -0.70214862 1.7680001 -3.2237178e+38
0.53376764 -0.70214862 1.7680001 -3.2370107e+38
0.5371353 -0.70214862 1.7680001 -3.2502511e+38
0.54050291 -0.70214862 1.7680001 -3.2635953e+38
0.54387051 -0.70214862 1.7680001 -3.2769393e+38
0.54723811 -0.70214862 1.7680001 -3.2903352e+38
0.54780287 -0.6985743 1.7590001 -3.290335e+38
0.55115336 -0.6985743 1.7590001 -3.3035751e+38
0.55450386 -0.6985743 1.7590001 -3.3167119e+38
0.55785429 -0.6985743 1.7590001 -3.3167638e+38
0.56120479 -0.6985743 1.7590001 -3.3167123e+38
0.56166673 -0.69500005 1.7500001 -3.3431932e+38
0.56500006 -0.69500005 1.7500001 -3.3831226e+38
0.56833339 -0.69500005 1.7500001 nan
0.57460672 -0.6985743 1.7590001 nan
0.57500005 -0.69500005 1.7500001 nan
0.57833338 -0.69500005 1.7500001 nan
0.58166671 -0.69500005 1.7500001 nan
0.58800858 -0.6985743 1.7590001 nan
0.58833337 -0.69500005 1.7500001 nan
0.5916667 -0.69500005 1.7500001 nan
0.59500003 -0.69500005 1.7500001 nan
0.59833336 -0.69500005 1.7500001 nan
0.60166669 -0.69500005 1.7500001 nan
0.6018886 -0.69142574 1.7410001 nan
0.60520482 -0.69142574 1.7410001 nan
0.60852098 -0.69142574 1.7410001 nan
0.61183721 -0.69142574 1.7410001 -3.1561644e+38
0.61515337 -0.69142574 1.7410001 -2.6357918e+38
0.61846954 -0.69142574 1.7410001 -2.7425968e+38
0.62178576 -0.69142574 1.7410001 -2.8494023e+38
0.62510192 -0.69142574 1.7410001 -2.9162791e+38
0.63166672 -0.69500005 1.7500001 -2.9699678e+38
0.63500005 -0.69500005 1.7500001 -3.023397e+38
0.63833338 -0.69500005 1.7500001 -3.0770336e+38
0.64166671 -0.69500005 1.7500001 -3.0903778e+38
0.64831716 -0.6985743 1.7590001 -3.1171185e+38
0.64833337 -0.69500005 1.7500001 -3.1568919e+38
0.6516667 -0.69500005 1.7500001 -3.2100621e+38
0.65500003 -0.69500005 1.7500001 -3.2235629e+38
0.65833336 -0.69500005 1.7500001 -3.2371671e+38
0.66166669 -0.69500005 1.7500001 -3.1707059e+38
0.66500002 -0.69500005 1.7500001 -3.1045593e+38
0.66833335 -0.69500005 1.7500001 -3.3975638e+38
0.67166668 -0.69500005 1.7500001 nan
0.67500007 -0.69500005 1.7500001 nan
0.6783334 -0.69500005 1.7500001 nan
0.68166673 -0.69500005 1.7500001 nan
0.68500006 -0.69500005 1.7500001 nan
0.68833339 -0.69500005 1.7500001 nan
0.69166672 -0.69500005 1.7500001 nan
0.69500005 -0.69500005 1.7500001 nan
0.69833338 -0.69500005 1.7500001 nan
0.70166671 -0.69500005 1.7500001 nan
0.70500004 -0.69500005 1.7500001 nan
0.70833337 -0.69500005 1.7500001 nan
0.71532673 -0.6985743 1.7590001 nan
0.71867716 -0.6985743 1.7590001 nan
0.71833336 -0.69500005 1.7500001 nan
0.72537816 -0.6985743 1.7590001 nan
0.3130286 -0.78731436 1.9920001 nan
0.31682289 -0.78731436 1.9920001 nan
0.32061717 -0.78731436 1.9920001 nan
0.32245716 -0.78257149 1.9800001 nan
0.32441622 -0.77822387 1.9690001 nan
0.32633334 -0.77387625 1.9580001 nan
0.33006287 -0.77387625 1.9580001 nan
0.33379239 -0.77387625 1.9580001 nan
0.33562574 -0.76952863 1.9470001 nan
0.33933431 -0.76952863 1.9470001 nan
0.34304288 -0.76952863 1.9470001 nan
0.3447924 -0.76518101 1.9360001 nan
0.34650001 -0.76083338 1.9250001 nan
0.35016668 -0.76083338 1.9250001 nan
0.35199526 -0.756881 1.9150001 nan
0.35564288 -0.756881 1.9150001 nan
0.35929051 -0.756881 1.9150001 nan
0.36293811 -0.756881 1.9150001 nan
0.36448002 -0.75253338 1.904 nan
0.36810669 -0.75253338 1.904 nan
0.37173337 -0.75253338 1.904 nan
0.37536001 -0.75253338 1.904 nan
0.37898669 -0.75253338 1.904 nan
0.38261336 -0.75253338 1.904 nan
0.38421145 -0.74858099 1.8940001 nan
0.38781908 -0.74858099 1.8940001 nan
0.39142668 -0.74858099 1.8940001 nan
0.39274001 -0.74423337 1.8830001 nan
0.39632669 -0.74423337 1.8830001 nan
0.39778954 -0.74028099 1.8730001 nan
0.40135717 -0.74028099 1.8730001 nan
0.40492478 -0.74028099 1.8730001 nan
0.40631145 -0.7363286 1.863 nan
0.40986001 -0.7363286 1.863 nan
0.41340861 -0.7363286 1.863 nan
0.41695717 -0.7363286 1.863 nan
0.41824859 -0.73237622 1.853 nan
0.42177811 -0.73237622 1.853 nan
0.42071718 -0.72447145 1.8330001 nan
0.42420861 -0.72447145 1.8330001 nan
0.42770004 -0.72447145 1.8330001 nan
0.43119144 -0.72447145 1.8330001 nan
0.43468288 -0.72447145 1.8330001 nan
0.43817431 -0.72447145 1.8330001 nan
0.44166574 -0.72447145 1.8330001 nan
0.44515717 -0.72447145 1.8330001 nan
0.44644573 -0.7209143 1.8240001 nan
0.44992003 -0.7209143 1.8240001 nan
0.45339432 -0.7209143 1.8240001 nan
0.45436385 -0.71696198 1.8140001 nan
0.45781907 -0.71696198 1.8140001 nan
0.46127433 -0.71696198 1.8140001 nan
0.46472955 -0.71696198 1.8140001 nan
0.4681848 -0.71696198 1.8140001 nan
0.46904004 -0.7130096 1.8040001 nan
0.47247621 -0.7130096 1.8040001 -3.3699871e+38
0.47591242 -0.7130096 1.8040001 nan
0.47695717 -0.70945245 1.7950001 nan
0.48037621 -0.70945245 1.7950001 nan
0.48379526 -0.70945245 1.7950001 nan
0.48477146 -0.7058953 1.7860001 nan
0.48817337 -0.7058953 1.7860001 -3.3423531e+38
0.49157527 -0.7058953 1.7860001 -3.1822176e+38
0.49497718 -0.7058953 1.7860001 -3.0218807e+38
0.49837908 -0.7058953 1.7860001 -3.0079665e+38
0.50178099 -0.7058953 1.7860001 -2.9819038e+38
0.50518286 -0.7058953 1.7860001 -3.0636332e+38
0.5085848 -0.7058953 1.7860001 -3.1427655e+38
0.50940669 -0.70233816 1.7770001 -3.289917e+38
0.51279145 -0.70233816 1.7770001 nan
0.51617622 -0.70233816 1.7770001 -3.3166058e+38
0.51956099 -0.70233816 1.7770001 -3.1839454e+38
0.52029717 -0.69878101 1.7680001 -3.2111559e+38
0.52366477 -0.69878101 1.7680001 -3.2240835e+38
0.52703243 -0.69878101 1.7680001 -3.2238229e+38
0.53040004 -0.69878101 1.7680001 -3.2238227e+38
0.53376764 -0.69878101 1.7680001 -3.2635957e+38
0.534401 -0.69522387 1.7590001 -3.2902318e+38
0.54050291 -0.69878101 1.7680001 -3.2902835e+38
0.54110193 -0.69522387 1.7590001 -3.2903869e+38
0.54445243 -0.69522387 1.7590001 -3.3171268e+38
0.54780287 -0.69522387 1.7590001 -3.3302633e+38
0.55115336 -0.69522387 1.7590001 -3.3301593e+38
0.55450386 -0.69522387 1.7590001 -3.3300559e+38
0.55500001 -0.69166672 1.7500001 -3.3299524e+38
0.5583334 -0.69166672 1.7500001 -3.3299528e+38
0.56166673 -0.69166672 1.7500001 -3.3830706e+38
0.56500006 -0.69166672 1.7500001 nan
0.56833339 -0.69166672 1.7500001 nan
0.57166672 -0.69166672 1.7500001 nan
0.57500005 -0.69166672 1.7500001 nan
0.57833338 -0.69166672 1.7500001 nan
0.58166671 -0.69166672 1.7500001 nan
0.58500004 -0.69166672 1.7500001 nan
0.58833337 -0.69166672 1.7500001 nan
0.5916667 -0.69166672 1.7500001 nan
0.59194005 -0.68810958 1.7410001 nan
0.59525621 -0.68810958 1.7410001 nan
0.59857243 -0.68810958 1.7410001 nan
0.6018886 -0.68810958 1.7410001 nan
0.60520482 -0.68810958 1.7410001 nan
0.60852098 -0.68810958 1.7410001 nan
0.61183721 -0.68810958 1.7410001 -3.3291709e+38
0.61515337 -0.68810958 1.7410001 -2.9026227e+38
0.61846954 -0.68810958 1.7410001 -2.8619143e+38
0.62178576 -0.68810958 1.7410001 -2.8227131e+38
0.62833339 -0.69166672 1.7500001 -2.8896941e+38
0.63166672 -0.69166672 1.7500001 -2.9431754e+38
0.63500005 -0.69166672 1.7500001 -3.0098968e+38
0.64161623 -0.69522387 1.7590001 -3.0634298e+38
0.64496672 -0.69522387 1.7590001 -3.077034e+38
0.64831716 -0.69522387 1.7590001 -3.0902748e+38
0.65166765 -0.69522387 1.7590001 -3.1434443e+38
0.65501815 -0.69522387 1.7590001 -3.1834775e+38
0.65836859 -0.69522387 1.7590001 -3.1970819e+38
0.66171908 -0.69522387 1.7590001 -3.2102187e+38
0.66166669 -0.69166672 1.7500001 -3.1037766e+38
0.66500002 -0.69166672 1.7500001 -2.98472e+38
0.66833335 -0.69166672 1.7500001 nan
0.67166668 -0.69166672 1.7500001 nan
0.67500007 -0.69166672 1.7500001 nan
0.6783334 -0.69166672 1.7500001 nan
0.68166673 -0.69166672 1.7500001 nan
0.68500006 -0.69166672 1.7500001 nan
0.68833339 -0.69166672 1.7500001 nan
0.69166672 -0.69166672 1.7500001 nan
0.69500005 -0.69166672 1.7500001 nan
0.69833338 -0.69166672 1.7500001 nan
0.70166671 -0.69166672 1.7500001 nan
0.70500004 -0.69166672 1.7500001 nan
0.70833337 -0.69166672 1.7500001 nan
0.71532673 -0.69522387 1.7590001 nan
0.71867716 -0.69522387 1.7590001 nan
0.71833336 -0.69166672 1.7500001 nan
0.72537816 -0.69522387 1.7590001 nan
0.3130286 -0.78352004 1.9920001 nan
0.31682289 -0.78352004 1.9920001 nan
0.32061717 -0.78352004 1.9920001 nan
0.32245716 -0.77880007 1.9800001 nan
0.32441622 -0.77447337 1.9690001 nan
0.32816669 -0.77447337 1.9690001 nan
0.33006287 -0.77014673 1.9580001 nan
0.33379239 -0.77014673 1.9580001 nan
0.33562574 -0.76582003 1.9470001 nan
0.33933431 -0.76582003 1.9470001 nan
0.34304288 -0.76582003 1.9470001 nan
0.3447924 -0.76149338 1.9360001 nan
0.34650001 -0.75716674 1.9250001 nan
0.34834763 -0.75323337 1.9150001 nan
0.35199526 -0.75323337 1.9150001 nan
0.35360003 -0.74890673 1.904 nan
0.3572267 -0.74890673 1.904 nan
0.36085334 -0.74890673 1.904 nan
0.36448002 -0.74890673 1.904 nan
0.36810669 -0.74890673 1.904 nan
0.37173337 -0.74890673 1.904 nan
0.37536001 -0.74890673 1.904 nan
0.37898669 -0.74890673 1.904 nan
0.38261336 -0.74890673 1.904 nan
0.38421145 -0.74497336 1.8940001 nan
0.38781908 -0.74497336 1.8940001 nan
0.39142668 -0.74497336 1.8940001 nan
0.39274001 -0.74064672 1.8830001 nan
0.39632669 -0.74064672 1.8830001 nan
0.39778954 -0.73671341 1.8730001 nan
0.40135717 -0.73671341 1.8730001 nan
0.40492478 -0.73671341 1.8730001 nan
0.40631145 -0.73278004 1.863 nan
0.40986001 -0.73278004 1.863 nan
0.41118956 -0.72884673 1.853 nan
0.41471907 -0.72884673 1.853 nan
0.41824859 -0.72884673 1.853 nan
0.41950193 -0.72491336 1.8430001 nan
0.42071718 -0.72098005 1.8330001 nan
0.42420861 -0.72098005 1.8330001 nan
0.42770004 -0.72098005 1.8330001 nan
0.43119144 -0.72098005 1.8330001 nan
0.43468288 -0.72098005 1.8330001 nan
0.43817431 -0.72098005 1.8330001 nan
0.44166574 -0.72098005 1.8330001 nan
0.44515717 -0.72098005 1.8330001 nan
0.44644573 -0.71744007 1.8240001 nan
0.44992003 -0.71744007 1.8240001 nan
0.45339432 -0.71744007 1.8240001 nan
0.45436385 -0.7135067 1.8140001 nan
0.45781907 -0.7135067 1.8140001 nan
0.46127433 -0.7135067 1.8140001 nan
0.46216765 -0.70957339 1.8040001 nan
0.46560383 -0.70957339 1.8040001 -3.3970915e+38
0.46904004 -0.70957339 1.8040001 -3.3833315e+38
0.47011909 -0.70603341 1.7950001 -3.3832278e+38
0.47353813 -0.70603341 1.7950001 nan
0.47695717 -0.70603341 1.7950001 nan
0.48037621 -0.70603341 1.7950001 nan
0.48136955 -0.70249337 1.7860001 nan
0.48477146 -0.70249337 1.7860001 nan
0.48817337 -0.70249337 1.7860001 -3.356484e+38
0.49157527 -0.70249337 1.7860001 -3.2762614e+38
0.49497718 -0.70249337 1.7860001 -3.1962449e+38
0.49837908 -0.70249337 1.7860001 -3.1824301e+38
0.50178099 -0.70249337 1.7860001 -3.1826435e+38
0.50518286 -0.70249337 1.7860001 -3.1832723e+38
0.5085848 -0.70249337 1.7860001 -3.1834301e+38
0.50940669 -0.69895339 1.7770001 -3.303478e+38
0.51279145 -0.69895339 1.7770001 nan
0.51617622 -0.69895339 1.7770001 -3.3435573e+38
0.51692957 -0.69541335 1.7680001 -3.2770971e+38
0.52029717 -0.69541335 1.7680001 -3.2772541e+38
0.52366477 -0.69541335 1.7680001 -3.2770979e+38
0.52703243 -0.69541335 1.7680001 -3.2770975e+38
0.53040004 -0.69541335 1.7680001 -3.2770969e+38
0.5310505 -0.69187337 1.7590001 -3.3170248e+38
0.534401 -0.69187337 1.7590001 -3.3567453e+38
0.53775144 -0.69187337 1.7590001 -3.3435041e+38
0.54110193 -0.69187337 1.7590001 -3.3303153e+38
0.54445243 -0.69187337 1.7590001 -3.3437108e+38
0.54780287 -0.69187337 1.7590001 -3.3568473e+38
0.54833335 -0.68833339 1.7500001 -3.3568473e+38
0.55450386 -0.69187337 1.7590001 -3.3566404e+38
0.55500001 -0.68833339 1.7500001 -3.356641e+38
0.5583334 -0.68833339 1.7500001 -3.369882e+38
0.56166673 -0.68833339 1.7500001 nan
0.56500006 -0.68833339 1.7500001 nan
0.56833339 -0.68833339 1.7500001 nan
0.57166672 -0.68833339 1.7500001 nan
0.57500005 -0.68833339 1.7500001 nan
0.57833338 -0.68833339 1.7500001 nan
0.58166671 -0.68833339 1.7500001 nan
0.58500004 -0.68833339 1.7500001 nan
0.58833337 -0.68833339 1.7500001 nan
0.5916667 -0.68833339 1.7500001 nan
0.59194005 -0.68479335 1.7410001 nan
0.59525621 -0.68479335 1.7410001 nan
0.59857243 -0.68479335 1.7410001 nan
0.6018886 -0.68479335 1.7410001 nan
0.60520482 -0.68479335 1.7410001 nan
0.60852098 -0.68479335 1.7410001 nan
0.61183721 -0.68479335 1.7410001 -3.3696179e+38
0.61515337 -0.68479335 1.7410001 -3.1689866e+38
0.61846954 -0.68479335 1.7410001 -2.9156012e+38
0.62500006 -0.68833339 1.7500001 -2.6765489e+38
0.62833339 -0.68833339 1.7500001 -2.7963881e+38
0.63166672 -0.68833339 1.7500001 -2.9163308e+38
0.63500005 -0.68833339 1.7500001 -2.9831044e+38
0.64161623 -0.69187337 1.7590001 -3.04993e+38
0.64496672 -0.69187337 1.7590001 -3.0634306e+38
0.64831716 -0.69187337 1.7590001 -3.0899636e+38
0.65166765 -0.69187337 1.7590001 -3.1299967e+38
0.65501815 -0.69187337 1.7590001 -3.1567374e+38
0.65836859 -0.69187337 1.7590001 -3.1833741e+38
0.65833336 -0.68833339 1.7500001 -3.209751e+38
0.66166669 -0.68833339 1.7500001 -3.1436009e+38
0.66500002 -0.68833339 1.7500001 -3.0776092e+38
0.66833335 -0.68833339 1.7500001 nan
0.67166668 -0.68833339 1.7500001 nan
0.67500007 -0.68833339 1.7500001 nan
0.6783334 -0.68833339 1.7500001 nan
0.68166673 -0.68833339 1.7500001 nan
0.68500006 -0.68833339 1.7500001 nan
0.68833339 -0.68833339 1.7500001 nan
0.69166672 -0.68833339 1.7500001 nan
0.69500005 -0.68833339 1.7500001 nan
0.69833338 -0.68833339 1.7500001 nan
0.70166671 -0.68833339 1.7500001 nan
0.70500004 -0.68833339 1.7500001 nan
0.70833337 -0.68833339 1.7500001 nan
0.71532673 -0.69187337 1.7590001 nan
0.71500003 -0.68833339 1.7500001 nan
0.71833336 -0.68833339 1.7500001 nan
0.72166669 -0.68833339 1.7500001 nan
0.31094193 -0.78403145 2.003 nan
0.3130286 -0.77972579 1.9920001 nan
0.31682289 -0.77972579 1.9920001 nan
0.32061717 -0.77972579 1.9920001 nan
0.32245716 -0.77502865 1.9800001 nan
0.32441622 -0.77072293 1.9690001 nan
0.32633334 -0.76641721 1.9580001 nan
0.33006287 -0.76641721 1.9580001 nan
0.33379239 -0.76641721 1.9580001 nan
0.33562574 -0.76211149 1.9470001 nan
0.33933431 -0.76211149 1.9470001 nan
0.34304288 -0.76211149 1.9470001 nan
0.3447924 -0.75780576 1.9360001 nan
0.34650001 -0.75350004 1.9250001 nan
0.34834763 -0.74958575 1.9150001 nan
0.35199526 -0.74958575 1.9150001 nan
0.35360003 -0.74528003 1.904 nan
0.3572267 -0.74528003 1.904 nan
0.36085334 -0.74528003 1.904 nan
0.36448002 -0.74528003 1.904 nan
0.36810669 -0.74528003 1.904 nan
0.36978099 -0.74136579 1.8940001 nan
0.37338859 -0.74136579 1.8940001 nan
0.37699622 -0.74136579 1.8940001 nan
0.38060382 -0.74136579 1.8940001 nan
0.38421145 -0.74136579 1.8940001 nan
0.38781908 -0.74136579 1.8940001 nan
0.38915336 -0.73706007 1.8830001 nan
0.39274001 -0.73706007 1.8830001 nan
0.39632669 -0.73706007 1.8830001 nan
0.39778954 -0.73314577 1.8730001 nan
0.40135717 -0.73314577 1.8730001 nan
0.40276289 -0.72923148 1.863 nan
0.40631145 -0.72923148 1.863 nan
0.40986001 -0.72923148 1.863 nan
0.41118956 -0.72531718 1.853 nan
0.41471907 -0.72531718 1.853 nan
0.41599146 -0.72140288 1.8430001 nan
0.41950193 -0.72140288 1.8430001 nan
0.42071718 -0.71748865 1.8330001 nan
0.42420861 -0.71748865 1.8330001 nan
0.42770004 -0.71748865 1.8330001 nan
0.43119144 -0.71748865 1.8330001 nan
0.43468288 -0.71748865 1.8330001 nan
0.43817431 -0.71748865 1.8330001 nan
0.44166574 -0.71748865 1.8330001 nan
0.44515717 -0.71748865 1.8330001 nan
0.44644573 -0.71396577 1.8240001 nan
0.44992003 -0.71396577 1.8240001 nan
0.45339432 -0.71396577 1.8240001 nan
0.45436385 -0.71005148 1.8140001 nan
0.45781907 -0.71005148 1.8140001 nan
0.45873147 -0.70613718 1.8040001 nan
0.46216765 -0.70613718 1.8040001 nan
0.46560383 -0.70613718 1.8040001 -3.3304755e+38
0.46670002 -0.70261431 1.7950001 -3.3563841e+38
0.47011909 -0.70261431 1.7950001 -3.3833319e+38
0.47353813 -0.70261431 1.7950001 nan
0.47695717 -0.70261431 1.7950001 nan
0.47796765 -0.69909149 1.7860001 nan
0.48136955 -0.69909149 1.7860001 nan
0.48477146 -0.69909149 1.7860001 nan
0.48817337 -0.69909149 1.7860001 -3.3568479e+38
0.49157527 -0.69909149 1.7860001 -3.3567426e+38
0.49497718 -0.69909149 1.7860001 -3.3562739e+38
0.49837908 -0.69909149 1.7860001 -3.3694088e+38
0.50178099 -0.69909149 1.7860001 -3.3827561e+38
0.50518286 -0.69909149 1.7860001 -3.3034208e+38
0.5085848 -0.69909149 1.7860001 -3.2102722e+38
0.50940669 -0.69556862 1.7770001 -3.3035792e+38
0.51279145 -0.69556862 1.7770001 -3.3968836e+38
0.51617622 -0.69556862 1.7770001 -3.3835901e+38
0.51956099 -0.69556862 1.7770001 -3.3568505e+38
0.52029717 -0.69204575 1.7680001 -3.3435591e+38
0.52366477 -0.69204575 1.7680001 -3.317025e+38
0.52703243 -0.69204575 1.7680001 -3.3170757e+38
0.53040004 -0.69204575 1.7680001 -3.3172333e+38
0.5310505 -0.68852288 1.7590001 -3.370716e+38
0.534401 -0.68852288 1.7590001 nan
0.53775144 -0.68852288 1.7590001 -3.3965706e+38
0.54110193 -0.68852288 1.7590001 -3.370297e+38
0.54445243 -0.68852288 1.7590001 -3.3705043e+38
0.54500002 -0.68500006 1.7500001 -3.3703485e+38
0.54833335 -0.68500006 1.7500001 -3.3836408e+38
0.55166668 -0.68500006 1.7500001 -3.3834856e+38
0.55500001 -0.68500006 1.7500001 -3.3967266e+38
0.5583334 -0.68500006 1.7500001 -3.3966233e+38
0.56166673 -0.68500006 1.7500001 nan
0.56500006 -0.68500006 1.7500001 nan
0.56833339 -0.68500006 1.7500001 nan
0.57166672 -0.68500006 1.7500001 nan
0.57500005 -0.68500006 1.7500001 nan
0.57833338 -0.68500006 1.7500001 nan
0.58166671 -0.68500006 1.7500001 nan
0.58500004 -0.68500006 1.7500001 -3.3834369e+38
0.58833337 -0.68500006 1.7500001 nan
0.5916667 -0.68500006 1.7500001 nan
0.59194005 -0.68147719 1.7410001 nan
0.59525621 -0.68147719 1.7410001 nan
0.59857243 -0.68147719 1.7410001 nan
0.6018886 -0.68147719 1.7410001 nan
0.60207623 -0.67795432 1.7320001 nan
0.60537529 -0.67795432 1.7320001 nan
0.60867435 -0.67795432 1.7320001 nan
0.61515337 -0.68147719 1.7410001 nan
0.61846954 -0.68147719 1.7410001 -2.9681465e+38
0.62500006 -0.68500006 1.7500001 -2.5166779e+38
0.62833339 -0.68500006 1.7500001 -2.703031e+38
0.63166672 -0.68500006 1.7500001 -2.8896426e+38
0.63826573 -0.68852288 1.7590001 -2.9562602e+38
0.64161623 -0.68852288 1.7590001 -3.0232933e+38
0.64496672 -0.68852288 1.7590001 -3.0633268e+38
0.64831716 -0.68852288 1.7590001 -3.0900154e+38
0.65166765 -0.68852288 1.7590001 -3.1166003e+38
0.65501815 -0.68852288 1.7590001 -3.1299969e+38
0.65836859 -0.68852288 1.7590001 -3.1698222e+38
0.66171908 -0.68852288 1.7590001 -3.2098031e+38
0.66166669 -0.68500006 1.7500001 -3.1832704e+38
0.66500002 -0.68500006 1.7500001 -3.1572599e+38
0.66833335 -0.68500006 1.7500001 nan
0.67166668 -0.68500006 1.7500001 nan
0.67500007 -0.68500006 1.7500001 nan
0.6783334 -0.68500006 1.7500001 nan
0.68166673 -0.68500006 1.7500001 nan
0.68500006 -0.68500006 1.7500001 nan
0.68833339 -0.68500006 1.7500001 nan
0.69166672 -0.68500006 1.7500001 nan
0.69500005 -0.68500006 1.7500001 nan
0.69833338 -0.68500006 1.7500001 nan
0.70166671 -0.68500006 1.7500001 nan
0.70862573 -0.68852288 1.7590001 nan
0.70833337 -0.68500006 1.7500001 nan
0.71532673 -0.68852288 1.7590001 nan
0.71867716 -0.68852288 1.7590001 nan
0.71833336 -0.68500006 1.7500001 nan
0.72166669 -0.68500006 1.7500001 nan
0.72127146 -0.68147719 1.7410001 nan
0.31094193 -0.78021622 2.003 nan
0.3130286 -0.77593148 1.9920001 nan
0.31682289 -0.77593148 1.9920001 nan
0.32061717 -0.77593148 1.9920001 nan
0.32245716 -0.77125722 1.9800001 nan
0.32441622 -0.76697242 1.9690001 nan
0.32633334 -0.76268768 1.9580001 nan
0.33006287 -0.76268768 1.9580001 nan
0.33379239 -0.76268768 1.9580001 nan
0.33562574 -0.75840288 1.9470001 nan
0.33933431 -0.75840288 1.9470001 nan
0.34110478 -0.75411814 1.9360001 nan
0.34283337 -0.74983341 1.9250001 nan
0.34470001 -0.74593812 1.9150001 nan
0.34834763 -0.74593812 1.9150001 nan
0.34997335 -0.74165338 1.904 nan
0.35360003 -0.74165338 1.904 nan
0.3572267 -0.74165338 1.904 nan
0.36085334 -0.74165338 1.904 nan
0.36448002 -0.74165338 1.904 nan
0.36810669 -0.74165338 1.904 nan
0.36978099 -0.73775816 1.8940001 nan
0.37338859 -0.73775816 1.8940001 nan
0.37699622 -0.73775816 1.8940001 nan
0.38060382 -0.73775816 1.8940001 nan
0.38421145 -0.73775816 1.8940001 nan
0.38556668 -0.73347336 1.8830001 nan
0.38915336 -0.73347336 1.8830001 nan
0.39065433 -0.72957814 1.8730001 nan
0.39422193 -0.72957814 1.8730001 nan
0.39778954 -0.72957814 1.8730001 nan
0.40135717 -0.72957814 1.8730001 nan
0.40276289 -0.72568291 1.863 nan
0.40631145 -0.72568291 1.863 nan
0.40766004 -0.72178769 1.853 nan
0.41118956 -0.72178769 1.853 nan
0.41248098 -0.71789241 1.8430001 nan
0.41599146 -0.71789241 1.8430001 nan
0.41950193 -0.71789241 1.8430001 nan
0.42071718 -0.71399719 1.8330001 nan
0.42420861 -0.71399719 1.8330001 nan
0.42770004 -0.71399719 1.8330001 nan
0.43119144 -0.71399719 1.8330001 nan
0.43468288 -0.71399719 1.8330001 nan
0.43817431 -0.71399719 1.8330001 nan
0.44166574 -0.71399719 1.8330001 nan
0.44297147 -0.71049148 1.8240001 nan
0.44644573 -0.71049148 1.8240001 nan
0.44992003 -0.71049148 1.8240001 nan
0.4509086 -0.70659626 1.8140001 nan
0.45436385 -0.70659626 1.8140001 nan
0.45529526 -0.70270097 1.8040001 nan
0.45873147 -0.70270097 1.8040001 nan
0.45986193 -0.69919527 1.7950001 nan
0.46328098 -0.69919527 1.7950001 nan
0.46670002 -0.69919527 1.7950001 nan
0.47011909 -0.69919527 1.7950001 nan
0.47116384 -0.69568956 1.7860001 nan
0.47456574 -0.69568956 1.7860001 nan
0.47796765 -0.69568956 1.7860001 nan
0.48136955 -0.69568956 1.7860001 nan
0.48477146 -0.69568956 1.7860001 nan
0.48817337 -0.69568956 1.7860001 -3.3834848e+38
0.49157527 -0.69568956 1.7860001 -3.3700875e+38
0.49497718 -0.69568956 1.7860001 -3.369828e+38
0.49586764 -0.69218385 1.7770001 -3.3697763e+38
0.50178099 -0.69568956 1.7860001 -3.383069e+38
0.50263715 -0.69218385 1.7770001 -3.3432443e+38
0.50602192 -0.69218385 1.7770001 -3.3165046e+38
0.50940669 -0.69218385 1.7770001 -3.3701416e+38
0.51279145 -0.69218385 1.7770001 nan
0.51617622 -0.69218385 1.7770001 -3.3968306e+38
0.51692957 -0.68867815 1.7680001 -3.3833311e+38
0.52029717 -0.68867815 1.7680001 -3.3701947e+38
0.52366477 -0.68867815 1.7680001 -3.3701408e+38
0.52434957 -0.68517244 1.7590001 -3.357054e+38
0.52770001 -0.68517244 1.7590001 -3.3572661e+38
0.5310505 -0.68517244 1.7590001 -3.3840628e+38
0.534401 -0.68517244 1.7590001 nan
0.53775144 -0.68517244 1.7590001 -3.3971428e+38
0.54110193 -0.68517244 1.7590001 -3.3838501e+38
0.54445243 -0.68517244 1.7590001 -3.3705055e+38
0.54500002 -0.68166673 1.7500001 -3.3704536e+38
0.54833335 -0.68166673 1.7500001 -3.3703495e+38
0.55166668 -0.68166673 1.7500001 -3.3702463e+38
0.55500001 -0.68166673 1.7500001 -3.3967274e+38
0.5583334 -0.68166673 1.7500001 nan
0.56166673 -0.68166673 1.7500001 nan
0.56500006 -0.68166673 1.7500001 nan
0.56833339 -0.68166673 1.7500001 nan
0.57166672 -0.68166673 1.7500001 nan
0.57500005 -0.68166673 1.7500001 nan
0.57833338 -0.68166673 1.7500001 nan
0.58166671 -0.68166673 1.7500001 nan
0.58500004 -0.68166673 1.7500001 nan
0.58530766 -0.67816103 1.7410001 nan
0.58862382 -0.67816103 1.7410001 nan
0.58888006 -0.67465526 1.7320001 nan
0.59217906 -0.67465526 1.7320001 nan
0.59547812 -0.67465526 1.7320001 nan
0.59877717 -0.67465526 1.7320001 nan
0.60207623 -0.67465526 1.7320001 nan
0.60537529 -0.67465526 1.7320001 nan
0.60867435 -0.67465526 1.7320001 nan
0.61515337 -0.67816103 1.7410001 nan
0.62166673 -0.68166673 1.7500001 -3.0354898e+38
0.62500006 -0.68166673 1.7500001 -2.5297623e+38
0.62833339 -0.68166673 1.7500001 -2.7032389e+38
0.63491529 -0.68517244 1.7590001 -2.8898503e+38
0.63826573 -0.68517244 1.7590001 -2.9566234e+38
0.64161623 -0.68517244 1.7590001 -3.023553e+38
0.64496672 -0.68517244 1.7590001 -3.0500864e+38
0.64831716 -0.68517244 1.7590001 -3.0900673e+38
0.65166765 -0.68517244 1.7590001 -3.1033596e+38
0.65501815 -0.68517244 1.7590001 -3.1166525e+38
0.65836859 -0.68517244 1.7590001 -3.1432376e+38
0.66171908 -0.68517244 1.7590001 -3.1832187e+38
0.66166669 -0.68166673 1.7500001 -3.2096996e+38
0.66500002 -0.68166673 1.7500001 -3.2495797e+38
0.66833335 -0.68166673 1.7500001 nan
0.67166668 -0.68166673 1.7500001 nan
0.67500007 -0.68166673 1.7500001 nan
0.6783334 -0.68166673 1.7500001 nan
0.68166673 -0.68166673 1.7500001 nan
0.68500006 -0.68166673 1.7500001 nan
0.68833339 -0.68166673 1.7500001 nan
0.69166672 -0.68166673 1.7500001 nan
0.69500005 -0.68166673 1.7500001 nan
0.69833338 -0.68166673 1.7500001 nan
0.70166671 -0.68166673 1.7500001 nan
0.70862573 -0.68517244 1.7590001 nan
0.71197623 -0.68517244 1.7590001 nan
0.71532673 -0.68517244 1.7590001 nan
0.71867716 -0.68517244 1.7590001 nan
0.71833336 -0.68166673 1.7500001 nan
0.72166669 -0.68166673 1.7500001 nan
0.72500002 -0.68166673 1.7500001 nan
0.72833335 -0.68166673 1.7500001 nan
0.31094193 -0.77640098 2.003 nan
0.3130286 -0.77213717 1.9920001 nan
0.31682289 -0.77213717 1.9920001 nan
0.32061717 -0.77213717 1.9920001 nan
0.32066575 -0.76322198 1.9690001 nan
0.32441622 -0.76322198 1.9690001 nan
0.32633334 -0.75895816 1.9580001 nan
0.33006287 -0.75895816 1.9580001 nan
0.33379239 -0.75895816 1.9580001 nan
0.33562574 -0.75469434 1.9470001 nan
0.33933431 -0.75469434 1.9470001 nan
0.34110478 -0.75043052 1.9360001 nan
0.34283337 -0.74616671 1.9250001 nan
0.34470001 -0.7422905 1.9150001 nan
0.34834763 -0.7422905 1.9150001 nan
0.34997335 -0.73802674 1.904 nan
0.35360003 -0.73802674 1.904 nan
0.3572267 -0.73802674 1.904 nan
0.36085334 -0.73802674 1.904 nan
0.36256573 -0.73415053 1.8940001 nan
0.36617336 -0.73415053 1.8940001 nan
0.36978099 -0.73415053 1.8940001 nan
0.37338859 -0.73415053 1.8940001 nan
0.37699622 -0.73415053 1.8940001 nan
0.38060382 -0.73415053 1.8940001 nan
0.38421145 -0.73415053 1.8940001 nan
0.38556668 -0.72988671 1.8830001 nan
0.38915336 -0.72988671 1.8830001 nan
0.39065433 -0.7260105 1.8730001 nan
0.39422193 -0.7260105 1.8730001 nan
0.39778954 -0.7260105 1.8730001 nan
0.3992143 -0.72213435 1.863 nan
0.40276289 -0.72213435 1.863 nan
0.40631145 -0.72213435 1.863 nan
0.40766004 -0.71825814 1.853 nan
0.41118956 -0.71825814 1.853 nan
0.41248098 -0.71438193 1.8430001 nan
0.41599146 -0.71438193 1.8430001 nan
0.41950193 -0.71438193 1.8430001 nan
0.42071718 -0.71050578 1.8330001 nan
0.42420861 -0.71050578 1.8330001 nan
0.42770004 -0.71050578 1.8330001 nan
0.43119144 -0.71050578 1.8330001 nan
0.43468288 -0.71050578 1.8330001 nan
0.43817431 -0.71050578 1.8330001 nan
0.44166574 -0.71050578 1.8330001 nan
0.44297147 -0.70701718 1.8240001 nan
0.44644573 -0.70701718 1.8240001 nan
0.44992003 -0.70701718 1.8240001 nan
0.4509086 -0.70314097 1.8140001 nan
0.45436385 -0.70314097 1.8140001 nan
0.45529526 -0.69926482 1.8040001 nan
0.45873147 -0.69926482 1.8040001 nan
0.45986193 -0.69577622 1.7950001 nan
0.46328098 -0.69577622 1.7950001 nan
0.46670002 -0.69577622 1.7950001 nan
0.47011909 -0.69577622 1.7950001 nan
0.47116384 -0.69228768 1.7860001 nan
0.47456574 -0.69228768 1.7860001 nan
0.47796765 -0.69228768 1.7860001 nan
0.48136955 -0.69228768 1.7860001 nan
0.48477146 -0.69228768 1.7860001 nan
0.48817337 -0.69228768 1.7860001 -3.3969337e+38
0.49157527 -0.69228768 1.7860001 -3.396829e+38
0.49497718 -0.69228768 1.7860001 -3.3833807e+38
0.49586764 -0.68879908 1.7770001 -3.3833805e+38
0.49925241 -0.68879908 1.7770001 -3.3699331e+38
0.50263715 -0.68879908 1.7770001 -3.3965183e+38
0.50602192 -0.68879908 1.7770001 nan
0.50940669 -0.68879908 1.7770001 nan
0.51279145 -0.68879908 1.7770001 nan
0.51356196 -0.68531054 1.7680001 nan
0.51692957 -0.68531054 1.7680001 nan
0.52029717 -0.68531054 1.7680001 nan
0.52366477 -0.68531054 1.7680001 nan
0.52434957 -0.68182194 1.7590001 -3.3969854e+38
0.52770001 -0.68182194 1.7590001 -3.3839032e+38
0.5310505 -0.68182194 1.7590001 -3.3841136e+38
0.534401 -0.68182194 1.7590001 -3.3841123e+38
0.53775144 -0.68182194 1.7590001 -3.3973515e+38
0.54110193 -0.68182194 1.7590001 -3.3971953e+38
0.54445243 -0.68182194 1.7590001 -3.3838507e+38
0.54500002 -0.6783334 1.7500001 -3.3571623e+38
0.54833335 -0.6783334 1.7500001 -3.3569546e+38
0.55166668 -0.6783334 1.7500001 -3.3569031e+38
0.55500001 -0.6783334 1.7500001 -3.3966248e+38
0.5583334 -0.6783334 1.7500001 nan
0.56166673 -0.6783334 1.7500001 nan
0.56500006 -0.6783334 1.7500001 nan
0.56833339 -0.6783334 1.7500001 nan
0.57166672 -0.6783334 1.7500001 nan
0.57500005 -0.6783334 1.7500001 nan
0.57833338 -0.6783334 1.7500001 nan
0.57867527 -0.6748448 1.7410001 nan
0.58199149 -0.6748448 1.7410001 nan
0.58530766 -0.6748448 1.7410001 nan
0.585581 -0.67135626 1.7320001 nan
0.58888006 -0.67135626 1.7320001 nan
0.59217906 -0.67135626 1.7320001 nan
0.59547812 -0.67135626 1.7320001 nan
0.59877717 -0.67135626 1.7320001 nan
0.60207623 -0.67135626 1.7320001 nan
0.60537529 -0.67135626 1.7320001 nan
0.60867435 -0.67135626 1.7320001 nan
0.61515337 -0.6748448 1.7410001 nan
0.62166673 -0.6783334 1.7500001 -3.0880881e+38
0.62500006 -0.6783334 1.7500001 -2.5300223e+38
0.62833339 -0.6783334 1.7500001 -2.7168953e+38
0.63491529 -0.68182194 1.7590001 -2.8900586e+38
0.63826573 -0.68182194 1.7590001 -2.9567798e+38
0.64161623 -0.68182194 1.7590001 -3.0101049e+38
0.64496672 -0.68182194 1.7590001 -3.0499822e+38
0.64831716 -0.68182194 1.7590001 -3.089963e+38
0.65166765 -0.68182194 1.7590001 -3.1033076e+38
0.65501815 -0.68182194 1.7590001 -3.1033081e+38
0.65836859 -0.68182194 1.7590001 -3.1297892e+38
0.66171908 -0.68182194 1.7590001 -3.143133e+38
0.66506958 -0.68182194 1.7590001 -3.2360228e+38
0.66500002 -0.6783334 1.7500001 -3.3300579e+38
0.66833335 -0.6783334 1.7500001 nan
0.67166668 -0.6783334 1.7500001 nan
0.67500007 -0.6783334 1.7500001 nan
0.6783334 -0.6783334 1.7500001 nan
0.68166673 -0.6783334 1.7500001 nan
0.68500006 -0.6783334 1.7500001 nan
0.68833339 -0.6783334 1.7500001 nan
0.69166672 -0.6783334 1.7500001 nan
0.69500005 -0.6783334 1.7500001 nan
0.69833338 -0.6783334 1.7500001 -3.3990234e+38
0.70166671 -0.6783334 1.7500001 nan
0.70862573 -0.68182194 1.7590001 nan
0.71197623 -0.68182194 1.7590001 nan
0.71532673 -0.68182194 1.7590001 nan
0.71867716 -0.68182194 1.7590001 nan
0.72202766 -0.68182194 1.7590001 nan
0.72537816 -0.68182194 1.7590001 nan
0.72500002 -0.6783334 1.7500001 nan
0.72833335 -0.6783334 1.7500001 nan
0.31094193 -0.77258575 2.003 nan
0.31475717 -0.77258575 2.003 nan
0.31682289 -0.76834291 1.9920001 nan
0.32061717 -0.76834291 1.9920001 nan
0.32066575 -0.75947148 1.9690001 nan
0.32441622 -0.75947148 1.9690001 nan
0.32633334 -0.75522864 1.9580001 nan
0.33006287 -0.75522864 1.9580001 nan
0.33379239 -0.75522864 1.9580001 nan
0.33562574 -0.75098574 1.9470001 nan
0.33933431 -0.75098574 1.9470001 nan
0.34110478 -0.7467429 1.9360001 nan
0.34283337 -0.74250007 1.9250001 nan
0.34470001 -0.73864293 1.9150001 nan
0.34634668 -0.73440003 1.904 nan
0.34997335 -0.73440003 1.904 nan
0.35360003 -0.73440003 1.904 nan
0.3572267 -0.73440003 1.904 nan
0.35895813 -0.7305429 1.8940001 -3.397823e+38
0.36256573 -0.7305429 1.8940001 nan
0.36404669 -0.72630006 1.8830001 nan
0.36763334 -0.72630006 1.8830001 nan
0.37122002 -0.72630006 1.8830001 nan
0.3748067 -0.72630006 1.8830001 nan
0.37839335 -0.72630006 1.8830001 nan
0.38198003 -0.72630006 1.8830001 nan
0.38556668 -0.72630006 1.8830001 nan
0.38708669 -0.72244292 1.8730001 nan
0.39065433 -0.72244292 1.8730001 nan
0.39422193 -0.72244292 1.8730001 nan
0.39778954 -0.72244292 1.8730001 nan
0.3992143 -0.71858579 1.863 nan
0.40276289 -0.71858579 1.863 nan
0.40413049 -0.71472859 1.853 nan
0.40766004 -0.71472859 1.853 nan
0.41118956 -0.71472859 1.853 nan
0.41248098 -0.71087146 1.8430001 nan
0.41599146 -0.71087146 1.8430001 nan
0.41722575 -0.70701432 1.8330001 nan
0.42071718 -0.70701432 1.8330001 nan
0.42420861 -0.70701432 1.8330001 nan
0.42770004 -0.70701432 1.8330001 nan
0.43119144 -0.70701432 1.8330001 nan
0.43468288 -0.70701432 1.8330001 nan
0.43817431 -0.70701432 1.8330001 nan
0.43949717 -0.70354289 1.8240001 nan
0.44297147 -0.70354289 1.8240001 nan
0.44644573 -0.70354289 1.8240001 nan
0.44992003 -0.70354289 1.8240001 nan
0.4509086 -0.69968575 1.8140001 nan
0.45185909 -0.69582862 1.8040001 nan
0.45529526 -0.69582862 1.8040001 nan
0.45644289 -0.69235718 1.7950001 nan
0.45986193 -0.69235718 1.7950001 nan
0.46328098 -0.69235718 1.7950001 nan
0.46670002 -0.69235718 1.7950001 nan
0.47011909 -0.69235718 1.7950001 nan
0.47116384 -0.68888575 1.7860001 nan
0.47456574 -0.68888575 1.7860001 nan
0.47796765 -0.68888575 1.7860001 nan
0.48136955 -0.68888575 1.7860001 nan
0.48477146 -0.68888575 1.7860001 nan
0.48817337 -0.68888575 1.7860001 -3.3971424e+38
0.48909813 -0.68541431 1.7770001 -3.3969339e+38
0.4924829 -0.68541431 1.7770001 -3.3966736e+38
0.49586764 -0.68541431 1.7770001 nan
0.49925241 -0.68541431 1.7770001 nan
0.50263715 -0.68541431 1.7770001 nan
0.50602192 -0.68541431 1.7770001 nan
0.50940669 -0.68541431 1.7770001 nan
0.51279145 -0.68541431 1.7770001 nan
0.51617622 -0.68541431 1.7770001 nan
0.51692957 -0.68194288 1.7680001 nan
0.52029717 -0.68194288 1.7680001 nan
0.52099907 -0.67847145 1.7590001 nan
0.52434957 -0.67847145 1.7590001 -3.3970917e+38
0.52770001 -0.67847145 1.7590001 -3.3838519e+38
0.5310505 -0.67847145 1.7590001 -3.3840602e+38
0.5316667 -0.67500007 1.7500001 -3.3973006e+38
0.53500003 -0.67500007 1.7500001 -3.3973523e+38
0.53833336 -0.67500007 1.7500001 nan
0.54166669 -0.67500007 1.7500001 nan
0.54500002 -0.67500007 1.7500001 -3.3970401e+38
0.54833335 -0.67500007 1.7500001 nan
0.55166668 -0.67500007 1.7500001 nan
0.55500001 -0.67500007 1.7500001 nan
0.5583334 -0.67500007 1.7500001 nan
0.56166673 -0.67500007 1.7500001 nan
0.56500006 -0.67500007 1.7500001 nan
0.56833339 -0.67500007 1.7500001 nan
0.57166672 -0.67500007 1.7500001 nan
0.57500005 -0.67500007 1.7500001 nan
0.57833338 -0.67500007 1.7500001 -3.382864e+38
0.57867527 -0.67152864 1.7410001 -3.383071e+38
0.58500004 -0.67500007 1.7500001 -3.3966783e+38
0.58530766 -0.67152864 1.7410001 nan
0.585581 -0.6680572 1.7320001 nan
0.58888006 -0.6680572 1.7320001 nan
0.59217906 -0.6680572 1.7320001 nan
0.59547812 -0.6680572 1.7320001 nan
0.59877717 -0.6680572 1.7320001 nan
0.60207623 -0.6680572 1.7320001 nan
0.60537529 -0.6680572 1.7320001 nan
0.60867435 -0.6680572 1.7320001 nan
0.61515337 -0.67152864 1.7410001 nan
0.62166673 -0.67500007 1.7500001 -3.1287961e+38
0.62500006 -0.67500007 1.7500001 -2.5296073e+38
0.62833339 -0.67500007 1.7500001 -2.7035515e+38
0.63491529 -0.67847145 1.7590001 -2.8902667e+38
0.63826573 -0.67847145 1.7590001 -2.9701244e+38
0.64161623 -0.67847145 1.7590001 -3.0366897e+38
0.64496672 -0.67847145 1.7590001 -3.0633259e+38
0.64831716 -0.67847145 1.7590001 -3.0899628e+38
0.65166765 -0.67847145 1.7590001 -3.1032555e+38
0.65501815 -0.67847145 1.7590001 -3.116548e+38
0.65836859 -0.67847145 1.7590001 -3.1297886e+38
0.66171908 -0.67847145 1.7590001 -3.1563202e+38
0.66506958 -0.67847145 1.7590001 -3.2232479e+38
0.66500002 -0.67500007 1.7500001 -3.2773019e+38
0.66833335 -0.67500007 1.7500001 nan
0.67166668 -0.67500007 1.7500001 nan
0.67847145 -0.67847145 1.7590001 nan
0.68182194 -0.67847145 1.7590001 nan
0.68517244 -0.67847145 1.7590001 nan
0.68852288 -0.67847145 1.7590001 nan
0.69187337 -0.67847145 1.7590001 nan
0.69522387 -0.67847145 1.7590001 nan
0.6985743 -0.67847145 1.7590001 nan
0.7019248 -0.67847145 1.7590001 nan
0.70166671 -0.67500007 1.7500001 nan
0.70862573 -0.67847145 1.7590001 nan
0.71197623 -0.67847145 1.7590001 nan
0.71532673 -0.67847145 1.7590001 nan
0.71867716 -0.67847145 1.7590001 nan
0.72202766 -0.67847145 1.7590001 nan
0.72537816 -0.67847145 1.7590001 nan
0.72872859 -0.67847145 1.7590001 nan
0.73207909 -0.67847145 1.7590001 nan
0.3071267 -0.76877052 2.003 nan
0.31094193 -0.76877052 2.003 nan
0.31475717 -0.76877052 2.003 nan
0.31682289 -0.7645486 1.9920001 nan
0.32061717 -0.7645486 1.9920001 nan
0.32066575 -0.75572097 1.9690001 nan
0.32260382 -0.75149912 1.9580001 nan
0.32633334 -0.75149912 1.9580001 nan
0.33006287 -0.75149912 1.9580001 nan
0.33191717 -0.7472772 1.9470001 nan
0.33562574 -0.7472772 1.9470001 nan
0.33933431 -0.7472772 1.9470001 nan
0.34110478 -0.74305528 1.9360001 nan
0.34105241 -0.73499531 1.9150001 nan
0.34272003 -0.73077339 1.904 nan
0.34634668 -0.73077339 1.904 nan
0.34813526 -0.72693527 1.8940001 nan
0.35174289 -0.72693527 1.8940001 nan
0.35535049 -0.72693527 1.8940001 -3.3570623e+38
0.35895813 -0.72693527 1.8940001 -3.2644845e+38
0.36046001 -0.72271335 1.8830001 -3.3844271e+38
0.36404669 -0.72271335 1.8830001 nan
0.36763334 -0.72271335 1.8830001 nan
0.37122002 -0.72271335 1.8830001 nan
0.3748067 -0.72271335 1.8830001 nan
0.37839335 -0.72271335 1.8830001 nan
0.37995145 -0.71887529 1.8730001 nan
0.38351908 -0.71887529 1.8730001 nan
0.38708669 -0.71887529 1.8730001 nan
0.39065433 -0.71887529 1.8730001 nan
0.39211717 -0.71503717 1.863 nan
0.39566574 -0.71503717 1.863 nan
0.3992143 -0.71503717 1.863 nan
0.40276289 -0.71503717 1.863 nan
0.40413049 -0.7111991 1.853 nan
0.40766004 -0.7111991 1.853 nan
0.41118956 -0.7111991 1.853 nan
0.41248098 -0.70736098 1.8430001 nan
0.41599146 -0.70736098 1.8430001 nan
0.41722575 -0.70352292 1.8330001 nan
0.42071718 -0.70352292 1.8330001 nan
0.42420861 -0.70352292 1.8330001 nan
0.42770004 -0.70352292 1.8330001 nan
0.43119144 -0.70352292 1.8330001 nan
0.43468288 -0.70352292 1.8330001 nan
0.43602288 -0.70006859 1.8240001 nan
0.43949717 -0.70006859 1.8240001 nan
0.44297147 -0.70006859 1.8240001 nan
0.44644573 -0.70006859 1.8240001 nan
0.44745335 -0.69623053 1.8140001 nan
0.44842288 -0.69239241 1.8040001 nan
0.45185909 -0.69239241 1.8040001 nan
0.45302385 -0.68893814 1.7950001 nan
0.45644289 -0.68893814 1.7950001 nan
0.45986193 -0.68893814 1.7950001 nan
0.46328098 -0.68893814 1.7950001 nan
0.46436003 -0.68548387 1.7860001 nan
0.46776193 -0.68548387 1.7860001 nan
0.47116384 -0.68548387 1.7860001 nan
0.47456574 -0.68548387 1.7860001 nan
0.47555909 -0.68202955 1.7770001 nan
0.47894385 -0.68202955 1.7770001 -3.3971434e+38
0.48232859 -0.68202955 1.7770001 -3.3971949e+38
0.48571336 -0.68202955 1.7770001 -3.3971945e+38
0.48662099 -0.67857528 1.7680001 nan
0.4924829 -0.68202955 1.7770001 nan
0.49335623 -0.67857528 1.7680001 nan
0.49672383 -0.67857528 1.7680001 nan
0.50009143 -0.67857528 1.7680001 nan
0.5034591 -0.67857528 1.7680001 nan
0.5068267 -0.67857528 1.7680001 nan
0.5101943 -0.67857528 1.7680001 nan
0.51356196 -0.67857528 1.7680001 nan
0.51429814 -0.67512101 1.7590001 nan
0.51764858 -0.67512101 1.7590001 nan
0.52099907 -0.67512101 1.7590001 nan
0.52434957 -0.67512101 1.7590001 nan
0.52770001 -0.67512101 1.7590001 -3.3840606e+38
0.52833337 -0.67166668 1.7500001 -3.3975087e+38
0.5316667 -0.67166668 1.7500001 -3.3974567e+38
0.53500003 -0.67166668 1.7500001 nan
0.53833336 -0.67166668 1.7500001 nan
0.54166669 -0.67166668 1.7500001 nan
0.54500002 -0.67166668 1.7500001 nan
0.54833335 -0.67166668 1.7500001 nan
0.55166668 -0.67166668 1.7500001 nan
0.55500001 -0.67166668 1.7500001 nan
0.5583334 -0.67166668 1.7500001 nan
0.55877811 -0.66821241 1.7410001 nan
0.56209433 -0.66821241 1.7410001 nan
0.56833339 -0.67166668 1.7500001 nan
0.57166672 -0.67166668 1.7500001 nan
0.57500005 -0.67166668 1.7500001 -3.3829688e+38
0.57833338 -0.67166668 1.7500001 -3.3166111e+38
0.57867527 -0.66821241 1.7410001 -3.3433514e+38
0.58199149 -0.66821241 1.7410001 -3.3573209e+38
0.58530766 -0.66821241 1.7410001 -3.3977711e+38
0.585581 -0.66475815 1.7320001 nan
0.58582002 -0.66130388 1.723 nan
0.58910197 -0.66130388 1.723 nan
0.59238386 -0.66130388 1.723 nan
0.59877717 -0.66475815 1.7320001 nan
0.60207623 -0.66475815 1.7320001 nan
0.60537529 -0.66475815 1.7320001 nan
0.61183721 -0.66821241 1.7410001 nan
0.6183334 -0.67166668 1.7500001 nan
0.62166673 -0.67166668 1.7500001 -3.1811333e+38
0.62500006 -0.67166668 1.7500001 -2.5168854e+38
0.62833339 -0.67166668 1.7500001 -2.7040184e+38
0.63491529 -0.67512101 1.7590001 -2.8902665e+38
0.63826573 -0.67512101 1.7590001 -2.9835203e+38
0.64161623 -0.67512101 1.7590001 -3.0632742e+38
0.64496672 -0.67512101 1.7590001 -3.0766706e+38
0.65163434 -0.67857528 1.7680001 -3.0766188e+38
0.65500194 -0.67857528 1.7680001 -3.1032036e+38
0.65501815 -0.67512101 1.7590001 -3.1164444e+38
0.65836859 -0.67512101 1.7590001 -3.1429774e+38
0.66171908 -0.67512101 1.7590001 -3.1697697e+38
0.66506958 -0.67512101 1.7590001 -3.1967179e+38
0.66842002 -0.67512101 1.7590001 -3.2241876e+38
0.67177051 -0.67512101 1.7590001 nan
0.67512101 -0.67512101 1.7590001 nan
0.67847145 -0.67512101 1.7590001 nan
0.68182194 -0.67512101 1.7590001 nan
0.68517244 -0.67512101 1.7590001 nan
0.68852288 -0.67512101 1.7590001 nan
0.69187337 -0.67512101 1.7590001 nan
0.69522387 -0.67512101 1.7590001 nan
0.6985743 -0.67512101 1.7590001 nan
0.69833338 -0.67166668 1.7500001 nan
0.70166671 -0.67166668 1.7500001 nan
0.70862573 -0.67512101 1.7590001 nan
0.71197623 -0.67512101 1.7590001 nan
0.71532673 -0.67512101 1.7590001 nan
0.71867716 -0.67512101 1.7590001 nan
0.72202766 -0.67512101 1.7590001 nan
0.72537816 -0.67512101 1.7590001 nan
0.72872859 -0.67512101 1.7590001 nan
0.73582482 -0.67857528 1.7680001 nan
0.30694574 -0.77412099 2.0270002 nan
0.3089667 -0.76953816 2.0150001 nan
0.31094193 -0.76495528 2.003 nan
0.31475717 -0.76495528 2.003 nan
0.31682289 -0.76075435 1.9920001 nan
0.32061717 -0.76075435 1.9920001 nan
0.32066575 -0.75197053 1.9690001 nan
0.32260382 -0.74776959 1.9580001 nan
0.32633334 -0.74776959 1.9580001 nan
0.33006287 -0.74776959 1.9580001 nan
0.33191717 -0.7435686 1.9470001 nan
0.33562574 -0.7435686 1.9470001 nan
0.33933431 -0.7435686 1.9470001 nan
0.33740479 -0.73134768 1.9150001 nan
0.34105241 -0.73134768 1.9150001 nan
0.34272003 -0.72714669 1.904 nan
0.34452763 -0.7233277 1.8940001 nan
0.34813526 -0.7233277 1.8940001 nan
0.35174289 -0.7233277 1.8940001 nan
0.35535049 -0.7233277 1.8940001 nan
0.35687336 -0.7191267 1.8830001 -3.397147e+38
0.36046001 -0.7191267 1.8830001 nan
0.36404669 -0.7191267 1.8830001 nan
0.36763334 -0.7191267 1.8830001 nan
0.3692486 -0.71530765 1.8730001 nan
0.3748067 -0.7191267 1.8830001 nan
0.37638384 -0.71530765 1.8730001 nan
0.37995145 -0.71530765 1.8730001 nan
0.38351908 -0.71530765 1.8730001 nan
0.38708669 -0.71530765 1.8730001 nan
0.38856861 -0.7114886 1.863 nan
0.39211717 -0.7114886 1.863 nan
0.39566574 -0.7114886 1.863 nan
0.3992143 -0.7114886 1.863 nan
0.40276289 -0.7114886 1.863 nan
0.40413049 -0.70766956 1.853 nan
0.40766004 -0.70766956 1.853 nan
0.41118956 -0.70766956 1.853 nan
0.41248098 -0.70385051 1.8430001 nan
0.41599146 -0.70385051 1.8430001 nan
0.41722575 -0.70003146 1.8330001 nan
0.42071718 -0.70003146 1.8330001 nan
0.42420861 -0.70003146 1.8330001 nan
0.42770004 -0.70003146 1.8330001 nan
0.43119144 -0.70003146 1.8330001 nan
0.43254861 -0.69659436 1.8240001 nan
0.43602288 -0.69659436 1.8240001 nan
0.43949717 -0.69659436 1.8240001 nan
0.44297147 -0.69659436 1.8240001 nan
0.44644573 -0.69659436 1.8240001 nan
0.44745335 -0.69277531 1.8140001 nan
0.44842288 -0.68895626 1.8040001 nan
0.45185909 -0.68895626 1.8040001 nan
0.45302385 -0.6855191 1.7950001 nan
0.45644289 -0.6855191 1.7950001 nan
0.45986193 -0.6855191 1.7950001 nan
0.46095812 -0.68208194 1.7860001 nan
0.46436003 -0.68208194 1.7860001 nan
0.46776193 -0.68208194 1.7860001 nan
0.47116384 -0.68208194 1.7860001 nan
0.47456574 -0.68208194 1.7860001 nan
0.47555909 -0.67864484 1.7770001 nan
0.47894385 -0.67864484 1.7770001 nan
0.48232859 -0.67864484 1.7770001 nan
0.48325336 -0.67520767 1.7680001 nan
0.48662099 -0.67520767 1.7680001 nan
0.4899886 -0.67520767 1.7680001 nan
0.49084479 -0.67177051 1.7590001 nan
0.49419528 -0.67177051 1.7590001 nan
0.50009143 -0.67520767 1.7680001 nan
0.5034591 -0.67520767 1.7680001 nan
0.5068267 -0.67520767 1.7680001 nan
0.50759715 -0.67177051 1.7590001 nan
0.51094764 -0.67177051 1.7590001 nan
0.51429814 -0.67177051 1.7590001 nan
0.51764858 -0.67177051 1.7590001 nan
0.52099907 -0.67177051 1.7590001 nan
0.52434957 -0.67177051 1.7590001 nan
0.52770001 -0.67177051 1.7590001 nan
0.52833337 -0.66833335 1.7500001 nan
0.5316667 -0.66833335 1.7500001 nan
0.53500003 -0.66833335 1.7500001 nan
0.53833336 -0.66833335 1.7500001 nan
0.54166669 -0.66833335 1.7500001 nan
0.54500002 -0.66833335 1.7500001 nan
0.54833335 -0.66833335 1.7500001 nan
0.55166668 -0.66833335 1.7500001 nan
0.55500001 -0.66833335 1.7500001 nan
0.5583334 -0.66833335 1.7500001 nan
0.55877811 -0.66489625 1.7410001 nan
0.56209433 -0.66489625 1.7410001 nan
0.56833339 -0.66833335 1.7500001 nan
0.57166672 -0.66833335 1.7500001 nan
0.57500005 -0.66833335 1.7500001 -3.3699366e+38
0.57535911 -0.66489625 1.7410001 -3.3167678e+38
0.57867527 -0.66489625 1.7410001 -3.3438201e+38
0.58199149 -0.66489625 1.7410001 -3.3712365e+38
0.58530766 -0.66489625 1.7410001 -3.3975624e+38
0.58253813 -0.65802193 1.723 nan
0.58582002 -0.65802193 1.723 nan
0.59217906 -0.66145909 1.7320001 nan
0.59547812 -0.66145909 1.7320001 nan
0.59877717 -0.66145909 1.7320001 nan
0.60207623 -0.66145909 1.7320001 nan
0.60852098 -0.66489625 1.7410001 nan
0.61500007 -0.66833335 1.7500001 nan
0.6183334 -0.66833335 1.7500001 nan
0.62486386 -0.67177051 1.7590001 -3.1560011e+38
0.6282143 -0.67177051 1.7590001 -2.7160611e+38
0.6315648 -0.67177051 1.7590001 -2.823337e+38
0.63491529 -0.67177051 1.7590001 -2.930091e+38
0.63826573 -0.67177051 1.7590001 -2.9966047e+38
0.64489907 -0.67520767 1.7680001 -3.04993e+38
0.64496672 -0.67177051 1.7590001 -3.0631708e+38
0.64831716 -0.67177051 1.7590001 -3.0632229e+38
0.65166765 -0.67177051 1.7590001 -3.0898075e+38
0.65501815 -0.67177051 1.7590001 -3.1163926e+38
0.65836859 -0.67177051 1.7590001 -3.1430295e+38
0.66171908 -0.67177051 1.7590001 -3.1830634e+38
0.66506958 -0.67177051 1.7590001 -3.2100645e+38
0.66842002 -0.67177051 1.7590001 -3.2373788e+38
0.67177051 -0.67177051 1.7590001 nan
0.67512101 -0.67177051 1.7590001 nan
0.67847145 -0.67177051 1.7590001 nan
0.68182194 -0.67177051 1.7590001 nan
0.68517244 -0.67177051 1.7590001 nan
0.68852288 -0.67177051 1.7590001 nan
0.69187337 -0.67177051 1.7590001 nan
0.69522387 -0.67177051 1.7590001 nan
0.6985743 -0.67177051 1.7590001 nan
0.7019248 -0.67177051 1.7590001 nan
0.7052753 -0.67177051 1.7590001 nan
0.70862573 -0.67177051 1.7590001 nan
0.71197623 -0.67177051 1.7590001 nan
0.71532673 -0.67177051 1.7590001 nan
0.71867716 -0.67177051 1.7590001 nan
0.72202766 -0.67177051 1.7590001 nan
0.72908956 -0.67520767 1.7680001 nan
0.73245722 -0.67520767 1.7680001 nan
0.7395705 -0.67864484 1.7770001 nan
0.30276668 -0.77938002 2.0510001 nan
0.30487907 -0.77482003 2.039 nan
0.30694574 -0.77026004 2.0270002 nan
0.3089667 -0.76570004 2.0150001 nan
0.31094193 -0.76114005 2.003 nan
0.31475717 -0.76114005 2.003 nan
0.31682289 -0.75696003 1.9920001 nan
0.32061717 -0.75696003 1.9920001 nan
0.32066575 -0.74822003 1.9690001 nan
0.32260382 -0.74404007 1.9580001 nan
0.32633334 -0.74404007 1.9580001 nan
0.33006287 -0.74404007 1.9580001 nan
0.33191717 -0.73986006 1.9470001 nan
0.33562574 -0.73986006 1.9470001 nan
0.33741716 -0.73568004 1.9360001 nan
0.33740479 -0.72770005 1.9150001 nan
0.34105241 -0.72770005 1.9150001 nan
0.34272003 -0.72352004 1.904 nan
0.34452763 -0.71972007 1.8940001 nan
0.34813526 -0.71972007 1.8940001 nan
0.34970003 -0.71554005 1.8830001 nan
0.35328668 -0.71554005 1.8830001 nan
0.35687336 -0.71554005 1.8830001 nan
0.36046001 -0.71554005 1.8830001 nan
0.36211336 -0.71174008 1.8730001 nan
0.36568096 -0.71174008 1.8730001 nan
0.3692486 -0.71174008 1.8730001 nan
0.37281621 -0.71174008 1.8730001 nan
0.37638384 -0.71174008 1.8730001 nan
0.37995145 -0.71174008 1.8730001 nan
0.38351908 -0.71174008 1.8730001 nan
0.38502002 -0.70794004 1.863 nan
0.38856861 -0.70794004 1.863 nan
0.39211717 -0.70794004 1.863 nan
