# .PCD v0.7 - Point Cloud Data file format
VERSION 0.7
FIELDS x y z rgb
SIZE 4 4 4 4
TYPE F F F F
COUNT 1 1 1 1
WIDTH 1051
HEIGHT 1
VIEWPOINT 0 0 0 1 0 0 0
POINTS 1051
DATA ascii
2.5662084 0.090512358 1.8894045 -2.288831e+38
2.5661981 0.085986666 1.8894045 -2.3286563e+38
2.5661876 0.08146096 1.8894045 -2.3553447e+38
2.5661774 0.076935239 1.8894045 -2.3420524e+38
2.5661669 0.072409548 1.8894045 -2.3289159e+38
2.5661566 0.067883842 1.8894045 -2.3555007e+38
2.5661461 0.06335815 1.8894045 -2.368897e+38
2.5661359 0.058832444 1.8894045 -2.3556047e+38
2.5661254 0.054306731 1.8894045 -2.3423131e+38
2.5661151 0.049781024 1.8894045 -2.3290731e+38
2.5661047 0.045255326 1.8894045 -2.3158849e+38
2.5660944 0.04072962 1.8894045 -2.329281e+38
2.5660839 0.036203921 1.8894045 -2.3292291e+38
2.5660737 0.031678222 1.8894045 -2.3425212e+38
2.5660632 0.027152508 1.8894045 -2.3424167e+38
2.5660529 0.02262681 1.8894045 -2.3557084e+38
2.5660424 0.018101104 1.8894045 -2.3557603e+38
2.5660322 0.013575405 1.8894045 -2.3690526e+38
2.5660217 0.0090497062 1.8894045 -2.3690526e+38
2.5820127 0.0050206557 1.8937778 -2.3823449e+38
2.5820022 0.00046447664 1.8937778 -2.395741e+38
2.5819917 -0.0040917099 1.8937778 -2.4090854e+38
2.5989823 -0.0082173347 1.8984245 -2.4224298e+38
2.5989718 -0.012805898 1.8984245 -2.4091377e+38
2.5989614 -0.017394453 1.8984245 -2.3826576e+38
2.5989506 -0.021983016 1.8984245 -2.3827101e+38
2.5989401 -0.026571576 1.8984245 -2.3694702e+38
2.5989296 -0.031160135 1.8984245 -2.3695227e+38
2.5989192 -0.035748694 1.8984245 -2.3562828e+38
2.5819082 -0.040541135 1.8937778 -2.3828677e+38
2.5818977 -0.045097314 1.8937778 -2.4096606e+38
2.5818872 -0.049653493 1.8937778 -2.4497455e+38
2.5818768 -0.054209672 1.8937778 -2.4896236e+38
2.5818663 -0.058765851 1.8937778 -2.5295016e+38
2.581856 -0.06332203 1.8937778 -2.5562949e+38
2.5818455 -0.067878209 1.8937778 -2.5962247e+38
2.598835 -0.072457172 1.8984245 -2.6363622e+38
2.5988245 -0.077045731 1.8984245 -2.6897921e+38
2.598814 -0.081634291 1.8984245 -2.7433776e+38
2.5988035 -0.08622285 1.8984245 -2.7838268e+38
2.598793 -0.090811409 1.8984245 -2.8240158e+38
2.5987823 -0.095399968 1.8984245 -2.9576662e+38
2.6157713 -0.1002056 1.9030712 -3.0910086e+38
2.6157606 -0.10482654 1.9030712 -3.1981821e+38
2.6327493 -0.1097293 1.9077179 -3.2915949e+38
2.6327388 -0.11438262 1.9077179 nan
2.6497273 -0.11938255 1.9123645 nan
2.6497166 -0.12406825 1.9123645 nan
2.6677051 -0.12918951 1.9172845 nan
2.7798638 0.37606046 1.9426931 nan
2.7798524 0.37112904 1.9426931 nan
2.7798412 0.36619762 1.9426931 nan
2.77983 0.36126623 1.9426931 nan
2.7608113 0.3532117 1.937536 nan
2.7417929 0.34522954 1.9323788 nan
2.7417817 0.34037051 1.9323788 -3.04711e+38
2.7227635 0.33249697 1.9272217 -1.7281142e+38
2.704746 0.32485256 1.922336 -2.1023263e+38
2.704735 0.32006398 1.922336 -2.475288e+38
2.7047241 0.31527543 1.922336 -2.4620464e+38
2.6867068 0.30776811 1.9174502 -2.4355144e+38
2.6866958 0.30301386 1.9174502 -2.4221706e+38
2.668679 0.29560941 1.9125645 -2.3956382e+38
2.668668 0.29088944 1.9125645 -2.3955343e+38
2.6336455 0.28114969 1.9030645 -2.3954299e+38
2.6336348 0.27649638 1.9030645 -2.382085e+38
2.6336243 0.27184305 1.9030645 -2.3687919e+38
2.6166081 0.26484871 1.8984503 -2.3554467e+38
2.6165974 0.2602278 1.8984503 -2.3554465e+38
2.6165869 0.25560683 1.8984503 -2.3554463e+38
2.6165764 0.25098589 1.8984503 -2.355291e+38
2.6165657 0.24636495 1.8984503 -2.3553431e+38
2.6165552 0.24174401 1.8984503 -2.3552392e+38
2.6165445 0.23712307 1.8984503 -2.341947e+38
2.616534 0.23250213 1.8984503 -2.3418952e+38
2.6165233 0.22788116 1.8984503 -2.3286549e+38
2.6165128 0.22326025 1.8984503 -2.3286549e+38
2.6335068 0.22065651 1.9030645 -2.302122e+38
2.6334963 0.21600318 1.9030645 -2.2755898e+38
2.6334856 0.21134987 1.9030645 -2.2489535e+38
2.6164703 0.20477647 1.8984503 -2.2356613e+38
2.6164598 0.20015556 1.8984503 -2.2090767e+38
2.5994451 0.1936793 1.893836 -2.1825441e+38
2.5994346 0.18909076 1.893836 -2.1957844e+38
2.5994241 0.18450218 1.893836 -2.2223164e+38
2.5824096 0.17815545 1.8892217 -2.2223158e+38
2.5823991 0.17359927 1.8892217 -2.235556e+38
2.5823886 0.16904309 1.8892217 -2.2355039e+38
2.5823781 0.16448691 1.8892217 -2.2487444e+38
2.5823677 0.15993074 1.8892217 -2.2620888e+38
2.5823572 0.15537456 1.8892217 -2.2753811e+38
2.5823469 0.15081838 1.8892217 -2.2754328e+38
2.5823364 0.1462622 1.8892217 -2.288777e+38
2.5663226 0.14029509 1.8848789 -2.2887251e+38
2.5663123 0.1357694 1.8848789 -2.2886211e+38
2.5663018 0.13124368 1.8848789 -2.2753803e+38
2.5662916 0.12671798 1.8848789 -2.2620888e+38
2.5662811 0.12219227 1.8848789 -2.2488491e+38
2.5662708 0.11766656 1.8848789 -2.2489008e+38
2.5662603 0.11314087 1.8848789 -2.2489004e+38
2.5662498 0.10861517 1.8848789 -2.248901e+38
2.5662396 0.10408948 1.8848789 -2.2356091e+38
2.5662291 0.099563755 1.8848789 -2.2356093e+38
2.5662189 0.095038064 1.8848789 -2.2489537e+38
2.5662084 0.090512358 1.8848789 -2.2489543e+38
2.5661981 0.085986666 1.8848789 -2.2888316e+38
2.5661876 0.08146096 1.8848789 -2.3154681e+38
2.5661774 0.076935239 1.8848789 -2.31552e+38
2.5661669 0.072409548 1.8848789 -2.3155719e+38
2.5661566 0.067883842 1.8848789 -2.3289161e+38
2.5661461 0.06335815 1.8848789 -2.3422605e+38
2.5661359 0.058832444 1.8848789 -2.3422605e+38
2.5661254 0.054306731 1.8848789 -2.3423133e+38
2.5661151 0.049781024 1.8848789 -2.3290735e+38
2.5661047 0.045255326 1.8848789 -2.3292295e+38
2.5660944 0.04072962 1.8848789 -2.3291778e+38
2.5660839 0.036203921 1.8848789 -2.342366e+38
2.5660737 0.031678222 1.8848789 -2.3423139e+38
2.5660632 0.027152508 1.8848789 -2.3422096e+38
2.5660529 0.02262681 1.8848789 -2.3423648e+38
2.5820439 0.018689185 1.8892217 -2.3557607e+38
2.5660322 0.013575405 1.8848789 -2.3558124e+38
2.5660217 0.0090497062 1.8848789 -2.3691047e+38
2.5820127 0.0050206557 1.8892217 -2.382397e+38
2.5820022 0.00046447664 1.8892217 -2.3957933e+38
2.5819917 -0.0040917099 1.8892217 -2.4091375e+38
2.5989823 -0.0082173347 1.893836 -2.4091377e+38
2.5989718 -0.012805898 1.893836 -2.3959493e+38
2.5989614 -0.017394453 1.893836 -2.3960539e+38
2.5989506 -0.021983016 1.893836 -2.3827623e+38
2.5989401 -0.026571576 1.893836 -2.3827627e+38
2.5989296 -0.031160135 1.893836 -2.3961073e+38
2.5989192 -0.035748694 1.893836 -2.39616e+38
2.5819082 -0.040541135 1.8892217 -2.422849e+38
2.5818977 -0.045097314 1.8892217 -2.4363494e+38
2.5818872 -0.049653493 1.8892217 -2.4629863e+38
2.5818768 -0.054209672 1.8892217 -2.5029682e+38
2.5818663 -0.058765851 1.8892217 -2.5296578e+38
2.581856 -0.06332203 1.8892217 -2.5697434e+38
2.5818455 -0.067878209 1.8892217 -2.6097251e+38
2.598835 -0.072457172 1.893836 -2.6630512e+38
2.5988245 -0.077045731 1.893836 -2.7164809e+38
2.598814 -0.081634291 1.893836 -2.7700147e+38
2.5988035 -0.08622285 1.893836 -2.810412e+38
2.598793 -0.090811409 1.893836 -2.8506525e+38
2.5987823 -0.095399968 1.893836 -2.9841465e+38
2.6157713 -0.1002056 1.8984503 -3.1174372e+38
2.6157606 -0.10482654 1.8984503 -3.2776757e+38
2.6327493 -0.1097293 1.9030645 nan
2.6327388 -0.11438262 1.9030645 nan
2.6497273 -0.11938255 1.9076788 nan
2.6497166 -0.12406825 1.9076788 nan
2.6497059 -0.12875395 1.9076788 nan
2.7798638 0.37606046 1.9377617 nan
2.7798524 0.37112904 1.9377617 nan
2.7798412 0.36619762 1.9377617 nan
2.7608225 0.35810694 1.9326408 nan
2.7608113 0.3532117 1.9326408 nan
2.7417929 0.34522954 1.9275198 nan
2.7417817 0.34037051 1.9275198 -2.9509502e+38
2.7227635 0.33249697 1.9223988 -1.7155497e+38
2.704746 0.32485256 1.9175475 -2.0766246e+38
2.704735 0.32006398 1.9175475 -2.4354633e+38
2.7047241 0.31527543 1.9175475 -2.4487543e+38
2.6867068 0.30776811 1.9126959 -2.461943e+38
2.6866958 0.30301386 1.9126959 -2.448599e+38
2.668679 0.29560941 1.9078445 -2.4220144e+38
2.6506619 0.28827357 1.9029931 -2.4087221e+38
2.6336455 0.28114969 1.8984113 -2.3953773e+38
2.6336348 0.27649638 1.8984113 -2.3952727e+38
2.6336243 0.27184305 1.8984113 -2.3820317e+38
2.6336136 0.26718974 1.8984113 -2.3687386e+38
2.6165974 0.2602278 1.8938293 -2.3554463e+38
2.6165869 0.25560683 1.8938293 -2.3553942e+38
2.6165764 0.25098589 1.8938293 -2.3553944e+38
2.6165657 0.24636495 1.8938293 -2.3553948e+38
2.6165552 0.24174401 1.8938293 -2.3553429e+38
2.6165445 0.23712307 1.8938293 -2.3419987e+38
2.616534 0.23250213 1.8938293 -2.3154141e+38
2.6165233 0.22788116 1.8938293 -2.3154141e+38
2.6165128 0.22326025 1.8938293 -2.3021218e+38
2.6335068 0.22065651 1.8984113 -2.2888296e+38
2.6334963 0.21600318 1.8984113 -2.2621931e+38
2.6164811 0.20939744 1.8938293 -2.2355566e+38
2.6164703 0.20477647 1.8938293 -2.2090242e+38
2.5994556 0.19826788 1.8892474 -2.1957323e+38
2.5994451 0.1936793 1.8892474 -2.1691477e+38
2.5994346 0.18909076 1.8892474 -2.1823881e+38
2.5824199 0.18271163 1.8846655 -2.19568e+38
2.5824096 0.17815545 1.8846655 -2.2222641e+38
2.5823991 0.17359927 1.8846655 -2.2355043e+38
2.5823886 0.16904309 1.8846655 -2.2354519e+38
2.5823781 0.16448691 1.8846655 -2.2355041e+38
2.5823677 0.15993074 1.8846655 -2.2620888e+38
2.5823572 0.15537456 1.8846655 -2.2753813e+38
2.5823469 0.15081838 1.8846655 -2.2754334e+38
2.5823364 0.1462622 1.8846655 -2.2621412e+38
2.5663226 0.14029509 1.8803531 -2.2753815e+38
2.5663123 0.1357694 1.8803531 -2.2754332e+38
2.5663018 0.13124368 1.8803531 -2.262089e+38
2.5662916 0.12671798 1.8803531 -2.248797e+38
2.5662811 0.12219227 1.8803531 -2.2355049e+38
2.5662708 0.11766656 1.8803531 -2.2222645e+38
2.5662603 0.11314087 1.8803531 -2.2223164e+38
2.5662498 0.10861517 1.8803531 -2.2223166e+38
2.5662396 0.10408948 1.8803531 -2.2223171e+38
2.5662291 0.099563755 1.8803531 -2.209025e+38
2.5662189 0.095038064 1.8803531 -2.2090771e+38
2.5662084 0.090512358 1.8803531 -2.2090773e+38
2.5661981 0.085986666 1.8803531 -2.2489543e+38
2.5661876 0.08146096 1.8803531 -2.2756428e+38
2.5661774 0.076935239 1.8803531 -2.2890387e+38
2.5661669 0.072409548 1.8803531 -2.2890385e+38
2.5661566 0.067883842 1.8803531 -2.3022788e+38
2.5661461 0.06335815 1.8803531 -2.3023312e+38
2.5661359 0.058832444 1.8803531 -2.3156238e+38
2.5661254 0.054306731 1.8803531 -2.3290206e+38
2.5661151 0.049781024 1.8803531 -2.3290214e+38
2.5661047 0.045255326 1.8803531 -2.3291254e+38
2.5660944 0.04072962 1.8803531 -2.342366e+38
2.5660839 0.036203921 1.8803531 -2.3556062e+38
2.5660737 0.031678222 1.8803531 -2.3421581e+38
2.5660632 0.027152508 1.8803531 -2.329021e+38
2.5660529 0.02262681 1.8803531 -2.3423648e+38
2.5820439 0.018689185 1.8846655 -2.3424686e+38
2.5660322 0.013575405 1.8803531 -2.3558126e+38
2.5660217 0.0090497062 1.8803531 -2.3558126e+38
2.5820127 0.0050206557 1.8846655 -2.382397e+38
2.5820022 0.00046447664 1.8846655 -2.3957933e+38
2.5819917 -0.0040917099 1.8846655 -2.3958452e+38
2.5819812 -0.0086478814 1.8846655 -2.3958974e+38
2.5989718 -0.012805898 1.8892474 -2.3959495e+38
2.5989614 -0.017394453 1.8892474 -2.3960539e+38
2.6159513 -0.021649607 1.8938293 -2.3961584e+38
2.5989401 -0.026571576 1.8892474 -2.3961071e+38
2.5989296 -0.031160135 1.8892474 -2.4226403e+38
2.5989192 -0.035748694 1.8892474 -2.4360371e+38
2.5819082 -0.040541135 1.8846655 -2.4493819e+38
2.5818977 -0.045097314 1.8846655 -2.4628822e+38
2.5818872 -0.049653493 1.8846655 -2.4895193e+38
2.5818768 -0.054209672 1.8846655 -2.5030203e+38
2.5818663 -0.058765851 1.8846655 -2.543002e+38
2.581856 -0.06332203 1.8846655 -2.5830876e+38
2.5818455 -0.067878209 1.8846655 -2.6363618e+38
2.598835 -0.072457172 1.8892474 -2.6763956e+38
2.5988245 -0.077045731 1.8892474 -2.7297219e+38
2.598814 -0.081634291 1.8892474 -2.783204e+38
2.5988035 -0.08622285 1.8892474 -2.8237574e+38
2.598793 -0.090811409 1.8892474 -2.8641543e+38
2.6157818 -0.095584661 1.8938293 -3.0107856e+38
2.6157713 -0.1002056 1.8938293 -3.1441278e+38
2.63276 -0.10507599 1.8984113 -3.3574834e+38
2.6327493 -0.1097293 1.8984113 nan
2.6497381 -0.11469684 1.9029931 nan
2.6497273 -0.11938255 1.9029931 -3.3866198e+38
2.6497166 -0.12406825 1.9029931 nan
2.6497059 -0.12875395 1.9029931 nan
2.7798524 0.37112904 1.9328303 nan
2.7798412 0.36619762 1.9328303 nan
2.7608225 0.35810694 1.9277455 nan
2.7608113 0.3532117 1.9277455 nan
2.7417929 0.34522954 1.9226607 nan
2.7227745 0.33731982 1.917576 -2.8736384e+38
2.704757 0.3296411 1.9127588 -1.7281159e+38
2.704746 0.32485256 1.9127588 -2.0759499e+38
2.704735 0.32006398 1.9127588 -2.4355154e+38
2.7047241 0.31527543 1.9127588 -2.4220661e+38
2.6867068 0.30776811 1.9079417 -2.4219102e+38
2.6686897 0.30032942 1.9031246 -2.42191e+38
2.668679 0.29560941 1.9031246 -2.4085658e+38
2.6506619 0.28827357 1.8983073 -2.3953254e+38
2.6336455 0.28114969 1.8937578 -2.3820323e+38
2.6336348 0.27649638 1.8937578 -2.3687392e+38
2.6336243 0.27184305 1.8937578 -2.3687388e+38
2.6166081 0.26484871 1.8892083 -2.3687382e+38
2.6165974 0.2602278 1.8892083 -2.3554459e+38
2.6165869 0.25560683 1.8892083 -2.3554978e+38
2.6165764 0.25098589 1.8892083 -2.3554461e+38
2.6165657 0.24636495 1.8892083 -2.3554463e+38
2.6165552 0.24174401 1.8892083 -2.3420504e+38
2.6165445 0.23712307 1.8892083 -2.3287062e+38
2.616534 0.23250213 1.8892083 -2.3154137e+38
2.6165233 0.22788116 1.8892083 -2.3021212e+38
2.6165128 0.22326025 1.8892083 -2.2887772e+38
2.6165023 0.21863931 1.8892083 -2.2753811e+38
2.6164916 0.21401837 1.8892083 -2.2620886e+38
2.6164811 0.20939744 1.8892083 -2.2222633e+38
2.6164703 0.20477647 1.8892083 -2.1956794e+38
2.5994556 0.19826788 1.8846588 -2.1824396e+38
2.5994451 0.1936793 1.8846588 -2.1691473e+38
2.5824304 0.18726784 1.8801093 -2.1823877e+38
2.5824199 0.18271163 1.8801093 -2.2089722e+38
2.5824096 0.17815545 1.8801093 -2.2222124e+38
2.5823991 0.17359927 1.8801093 -2.2487446e+38
2.5823886 0.16904309 1.8801093 -2.2620365e+38
2.5823781 0.16448691 1.8801093 -2.2753809e+38
2.5823677 0.15993074 1.8801093 -2.275329e+38
2.5823572 0.15537456 1.8801093 -2.288518e+38
2.5823469 0.15081838 1.8801093 -2.2753821e+38
2.5663331 0.14482078 1.8758273 -2.2621418e+38
2.5663226 0.14029509 1.8758273 -2.2621418e+38
2.5663123 0.1357694 1.8758273 -2.2489533e+38
2.5663018 0.13124368 1.8758273 -2.2488495e+38
2.5662916 0.12671798 1.8758273 -2.235557e+38
2.5662811 0.12219227 1.8758273 -2.2222643e+38
2.5662708 0.11766656 1.8758273 -2.2222647e+38
2.5662603 0.11314087 1.8758273 -2.2223168e+38
2.5662498 0.10861517 1.8758273 -2.2355574e+38
2.5662396 0.10408948 1.8758273 -2.2222651e+38
2.5662291 0.099563755 1.8758273 -2.2089731e+38
2.5662189 0.095038064 1.8758273 -2.2090252e+38
2.5662084 0.090512358 1.8758273 -2.2223175e+38
2.5661981 0.085986666 1.8758273 -2.2357136e+38
2.5661876 0.08146096 1.8758273 -2.2491095e+38
2.5661566 0.067883842 1.8758273 -2.2890375e+38
2.5661461 0.06335815 1.8758273 -2.3023825e+38
2.5661359 0.058832444 1.8758273 -2.3157273e+38
2.5661254 0.054306731 1.8758273 -2.3291242e+38
2.5660944 0.04072962 1.8758273 -2.3423656e+38
2.5660839 0.036203921 1.8758273 -2.355554e+38
2.5660737 0.031678222 1.8758273 -2.3423137e+38
2.5660632 0.027152508 1.8758273 -2.3424171e+38
2.5660529 0.02262681 1.8758273 -2.3424167e+38
2.5660424 0.018101104 1.8758273 -2.3424167e+38
2.5660322 0.013575405 1.8758273 -2.3424686e+38
2.5660217 0.0090497062 1.8758273 -2.3558126e+38
2.5820127 0.0050206557 1.8801093 -2.382397e+38
2.5820022 0.00046447664 1.8801093 -2.4223779e+38
2.5819917 -0.0040917099 1.8801093 -2.4224298e+38
2.5819812 -0.0086478814 1.8801093 -2.4357744e+38
2.5989718 -0.012805898 1.8846588 -2.4358785e+38
2.5989614 -0.017394453 1.8846588 -2.4359827e+38
2.5989506 -0.021983016 1.8846588 -2.4359831e+38
2.5989401 -0.026571576 1.8846588 -2.4359839e+38
2.5989296 -0.031160135 1.8846588 -2.4360367e+38
2.5989192 -0.035748694 1.8846588 -2.4494334e+38
2.5819082 -0.040541135 1.8801093 -2.462778e+38
2.5818977 -0.045097314 1.8801093 -2.4629344e+38
2.5818872 -0.049653493 1.8801093 -2.4896234e+38
2.5818768 -0.054209672 1.8801093 -2.5164167e+38
2.5818663 -0.058765851 1.8801093 -2.5563982e+38
2.581856 -0.06332203 1.8801093 -2.5964839e+38
2.5818455 -0.067878209 1.8801093 -2.6364137e+38
2.598835 -0.072457172 1.8846588 -2.6896883e+38
2.5988245 -0.077045731 1.8846588 -2.7429107e+38
2.598814 -0.081634291 1.8846588 -2.7960819e+38
2.5988035 -0.08622285 1.8846588 -2.8501874e+38
2.598793 -0.090811409 1.8846588 -2.8909486e+38
2.6157818 -0.095584661 1.8892083 -3.0108921e+38
2.6157713 -0.1002056 1.8892083 -3.1306303e+38
2.63276 -0.10507599 1.8937578 -3.2776798e+38
2.6327493 -0.1097293 1.8937578 nan
2.6497381 -0.11469684 1.8983073 -3.3851098e+38
2.6497273 -0.11938255 1.8983073 -3.3593601e+38
2.6497166 -0.12406825 1.8983073 nan
2.6497059 -0.12875395 1.8983073 nan
2.7608449 0.36789736 1.9228503 nan
2.7608337 0.36300215 1.9228503 nan
2.7608225 0.35810694 1.9228503 nan
2.7608113 0.3532117 1.9228503 nan
2.7417929 0.34522954 1.9178016 nan
2.7227745 0.33731982 1.9127531 -2.8047299e+38
2.7227635 0.33249697 1.9127531 -1.7288908e+38
2.704746 0.32485256 1.9079702 -2.0767796e+38
2.704735 0.32006398 1.9079702 -2.4221187e+38
2.7047241 0.31527543 1.9079702 -2.4086179e+38
2.6867068 0.30776811 1.9031874 -2.3820329e+38
2.6686897 0.30032942 1.8984046 -2.3952211e+38
2.668679 0.29560941 1.8984046 -2.3952211e+38
2.6506619 0.28827357 1.8936217 -2.3819808e+38
2.6336455 0.28114969 1.8891046 -2.3553956e+38
2.6336348 0.27649638 1.8891046 -2.355395e+38
2.6336243 0.27184305 1.8891046 -2.3553946e+38
2.6336136 0.26718974 1.8891046 -2.3554463e+38
2.6165974 0.2602278 1.8845874 -2.35555e+38
2.6165869 0.25560683 1.8845874 -2.3556019e+38
2.6165764 0.25098589 1.8845874 -2.355498e+38
2.6165657 0.24636495 1.8845874 -2.3422058e+38
2.6165552 0.24174401 1.8845874 -2.3288098e+38
2.6165445 0.23712307 1.8845874 -2.3154139e+38
2.616534 0.23250213 1.8845874 -2.3021214e+38
2.6165233 0.22788116 1.8845874 -2.288777e+38
2.6165128 0.22326025 1.8845874 -2.2620886e+38
2.6165023 0.21863931 1.8845874 -2.2618809e+38
2.6164916 0.21401837 1.8845874 -2.2487442e+38
2.6164811 0.20939744 1.8845874 -2.2222114e+38
2.5994661 0.20285645 1.8800702 -2.1823351e+38
2.5994556 0.19826788 1.8800702 -2.1690956e+38
2.5994451 0.1936793 1.8800702 -2.1558031e+38
2.5824304 0.18726784 1.8755531 -2.1823875e+38
2.5824199 0.18271163 1.8755531 -2.2089199e+38
2.5824096 0.17815545 1.8755531 -2.2354523e+38
2.5823991 0.17359927 1.8755531 -2.2620367e+38
2.5823886 0.16904309 1.8755531 -2.2885691e+38
2.5823781 0.16448691 1.8755531 -2.3019133e+38
2.5823677 0.15993074 1.8755531 -2.3018095e+38
2.5823572 0.15537456 1.8755531 -2.3019139e+38
2.5823469 0.15081838 1.8755531 -2.2886223e+38
2.5663331 0.14482078 1.8713017 -2.2620898e+38
2.5663226 0.14029509 1.8713017 -2.2487978e+38
2.5663123 0.1357694 1.8713017 -2.2222649e+38
2.5663018 0.13124368 1.8713017 -2.2222645e+38
2.5662916 0.12671798 1.8713017 -2.2222645e+38
2.5662811 0.12219227 1.8713017 -2.2223162e+38
2.5662708 0.11766656 1.8713017 -2.2089722e+38
2.5662603 0.11314087 1.8713017 -2.2223166e+38
2.5662498 0.10861517 1.8713017 -2.235557e+38
2.5662396 0.10408948 1.8713017 -2.222213e+38
2.5662291 0.099563755 1.8713017 -2.2089207e+38
2.5662189 0.095038064 1.8713017 -2.2222649e+38
2.5662084 0.090512358 1.8713017 -2.2223171e+38
2.5661981 0.085986666 1.8713017 -2.222473e+38
2.5661876 0.08146096 1.8713017 -2.222473e+38
2.5661774 0.076935239 1.8713017 -2.2490574e+38
2.5661566 0.067883842 1.8713017 -2.2890379e+38
2.5661461 0.06335815 1.8713017 -2.3024346e+38
2.5661359 0.058832444 1.8713017 -2.3157275e+38
2.5661254 0.054306731 1.8713017 -2.3157281e+38
2.5661151 0.049781024 1.8713017 -2.3289693e+38
2.5661047 0.045255326 1.8713017 -2.3290733e+38
2.5660944 0.04072962 1.8713017 -2.3423658e+38
2.5660839 0.036203921 1.8713017 -2.3423656e+38
2.5660737 0.031678222 1.8713017 -2.3423654e+38
2.5660632 0.027152508 1.8713017 -2.3424169e+38
2.5820544 0.023245372 1.8755531 -2.3424167e+38
2.5820439 0.018689185 1.8755531 -2.3291242e+38
2.5820334 0.014133014 1.8755531 -2.3423646e+38
2.5820231 0.0095768273 1.8755531 -2.3424682e+38
2.5820127 0.0050206557 1.8755531 -2.3956373e+38
2.5820022 0.00046447664 1.8755531 -2.4356182e+38
2.5819917 -0.0040917099 1.8755531 -2.4489626e+38
2.5989823 -0.0082173347 1.8800702 -2.4623592e+38
2.5989718 -0.012805898 1.8800702 -2.4625153e+38
2.6159618 -0.017028667 1.8845874 -2.4625159e+38
2.5989506 -0.021983016 1.8800702 -2.4625164e+38
2.5989401 -0.026571576 1.8800702 -2.462517e+38
2.5989296 -0.031160135 1.8800702 -2.4625695e+38
2.5989192 -0.035748694 1.8800702 -2.4627259e+38
2.5819082 -0.040541135 1.8755531 -2.4627786e+38
2.5818977 -0.045097314 1.8755531 -2.4629348e+38
2.5818872 -0.049653493 1.8755531 -2.4896236e+38
2.5818768 -0.054209672 1.8755531 -2.5163647e+38
2.5818663 -0.058765851 1.8755531 -2.5563464e+38
2.581856 -0.06332203 1.8755531 -2.5963801e+38
2.5818455 -0.067878209 1.8755531 -2.6496021e+38
2.598835 -0.072457172 1.8800702 -2.7029284e+38
2.5988245 -0.077045731 1.8800702 -2.7560992e+38
2.598814 -0.081634291 1.8800702 -2.8096847e+38
2.5988035 -0.08622285 1.8800702 -2.8633742e+38
2.598793 -0.090811409 1.8800702 -2.9174279e+38
2.6157818 -0.095584661 1.8845874 -3.0244431e+38
2.6157713 -0.1002056 1.8845874 -3.1175447e+38
2.63276 -0.10507599 1.8891046 -3.1978732e+38
2.6327493 -0.1097293 1.8891046 -3.2783035e+38
2.6327388 -0.11438262 1.8891046 -3.3049416e+38
2.6497273 -0.11938255 1.8936217 -3.3331911e+38
2.6497166 -0.12406825 1.8936217 nan
2.6327066 -0.1283426 1.8891046 nan
2.6326962 -0.13299592 1.8891046 nan
2.7798524 0.37112904 1.9229674 nan
2.7608337 0.36300215 1.9179549 nan
2.7608225 0.35810694 1.9179549 nan
2.7608113 0.3532117 1.9179549 nan
2.7417929 0.34522954 1.9129426 nan
2.7417817 0.34037051 1.9129426 -2.7937672e+38
2.7227635 0.33249697 1.9079303 -1.7281082e+38
2.704746 0.32485256 1.9031817 -2.0493113e+38
2.704735 0.32006398 1.9031817 -2.3688451e+38
2.7047241 0.31527543 1.9031817 -2.3688447e+38
2.6867068 0.30776811 1.8984331 -2.3555001e+38
2.6866958 0.30301386 1.8984331 -2.3553437e+38
2.668679 0.29560941 1.8936845 -2.355292e+38
2.6506619 0.28827357 1.888936 -2.3553439e+38
2.6336455 0.28114969 1.8844512 -2.3553954e+38
2.6336348 0.27649638 1.8844512 -2.355395e+38
2.6336243 0.27184305 1.8844512 -2.3553429e+38
2.6336136 0.26718974 1.8844512 -2.3422062e+38
2.6336029 0.26253641 1.8844512 -2.3423617e+38
2.6165869 0.25560683 1.8799665 -2.3422577e+38
2.6335816 0.25322977 1.8844512 -2.3554461e+38
2.6165657 0.24636495 1.8799665 -2.3421536e+38
2.6165552 0.24174401 1.8799665 -2.3287579e+38
2.6165445 0.23712307 1.8799665 -2.3154139e+38
2.616534 0.23250213 1.8799665 -2.3021214e+38
2.6165233 0.22788116 1.8799665 -2.2887251e+38
2.5995083 0.22121066 1.8754816 -2.2752769e+38
2.6165023 0.21863931 1.8799665 -2.248744e+38
2.6164916 0.21401837 1.8799665 -2.2222633e+38
2.5994768 0.20744497 1.8754816 -2.2089191e+38
2.5994661 0.20285645 1.8754816 -2.1822834e+38
2.5994556 0.19826788 1.8754816 -2.182336e+38
2.5994451 0.1936793 1.8754816 -2.1690433e+38
2.5824304 0.18726784 1.870997 -2.1823351e+38
2.5824199 0.18271163 1.870997 -2.1955753e+38
2.5824096 0.17815545 1.870997 -2.2088674e+38
2.5823991 0.17359927 1.870997 -2.2354e+38
2.5823886 0.16904309 1.870997 -2.2620363e+38
2.5823781 0.16448691 1.870997 -2.2886209e+38
2.5823677 0.15993074 1.870997 -2.2753286e+38
2.5823572 0.15537456 1.870997 -2.275433e+38
2.5823469 0.15081838 1.870997 -2.2620373e+38
2.5823364 0.1462622 1.870997 -2.2620379e+38
2.5663226 0.14029509 1.866776 -2.248798e+38
2.5663123 0.1357694 1.866776 -2.2487974e+38
2.5663018 0.13124368 1.866776 -2.2355045e+38
2.5662916 0.12671798 1.866776 -2.2355047e+38
2.5662811 0.12219227 1.866776 -2.2355047e+38
2.5662708 0.11766656 1.866776 -2.2355047e+38
2.5662603 0.11314087 1.866776 -2.248797e+38
2.5662498 0.10861517 1.866776 -2.2487452e+38
2.5662396 0.10408948 1.866776 -2.2487974e+38
2.5662291 0.099563755 1.866776 -2.235453e+38
2.5662189 0.095038064 1.866776 -2.2355047e+38
2.5662084 0.090512358 1.866776 -2.2487974e+38
2.5661981 0.085986666 1.866776 -2.2356613e+38
2.5661876 0.08146096 1.866776 -2.2357132e+38
2.5661774 0.076935239 1.866776 -2.2490574e+38
2.5661566 0.067883842 1.866776 -2.2757977e+38
2.5661461 0.06335815 1.866776 -2.3024867e+38
2.5661254 0.054306731 1.866776 -2.3157283e+38
2.5661151 0.049781024 1.866776 -2.3290212e+38
2.5661047 0.045255326 1.866776 -2.3423656e+38
2.5660944 0.04072962 1.866776 -2.3424177e+38
2.5660839 0.036203921 1.866776 -2.3424694e+38
2.5660737 0.031678222 1.866776 -2.3424171e+38
2.5820649 0.027801543 1.870997 -2.3424169e+38
2.5820544 0.023245372 1.870997 -2.3424165e+38
2.5820439 0.018689185 1.870997 -2.3423646e+38
2.5820334 0.014133014 1.870997 -2.3424682e+38
2.5820231 0.0095768273 1.870997 -2.3425721e+38
2.5820127 0.0050206557 1.870997 -2.3823968e+38
2.5820022 0.00046447664 1.870997 -2.4356182e+38
2.5819917 -0.0040917099 1.870997 -2.4356706e+38
2.5819812 -0.0086478814 1.870997 -2.4357231e+38
2.5819707 -0.01320406 1.870997 -2.4357754e+38
2.5989614 -0.017394453 1.8754816 -2.4490683e+38
2.5989506 -0.021983016 1.8754816 -2.4358286e+38
2.5989401 -0.026571576 1.8754816 -2.4358809e+38
2.5989296 -0.031160135 1.8754816 -2.4359851e+38
2.5989192 -0.035748694 1.8754816 -2.4361417e+38
2.5989087 -0.04033725 1.8754816 -2.4495387e+38
2.5818977 -0.045097314 1.870997 -2.4629871e+38
2.5818872 -0.049653493 1.870997 -2.4896238e+38
2.5818768 -0.054209672 1.870997 -2.5297091e+38
2.5818663 -0.058765851 1.870997 -2.5563464e+38
2.581856 -0.06332203 1.870997 -2.596432e+38
2.5818455 -0.067878209 1.870997 -2.6629463e+38
2.598835 -0.072457172 1.8754816 -2.7162726e+38
2.5988245 -0.077045731 1.8754816 -2.7562547e+38
2.598814 -0.081634291 1.8754816 -2.7964954e+38
2.5988035 -0.08622285 1.8754816 -2.8368398e+38
2.598793 -0.090811409 1.8754816 -2.8775498e+38
2.6157818 -0.095584661 1.8799665 -2.984254e+38
2.6157713 -0.1002056 1.8799665 -3.0773034e+38
2.63276 -0.10507599 1.8844512 -3.1713393e+38
2.6327493 -0.1097293 1.8844512 -3.2787706e+38
2.6327388 -0.11438262 1.8844512 -3.1855196e+38
2.6497273 -0.11938255 1.888936 -3.1061843e+38
2.6497166 -0.12406825 1.888936 nan
2.6327066 -0.1283426 1.8844512 nan
2.6326962 -0.13299592 1.8844512 nan
2.7798524 0.37112904 1.918036 nan
2.7608337 0.36300215 1.9130597 nan
2.7608225 0.35810694 1.9130597 nan
2.7608113 0.3532117 1.9130597 nan
2.7417929 0.34522954 1.9080836 nan
2.7417817 0.34037051 1.9080836 -2.7781944e+38
2.7227635 0.33249697 1.9031074 -1.7155446e+38
2.7227523 0.32767412 1.9031074 -2.0234018e+38
2.704735 0.32006398 1.8983932 -2.3157794e+38
2.7047241 0.31527543 1.8983932 -2.3290194e+38
2.7047131 0.31048685 1.8983932 -2.3288634e+38
2.6866958 0.30301386 1.8936788 -2.3287074e+38
2.668679 0.29560941 1.8889645 -2.3154149e+38
2.6506619 0.28827357 1.8842502 -2.3286553e+38
2.6336455 0.28114969 1.8797979 -2.3420512e+38
2.6336348 0.27649638 1.8797979 -2.3420512e+38
2.6336243 0.27184305 1.8797979 -2.3421549e+38
2.6336136 0.26718974 1.8797979 -2.3290183e+38
2.6336029 0.26253641 1.8797979 -2.3156739e+38
2.6165869 0.25560683 1.8753455 -2.3289141e+38
2.6335816 0.25322977 1.8797979 -2.342154e+38
2.6165657 0.24636495 1.8753455 -2.3288614e+38
2.6165552 0.24174401 1.8753455 -2.3154654e+38
2.6165445 0.23712307 1.8753455 -2.3154137e+38
2.616534 0.23250213 1.8753455 -2.3020693e+38
2.6165233 0.22788116 1.8753455 -2.2886728e+38
2.5995083 0.22121066 1.8708931 -2.2754322e+38
2.6165023 0.21863931 1.8753455 -2.2356071e+38
2.5994873 0.21203354 1.8708931 -2.1956785e+38
2.5994768 0.20744497 1.8708931 -2.1956787e+38
2.5994661 0.20285645 1.8708931 -2.1823349e+38
2.5824513 0.19638017 1.8664408 -2.1823875e+38
2.5824409 0.19182402 1.8664408 -2.1823354e+38
2.5824304 0.18726784 1.8664408 -2.182283e+38
2.5824199 0.18271163 1.8664408 -2.1822828e+38
2.5824096 0.17815545 1.8664408 -2.1956268e+38
2.5823991 0.17359927 1.8664408 -2.1955747e+38
2.5823886 0.16904309 1.8664408 -2.2354515e+38
2.5823781 0.16448691 1.8664408 -2.2620882e+38
2.5823677 0.15993074 1.8664408 -2.2487961e+38
2.5823572 0.15537456 1.8664408 -2.2354523e+38
2.5823469 0.15081838 1.8664408 -2.2486933e+38
2.5823364 0.1462622 1.8664408 -2.2620377e+38
2.5823259 0.14170602 1.8664408 -2.2620379e+38
2.5663123 0.1357694 1.8622503 -2.2620375e+38
2.5663018 0.13124368 1.8622503 -2.261985e+38
2.5662916 0.12671798 1.8622503 -2.2487446e+38
2.5662811 0.12219227 1.8622503 -2.2619852e+38
2.5662708 0.11766656 1.8622503 -2.2620369e+38
2.5662603 0.11314087 1.8622503 -2.2619331e+38
2.5662498 0.10861517 1.8622503 -2.2620369e+38
2.5662396 0.10408948 1.8622503 -2.262089e+38
2.5662291 0.099563755 1.8622503 -2.2620369e+38
2.5662189 0.095038064 1.8622503 -2.2620369e+38
2.5662084 0.090512358 1.8622503 -2.2621412e+38
2.5661981 0.085986666 1.8622503 -2.2621935e+38
2.5661876 0.08146096 1.8622503 -2.2489535e+38
2.5661774 0.076935239 1.8622503 -2.2489537e+38
2.5661566 0.067883842 1.8622503 -2.2757462e+38
2.5661254 0.054306731 1.8622503 -2.3156762e+38
2.5661151 0.049781024 1.8622503 -2.3289689e+38
2.5661047 0.045255326 1.8622503 -2.342365e+38
2.5660944 0.04072962 1.8622503 -2.3423652e+38
2.5660839 0.036203921 1.8622503 -2.3291246e+38
2.5660737 0.031678222 1.8622503 -2.3291244e+38
2.5820649 0.027801543 1.8664408 -2.329124e+38
2.5820544 0.023245372 1.8664408 -2.3424161e+38
2.5820439 0.018689185 1.8664408 -2.3424159e+38
2.5820334 0.014133014 1.8664408 -2.3424678e+38
2.5820231 0.0095768273 1.8664408 -2.3425197e+38
2.5820127 0.0050206557 1.8664408 -2.3823966e+38
2.5820022 0.00046447664 1.8664408 -2.4223257e+38
2.5819917 -0.0040917099 1.8664408 -2.4222742e+38
2.5819812 -0.0086478814 1.8664408 -2.4090864e+38
2.5819707 -0.01320406 1.8664408 -2.4223795e+38
2.5989614 -0.017394453 1.8708931 -2.422432e+38
2.5989506 -0.021983016 1.8708931 -2.4091406e+38
2.5989401 -0.026571576 1.8708931 -2.3960042e+38
2.5989296 -0.031160135 1.8708931 -2.3961085e+38
2.5989192 -0.035748694 1.8708931 -2.396213e+38
2.5989087 -0.04033725 1.8708931 -2.4361945e+38
2.5818977 -0.045097314 1.8664408 -2.4628831e+38
2.5818872 -0.049653493 1.8664408 -2.502812e+38
2.5818768 -0.054209672 1.8664408 -2.5294493e+38
2.5818663 -0.058765851 1.8664408 -2.569431e+38
2.581856 -0.06332203 1.8664408 -2.5962762e+38
2.5818455 -0.067878209 1.8664408 -2.6628427e+38
2.598835 -0.072457172 1.8708931 -2.7295132e+38
2.5988245 -0.077045731 1.8708931 -2.7561511e+38
2.598814 -0.081634291 1.8708931 -2.7831514e+38
2.5988035 -0.08622285 1.8708931 -2.8099443e+38
2.598793 -0.090811409 1.8708931 -2.8373101e+38
2.6157818 -0.095584661 1.8753455 -2.9444818e+38
2.6157713 -0.1002056 1.8753455 -3.0376865e+38
2.63276 -0.10507599 1.8797979 -3.158047e+38
2.6497488 -0.11001114 1.8842502 -3.2646984e+38
2.6497381 -0.11469684 1.8842502 -3.065368e+38
2.6497273 -0.11938255 1.8842502 -2.8674934e+38
2.6497166 -0.12406825 1.8842502 nan
2.6497059 -0.12875395 1.8842502 nan
2.6496952 -0.13343966 1.8842502 nan
2.6496844 -0.13812536 1.8842502 nan
2.7798524 0.37112904 1.9131045 nan
2.7608337 0.36300215 1.9081645 nan
2.7608225 0.35810694 1.9081645 nan
2.7608113 0.3532117 1.9081645 nan
2.7608001 0.34831649 1.9081645 nan
2.7417817 0.34037051 1.9032245 -2.6607485e+38
2.7417705 0.33551148 1.9032245 -1.7280601e+38
2.7227523 0.32767412 1.8982846 -2.0093826e+38
2.7227414 0.32285127 1.8982846 -2.2891946e+38
2.7047241 0.31527543 1.8936045 -2.28909e+38
2.7047131 0.31048685 1.8936045 -2.2889863e+38
2.6866958 0.30301386 1.8889246 -2.2888825e+38
2.668679 0.29560941 1.8842444 -2.2888304e+38
2.6506619 0.28827357 1.8795645 -2.3154667e+38
2.6506512 0.28358787 1.8795645 -2.3553437e+38
2.6336348 0.27649638 1.8751445 -2.3553956e+38
2.6336243 0.27184305 1.8751445 -2.3687917e+38
2.6336136 0.26718974 1.8751445 -2.342311e+38
2.6336029 0.26253641 1.8751445 -2.3289147e+38
2.6335921 0.2578831 1.8751445 -2.3289145e+38
2.6335816 0.25322977 1.8751445 -2.3421542e+38
2.6165657 0.24636495 1.8707244 -2.3288092e+38
2.6165552 0.24174401 1.8707244 -2.3154133e+38
2.6165445 0.23712307 1.8707244 -2.3020693e+38
2.616534 0.23250213 1.8707244 -2.3019651e+38
2.6165233 0.22788116 1.8707244 -2.275432e+38
2.5995083 0.22121066 1.8663045 -2.2488992e+38
2.5994978 0.21662208 1.8663045 -2.2222625e+38
2.5994873 0.21203354 1.8663045 -2.1956264e+38
2.5824721 0.20549253 1.8618846 -2.1823343e+38
2.5824618 0.20093638 1.8618846 -2.1823347e+38
2.5824513 0.19638017 1.8618846 -2.1956274e+38
2.5824409 0.19182402 1.8618846 -2.1955234e+38
2.5824304 0.18726784 1.8618846 -2.1955751e+38
2.5824199 0.18271163 1.8618846 -2.2088672e+38
2.5824096 0.17815545 1.8618846 -2.2089187e+38
2.5823991 0.17359927 1.8618846 -2.2089187e+38
2.5823886 0.16904309 1.8618846 -2.222211e+38
2.5823781 0.16448691 1.8618846 -2.2488479e+38
2.5823677 0.15993074 1.8618846 -2.2354521e+38
2.5823572 0.15537456 1.8618846 -2.2220564e+38
2.5823469 0.15081838 1.8618846 -2.2221087e+38
2.5823364 0.1462622 1.8618846 -2.2221607e+38
2.5823259 0.14170602 1.8618846 -2.235453e+38
2.5823154 0.13714984 1.8618846 -2.2354006e+38
2.582305 0.13259366 1.8618846 -2.2354521e+38
2.5662916 0.12671798 1.8577245 -2.2486925e+38
2.5662811 0.12219227 1.8577245 -2.2354521e+38
2.5662708 0.11766656 1.8577245 -2.2354519e+38
2.5662603 0.11314087 1.8577245 -2.2354517e+38
2.5662498 0.10861517 1.8577245 -2.2487959e+38
2.5662396 0.10408948 1.8577245 -2.2487959e+38
2.5662291 0.099563755 1.8577245 -2.2620363e+38
2.5662189 0.095038064 1.8577245 -2.2620882e+38
2.5662084 0.090512358 1.8577245 -2.2621408e+38
2.5661981 0.085986666 1.8577245 -2.2621931e+38
2.5661876 0.08146096 1.8577245 -2.2489014e+38
2.5661774 0.076935239 1.8577245 -2.2489539e+38
2.5661566 0.067883842 1.8577245 -2.2623505e+38
2.5661254 0.054306731 1.8577245 -2.3024356e+38
2.5661151 0.049781024 1.8577245 -2.3157279e+38
2.5661047 0.045255326 1.8577245 -2.3291242e+38
2.5660944 0.04072962 1.8577245 -2.3291242e+38
2.5820856 0.036913909 1.8618846 -2.3291242e+38
2.5820754 0.032357723 1.8618846 -2.329124e+38
2.5820649 0.027801543 1.8618846 -2.3290717e+38
2.5820544 0.023245372 1.8618846 -2.3291232e+38
2.5820439 0.018689185 1.8618846 -2.3158828e+38
2.5820334 0.014133014 1.8618846 -2.3292271e+38
2.5820231 0.0095768273 1.8618846 -2.3425193e+38
2.5820127 0.0050206557 1.8618846 -2.3691039e+38
2.5820022 0.00046447664 1.8618846 -2.3957408e+38
2.5819917 -0.0040917099 1.8618846 -2.3957412e+38
2.5989823 -0.0082173347 1.8663045 -2.4090864e+38
2.5819707 -0.01320406 1.8618846 -2.4090874e+38
2.5989614 -0.017394453 1.8663045 -2.4091402e+38
2.5989506 -0.021983016 1.8663045 -2.4092446e+38
2.5989401 -0.026571576 1.8663045 -2.4092969e+38
2.5989296 -0.031160135 1.8663045 -2.409401e+38
2.5989192 -0.035748694 1.8663045 -2.4094535e+38
2.5989087 -0.04033725 1.8663045 -2.4227981e+38
2.5988982 -0.044925813 1.8663045 -2.4361425e+38
2.5988877 -0.049514372 1.8663045 -2.4893636e+38
2.5988772 -0.054102931 1.8663045 -2.5291897e+38
2.5988665 -0.058691494 1.8663045 -2.5561387e+38
2.581856 -0.06332203 1.8618846 -2.5829322e+38
2.5818455 -0.067878209 1.8618846 -2.6495504e+38
2.598835 -0.072457172 1.8663045 -2.7029286e+38
2.5988245 -0.077045731 1.8663045 -2.7296704e+38
2.598814 -0.081634291 1.8663045 -2.7699115e+38
2.5988035 -0.08622285 1.8663045 -2.7966007e+38
2.598793 -0.090811409 1.8663045 -2.8368956e+38
2.5987823 -0.095399968 1.8663045 -2.930619e+38
2.6157713 -0.1002056 1.8707244 -3.0373233e+38
2.63276 -0.10507599 1.8751445 -3.1443392e+38
2.6327493 -0.1097293 1.8751445 -3.2376458e+38
2.6327388 -0.11438262 1.8751445 -2.9985932e+38
2.6497273 -0.11938255 1.8795645 -2.759752e+38
2.6497166 -0.12406825 1.8795645 nan
2.6497059 -0.12875395 1.8795645 nan
2.6496952 -0.13343966 1.8795645 nan
2.6326854 -0.13764924 1.8751445 nan
2.7798524 0.37112904 1.9081731 nan
2.7608337 0.36300215 1.9032693 nan
2.7608225 0.35810694 1.9032693 nan
2.7608113 0.3532117 1.9032693 nan
2.7608001 0.34831649 1.9032693 -3.329895e+38
2.7607889 0.34342125 1.9032693 -2.5256932e+38
2.7417705 0.33551148 1.8983655 -1.7289405e+38
2.7417593 0.33065245 1.8983655 -1.9968685e+38
2.7227414 0.32285127 1.8934617 -2.262558e+38
2.7047241 0.31527543 1.8888159 -2.2491614e+38
2.7047131 0.31048685 1.8888159 -2.2358172e+38
2.6866958 0.30301386 1.8841703 -2.2489537e+38
2.668679 0.29560941 1.8795245 -2.2622979e+38
2.6506619 0.28827357 1.8748789 -2.315519e+38
2.6336455 0.28114969 1.8704913 -2.3553958e+38
2.6336348 0.27649638 1.8704913 -2.3687402e+38
2.6336243 0.27184305 1.8704913 -2.3821881e+38
2.6336136 0.26718974 1.8704913 -2.3689996e+38
2.6336029 0.26253641 1.8704913 -2.3423108e+38
2.6335921 0.2578831 1.8704913 -2.3422587e+38
2.6335816 0.25322977 1.8704913 -2.32881e+38
2.6165657 0.24636495 1.8661036 -2.3154133e+38
2.6165552 0.24174401 1.8661036 -2.3020691e+38
2.6165445 0.23712307 1.8661036 -2.3019653e+38
2.5995293 0.23038778 1.861716 -2.3019651e+38
2.5995188 0.22579923 1.861716 -2.262088e+38
2.5995083 0.22121066 1.861716 -2.2089708e+38
2.5994978 0.21662208 1.861716 -2.1956785e+38
2.5994873 0.21203354 1.861716 -2.1823343e+38
2.5824721 0.20549253 1.8573284 -2.1823343e+38
2.5824618 0.20093638 1.8573284 -2.1823345e+38
2.5824513 0.19638017 1.8573284 -2.1955751e+38
2.5824409 0.19182402 1.8573284 -2.2088672e+38
2.5824304 0.18726784 1.8573284 -2.2221595e+38
2.5824199 0.18271163 1.8573284 -2.2221593e+38
2.5824096 0.17815545 1.8573284 -2.2222108e+38
2.5823991 0.17359927 1.8573284 -2.2089185e+38
2.5823886 0.16904309 1.8573284 -2.2221588e+38
2.5823781 0.16448691 1.8573284 -2.2221593e+38
2.5823677 0.15993074 1.8573284 -2.2220039e+38
2.5823572 0.15537456 1.8573284 -2.2088157e+38
2.5823469 0.15081838 1.8573284 -2.1955757e+38
2.5823364 0.1462622 1.8573284 -2.1822836e+38
2.5823259 0.14170602 1.8573284 -2.1955242e+38
2.5823154 0.13714984 1.8573284 -2.208868e+38
2.582305 0.13259366 1.8573284 -2.2222118e+38
2.5822947 0.12803748 1.8573284 -2.2354519e+38
2.5662811 0.12219227 1.8531988 -2.2221597e+38
2.5662708 0.11766656 1.8531988 -2.2089189e+38
2.5662603 0.11314087 1.8531988 -2.2222627e+38
2.5662498 0.10861517 1.8531988 -2.2222108e+38
2.5662396 0.10408948 1.8531988 -2.2487434e+38
2.5662291 0.099563755 1.8531988 -2.2620876e+38
2.5662189 0.095038064 1.8531988 -2.2620359e+38
2.5662084 0.090512358 1.8531988 -2.2621405e+38
2.5661981 0.085986666 1.8531988 -2.2621412e+38
2.5661876 0.08146096 1.8531988 -2.2489014e+38
2.5661774 0.076935239 1.8531988 -2.2489537e+38
2.5661669 0.072409548 1.8531988 -2.2489541e+38
2.5661566 0.067883842 1.8531988 -2.262247e+38
2.5661461 0.06335815 1.8531988 -2.2756955e+38
2.5661254 0.054306731 1.8531988 -2.2890918e+38
2.5661151 0.049781024 1.8531988 -2.302436e+38
2.5661047 0.045255326 1.8531988 -2.3025397e+38
2.5660944 0.04072962 1.8531988 -2.3158839e+38
2.5820856 0.036913909 1.8573284 -2.3158317e+38
2.5820754 0.032357723 1.8573284 -2.3290721e+38
2.5820649 0.027801543 1.8573284 -2.3290719e+38
2.5820544 0.023245372 1.8573284 -2.3158313e+38
2.5820439 0.018689185 1.8573284 -2.2892987e+38
2.5820334 0.014133014 1.8573284 -2.3159352e+38
2.5820231 0.0095768273 1.8573284 -2.3425197e+38
2.5820127 0.0050206557 1.8573284 -2.3557601e+38
2.5820022 0.00046447664 1.8573284 -2.3691045e+38
2.5989928 -0.0036287755 1.861716 -2.3823972e+38
2.5989823 -0.0082173347 1.861716 -2.3957424e+38
2.5989718 -0.012805898 1.861716 -2.3957955e+38
2.5989614 -0.017394453 1.861716 -2.3958477e+38
2.5989506 -0.021983016 1.861716 -2.4092961e+38
2.5989401 -0.026571576 1.861716 -2.4092446e+38
2.5989296 -0.031160135 1.861716 -2.4093491e+38
2.5989192 -0.035748694 1.861716 -2.4094016e+38
2.5989087 -0.04033725 1.861716 -2.4094541e+38
2.5818977 -0.045097314 1.8573284 -2.4095062e+38
2.5818872 -0.049653493 1.8573284 -2.4759681e+38
2.5988772 -0.054102931 1.861716 -2.5293457e+38
2.5818663 -0.058765851 1.8573284 -2.5561909e+38
2.581856 -0.06332203 1.8573284 -2.569588e+38
2.5818455 -0.067878209 1.8573284 -2.6229139e+38
2.598835 -0.072457172 1.861716 -2.67624e+38
2.5988245 -0.077045731 1.861716 -2.71617e+38
2.598814 -0.081634291 1.861716 -2.7430673e+38
2.5988035 -0.08622285 1.861716 -2.7829975e+38
2.598793 -0.090811409 1.861716 -2.8234475e+38
2.5987823 -0.095399968 1.861716 -2.9303589e+38
2.6157713 -0.1002056 1.8661036 -3.0372693e+38
2.63276 -0.10507599 1.8704913 -3.1309911e+38
2.6327493 -0.1097293 1.8704913 -3.2107466e+38
2.6497381 -0.11469684 1.8748789 -2.9315586e+38
2.6497273 -0.11938255 1.8748789 -2.6399627e+38
2.6497166 -0.12406825 1.8748789 -2.8408563e+38
2.6497059 -0.12875395 1.8748789 -3.0418004e+38
2.6496952 -0.13343966 1.8748789 nan
2.7798524 0.37112904 1.9032416 nan
2.7608337 0.36300215 1.8983741 nan
2.7608225 0.35810694 1.8983741 nan
2.7608113 0.3532117 1.8983741 nan
2.7608001 0.34831649 1.8983741 -3.0784292e+38
2.7607889 0.34342125 1.8983741 -2.4080838e+38
2.7417705 0.33551148 1.8935064 -1.7418673e+38
2.7417593 0.33065245 1.8935064 -2.0094333e+38
2.7417483 0.32579342 1.8935064 -2.2757981e+38
2.7227304 0.31802842 1.8886387 -2.2492134e+38
2.7047131 0.31048685 1.8840274 -2.2359211e+38
2.6866958 0.30301386 1.879416 -2.2624018e+38
2.668679 0.29560941 1.8748045 -2.2756943e+38
2.6506619 0.28827357 1.8701931 -2.3021752e+38
2.6336455 0.28114969 1.8658378 -2.3287078e+38
2.6336348 0.27649638 1.8658378 -2.3423116e+38
2.6336243 0.27184305 1.8658378 -2.3689479e+38
2.6336136 0.26718974 1.8658378 -2.3423632e+38
2.6165974 0.2602278 1.8614826 -2.3289666e+38
2.6165869 0.25560683 1.8614826 -2.3155701e+38
2.6165764 0.25098589 1.8614826 -2.3154139e+38
2.6165657 0.24636495 1.8614826 -2.3021212e+38
2.6165552 0.24174401 1.8614826 -2.3020691e+38
2.6165445 0.23712307 1.8614826 -2.2887247e+38
2.5995293 0.23038778 1.8571274 -2.2754324e+38
2.5995188 0.22579923 1.8571274 -2.2355554e+38
2.5825036 0.21916106 1.8527721 -2.2089191e+38
2.5994978 0.21662208 1.8571274 -2.1956789e+38
2.5994873 0.21203354 1.8571274 -2.1823345e+38
2.5824721 0.20549253 1.8527721 -2.1956266e+38
2.5824618 0.20093638 1.8527721 -2.208867e+38
2.5824513 0.19638017 1.8527721 -2.2221591e+38
2.5994451 0.1936793 1.8571274 -2.2353996e+38
2.5824304 0.18726784 1.8527721 -2.2486919e+38
2.5824199 0.18271163 1.8527721 -2.261984e+38
2.5824096 0.17815545 1.8527721 -2.2487432e+38
2.5823991 0.17359927 1.8527721 -2.2487432e+38
2.5823886 0.16904309 1.8527721 -2.2486911e+38
2.5823781 0.16448691 1.8527721 -2.2486915e+38
2.5823677 0.15993074 1.8527721 -2.2221073e+38
2.5823572 0.15537456 1.8527721 -2.1955749e+38
2.5823469 0.15081838 1.8527721 -2.1822828e+38
2.5823364 0.1462622 1.8527721 -2.1822313e+38
2.5823259 0.14170602 1.8527721 -2.1955759e+38
2.5823154 0.13714984 1.8527721 -2.1956274e+38
2.582305 0.13259366 1.8527721 -2.2089193e+38
2.5822947 0.12803748 1.8527721 -2.2222116e+38
2.5662811 0.12219227 1.8486731 -2.208971e+38
2.5662708 0.11766656 1.8486731 -2.1957301e+38
2.5662603 0.11314087 1.8486731 -2.1956775e+38
2.5662498 0.10861517 1.8486731 -2.2089698e+38
2.5662396 0.10408948 1.8486731 -2.22221e+38
2.5662291 0.099563755 1.8486731 -2.2355546e+38
2.5662189 0.095038064 1.8486731 -2.2355028e+38
2.5662084 0.090512358 1.8486731 -2.2355558e+38
2.5661981 0.085986666 1.8486731 -2.2355047e+38
2.5661876 0.08146096 1.8486731 -2.2355051e+38
2.5661774 0.076935239 1.8486731 -2.2356093e+38
2.5661669 0.072409548 1.8486731 -2.2356621e+38
2.5661566 0.067883842 1.8486731 -2.2490069e+38
2.5661461 0.06335815 1.8486731 -2.2624036e+38
2.5661359 0.058832444 1.8486731 -2.2756963e+38
2.5661254 0.054306731 1.8486731 -2.3023845e+38
2.5661151 0.049781024 1.8486731 -2.3024362e+38
2.5661047 0.045255326 1.8486731 -2.3157802e+38
2.5820961 0.041470081 1.8527721 -2.3157798e+38
2.5820856 0.036913909 1.8527721 -2.3290721e+38
2.5820754 0.032357723 1.8527721 -2.3290721e+38
2.5820649 0.027801543 1.8527721 -2.3157798e+38
2.5820544 0.023245372 1.8527721 -2.3025914e+38
2.5820439 0.018689185 1.8527721 -2.3026433e+38
2.5820334 0.014133014 1.8527721 -2.3026431e+38
2.5820231 0.0095768273 1.8527721 -2.3158837e+38
2.5820127 0.0050206557 1.8527721 -2.3291759e+38
2.5990033 0.00095978379 1.8571274 -2.3425203e+38
2.5989928 -0.0036287755 1.8571274 -2.3691049e+38
2.5989823 -0.0082173347 1.8571274 -2.3824503e+38
2.5989718 -0.012805898 1.8571274 -2.3956919e+38
2.5989614 -0.017394453 1.8571274 -2.4089323e+38
2.5989506 -0.021983016 1.8571274 -2.4089842e+38
2.6159408 -0.026270546 1.8614826 -2.4090367e+38
2.6159301 -0.030891486 1.8614826 -2.4091931e+38
2.6159196 -0.035512432 1.8614826 -2.4093497e+38
2.5989087 -0.04033725 1.8571274 -2.4094024e+38
2.5988982 -0.044925813 1.8571274 -2.4227989e+38
2.5988877 -0.049514372 1.8571274 -2.46278e+38
2.5988772 -0.054102931 1.8571274 -2.5028134e+38
2.5818663 -0.058765851 1.8527721 -2.5295025e+38
2.581856 -0.06332203 1.8527721 -2.5561919e+38
2.5818455 -0.067878209 1.8527721 -2.5962253e+38
2.598835 -0.072457172 1.8571274 -2.6496033e+38
2.5988245 -0.077045731 1.8571274 -2.6762408e+38
2.598814 -0.081634291 1.8571274 -2.7030868e+38
2.5988035 -0.08622285 1.8571274 -2.7164846e+38
2.598793 -0.090811409 1.8571274 -2.7434342e+38
2.5987823 -0.095399968 1.8571274 -2.8504491e+38
2.6157713 -0.1002056 1.8614826 -2.9705461e+38
2.63276 -0.10507599 1.8658378 -3.0374221e+38
2.6327493 -0.1097293 1.8658378 -3.1041976e+38
2.6327388 -0.11438262 1.8658378 -2.9712256e+38
2.6497273 -0.11938255 1.8701931 -2.8384092e+38
2.6497166 -0.12406825 1.8701931 -2.852483e+38
2.6497059 -0.12875395 1.8701931 -2.8663507e+38
2.6326962 -0.13299592 1.8658378 nan
2.6326854 -0.13764924 1.8658378 nan
2.7798638 0.37606046 1.8983102 nan
2.7798524 0.37112904 1.8983102 nan
2.7798412 0.36619762 1.8983102 nan
2.77983 0.36126623 1.8983102 nan
2.7608113 0.3532117 1.8934789 nan
2.7608001 0.34831649 1.8934789 -2.8105609e+38
2.7607889 0.34342125 1.8934789 -2.2730361e+38
2.7607777 0.33852604 1.8934789 -1.7424922e+38
2.7607663 0.3336308 1.8934789 -2.0097967e+38
2.7417483 0.32579342 1.8886473 -2.2757462e+38
2.7417371 0.32093436 1.8886473 -2.2625578e+38
2.7227192 0.3132056 1.883816 -2.2358694e+38
2.7047021 0.30569828 1.8792388 -2.2623501e+38
2.668679 0.29560941 1.8700845 -2.2889348e+38
2.6506619 0.28827357 1.8655074 -2.3021237e+38
2.6336455 0.28114969 1.8611846 -2.302435e+38
2.6336348 0.27649638 1.8611846 -2.3293311e+38
2.6336243 0.27184305 1.8611846 -2.3424672e+38
2.6336136 0.26718974 1.8611846 -2.3291747e+38
2.6165974 0.2602278 1.8568616 -2.302434e+38
2.6165869 0.25560683 1.8568616 -2.3022778e+38
2.6165764 0.25098589 1.8568616 -2.3022257e+38
2.6165657 0.24636495 1.8568616 -2.3021734e+38
2.6165552 0.24174401 1.8568616 -2.288829e+38
2.6165445 0.23712307 1.8568616 -2.2754324e+38
2.5995293 0.23038778 1.8525388 -2.2488996e+38
2.5995188 0.22579923 1.8525388 -2.2223669e+38
2.5825036 0.21916106 1.8482159 -2.1957307e+38
2.5994978 0.21662208 1.8525388 -2.1956789e+38
2.5824826 0.21004874 1.8482159 -2.1823867e+38
2.5824721 0.20549253 1.8482159 -2.2089193e+38
2.5824618 0.20093638 1.8482159 -2.2221595e+38
2.5824513 0.19638017 1.8482159 -2.2353998e+38
2.5824409 0.19182402 1.8482159 -2.2486921e+38
2.5824304 0.18726784 1.8482159 -2.2752769e+38
2.5824199 0.18271163 1.8482159 -2.2885687e+38
2.5824096 0.17815545 1.8482159 -2.2886205e+38
2.5994031 0.17532507 1.8525388 -2.2885683e+38
2.5823886 0.16904309 1.8482159 -2.2752241e+38
2.5823781 0.16448691 1.8482159 -2.2620359e+38
2.5823677 0.15993074 1.8482159 -2.2221593e+38
2.5823572 0.15537456 1.8482159 -2.1689901e+38
2.5823469 0.15081838 1.8482159 -2.1822826e+38
2.5823364 0.1462622 1.8482159 -2.1822828e+38
2.5823259 0.14170602 1.8482159 -2.182283e+38
2.5823154 0.13714984 1.8482159 -2.1822828e+38
2.582305 0.13259366 1.8482159 -2.1955751e+38
2.5822947 0.12803748 1.8482159 -2.1956266e+38
2.5822842 0.1234813 1.8482159 -2.1956783e+38
2.5822737 0.11892512 1.8482159 -2.1823859e+38
2.5662603 0.11314087 1.8441474 -2.182282e+38
2.5662498 0.10861517 1.8441474 -2.1823337e+38
2.5662396 0.10408948 1.8441474 -2.1955741e+38
2.5662291 0.099563755 1.8441474 -2.2089185e+38
2.5662189 0.095038064 1.8441474 -2.2089189e+38
2.5662084 0.090512358 1.8441474 -2.2089195e+38
2.5661981 0.085986666 1.8441474 -2.2088682e+38
2.5661876 0.08146096 1.8441474 -2.2089722e+38
2.5661774 0.076935239 1.8441474 -2.2223166e+38
2.5661669 0.072409548 1.8441474 -2.2223692e+38
2.5661566 0.067883842 1.8441474 -2.2356621e+38
2.5661461 0.06335815 1.8441474 -2.2490067e+38
2.5661359 0.058832444 1.8441474 -2.2756436e+38
2.5661254 0.054306731 1.8441474 -2.302332e+38
2.5661151 0.049781024 1.8441474 -2.3156762e+38
2.5661047 0.045255326 1.8441474 -2.315676e+38
2.5820961 0.041470081 1.8482159 -2.3289161e+38
2.5820856 0.036913909 1.8482159 -2.3422601e+38
2.5820754 0.032357723 1.8482159 -2.3290196e+38
2.5820649 0.027801543 1.8482159 -2.3025388e+38
2.5820544 0.023245372 1.8482159 -2.3026946e+38
2.5820439 0.018689185 1.8482159 -2.3026427e+38
2.5820334 0.014133014 1.8482159 -2.3026946e+38
2.5820231 0.0095768273 1.8482159 -2.2892991e+38
2.5990138 0.0055483431 1.8525388 -2.302592e+38
2.5990033 0.00095978379 1.8525388 -2.3159366e+38
2.5989928 -0.0036287755 1.8525388 -2.3425216e+38
2.5989823 -0.0082173347 1.8525388 -2.369055e+38
