# .PCD v0.7 - Point Cloud Data file format
VERSION 0.7
FIELDS x y z rgb
SIZE 4 4 4 4
TYPE F F F F
COUNT 1 1 1 1
WIDTH 1177
HEIGHT 1
VIEWPOINT 0 0 0 1 0 0 0
POINTS 1177
DATA ascii
1.2315201 0.24957716 4.296 nan
1.2397029 0.24957716 4.296 nan
1.2324905 0.24649811 4.243 nan
1.225661 0.24353525 4.1920004 nan
1.2336458 0.24353525 4.1920004 -3.2613954e+38
1.2268211 0.24063049 4.1420002 -3.1010579e+38
1.2201039 0.23778382 4.0930004 -3.0070782e+38
1.2279 0.23778382 4.0930004 -2.9142945e+38
1.2356963 0.23778382 4.0930004 -2.9012125e+38
1.2289096 0.23499526 4.0450001 -2.8740546e+38
1.2366143 0.23499526 4.0450001 -2.6070125e+38
1.2157105 0.2295924 3.9520001 -2.3313658e+38
1.2232382 0.2295924 3.9520001 nan
1.2167515 0.22697811 3.9070003 nan
0.35940477 0.18114001 3.0190001 -2.941814e+38
0.36515525 0.18114001 3.0190001 -2.6224882e+38
0.37090573 0.18114001 3.0190001 -2.6754498e+38
0.3734124 0.17958002 2.993 -2.741807e+38
0.37911335 0.17958002 2.993 -2.6885336e+38
0.38481432 0.17958002 2.993 -2.6485006e+38
0.39051527 0.17958002 2.993 -2.5952272e+38
0.39277431 0.17802002 2.9670002 -2.5551946e+38
0.39842573 0.17802002 2.9670002 -2.5019736e+38
0.40407717 0.17802002 2.9670002 -2.4620446e+38
0.40972859 0.17802002 2.9670002 -2.4221156e+38
0.41538003 0.17802002 2.9670002 -2.3821347e+38
0.42103145 0.17802002 2.9670002 -2.3688422e+38
0.42668289 0.17802002 2.9670002 -2.3555502e+38
0.4323343 0.17802002 2.9670002 -2.342206e+38
0.43798575 0.17802002 2.9670002 -2.3421538e+38
0.44363716 0.17802002 2.9670002 -2.3420496e+38
0.44928861 0.17802002 2.9670002 -2.3287052e+38
0.45494002 0.17802002 2.9670002 -2.3286531e+38
0.46059147 0.17802002 2.9670002 -2.3418417e+38
0.4703286 0.17958002 2.993 -2.2884132e+38
0.58561718 0.19116001 3.1860001 nan
0.59168577 0.19116001 3.1860001 nan
0.59231335 0.18942001 3.1570001 nan
0.59302002 0.18774001 3.1290002 nan
0.59362006 0.18606001 3.1010001 nan
0.5995267 0.18606001 3.1010001 nan
0.60543334 0.18606001 3.1010001 nan
0.61134005 0.18606001 3.1010001 nan
0.61724669 0.18606001 3.1010001 nan
0.62315339 0.18606001 3.1010001 nan
0.62906003 0.18606001 3.1010001 nan
0.64070004 0.18774001 3.1290002 nan
0.64666003 0.18774001 3.1290002 nan
0.65262002 0.18774001 3.1290002 -3.3827467e+38
0.65858006 0.18774001 3.1290002 -3.1686665e+38
0.66454005 0.18774001 3.1290002 -2.955e+38
0.67050004 0.18774001 3.1290002 -2.6213396e+38
0.6704067 0.18606001 3.1010001 -2.288099e+38
0.6763134 0.18606001 3.1010001 -2.3017036e+38
0.68222004 0.18606001 3.1010001 -2.3282361e+38
0.68812668 0.18606001 3.1010001 -2.3148916e+38
0.84090865 0.21276002 3.5460002 -2.3150472e+38
0.83905721 0.21060002 3.5100002 -2.3150993e+38
0.84574294 0.21060002 3.5100002 -2.3284437e+38
0.85242862 0.21060002 3.5100002 -2.3419435e+38
0.85911435 0.21060002 3.5100002 -2.541639e+38
0.86580008 0.21060002 3.5100002 -2.7281468e+38
0.87248576 0.21060002 3.5100002 -2.9682388e+38
0.87917149 0.21060002 3.5100002 -3.2213703e+38
0.89494294 0.21276002 3.5460002 nan
0.8925429 0.21060002 3.5100002 nan
1.2538905 0.26778001 4.4630003 nan
1.2462686 0.26436001 4.4060001 nan
1.2387143 0.26100001 4.3500004 nan
1.2315201 0.25776002 4.296 nan
1.2397029 0.25776002 4.296 nan
1.2478858 0.25776002 4.296 nan
1.225661 0.25152001 4.1920004 nan
1.2336458 0.25152001 4.1920004 nan
1.2268211 0.24852002 4.1420002 -3.3942138e+38
1.2347106 0.24852002 4.1420002 -3.3006531e+38
1.2279 0.24558002 4.0930004 -3.2070895e+38
1.2356963 0.24558002 4.0930004 -3.1806623e+38
1.2289096 0.24270001 4.0450001 -3.1400036e+38
1.2366143 0.24270001 4.0450001 -2.9275318e+38
1.2157105 0.23712002 3.9520001 -2.7024585e+38
1.2232382 0.23712002 3.9520001 nan
1.2307658 0.23712002 3.9520001 nan
1.2241935 0.23442002 3.9070003 nan
0.3536543 0.18689048 3.0190001 -2.7958089e+38
0.35940477 0.18689048 3.0190001 -2.6755533e+38
0.36515525 0.18689048 3.0190001 -2.5425785e+38
0.37090573 0.18689048 3.0190001 -2.6089363e+38
0.3766562 0.18689048 3.0190001 -2.661949e+38
0.37911335 0.18528096 2.993 -2.6352081e+38
0.38481432 0.18528096 2.993 -2.6085195e+38
0.39051527 0.18528096 2.993 -2.5552982e+38
0.39621621 0.18528096 2.993 -2.5019733e+38
0.39842573 0.18367144 2.9670002 -2.4619927e+38
0.40407717 0.18367144 2.9670002 -2.4220118e+38
0.40972859 0.18367144 2.9670002 -2.4086154e+38
0.41538003 0.18367144 2.9670002 -2.395323e+38
0.42103145 0.18367144 2.9670002 -2.3819786e+38
0.42668289 0.18367144 2.9670002 -2.3554457e+38
0.4323343 0.18367144 2.9670002 -2.368738e+38
0.43798575 0.18367144 2.9670002 -2.3686857e+38
0.44363716 0.18367144 2.9670002 -2.3685814e+38
0.44928861 0.18367144 2.9670002 -2.3685295e+38
0.45892671 0.18528096 2.993 -2.381822e+38
0.46462765 0.18528096 2.993 -2.3816125e+38
0.5613429 0.19722858 3.1860001 nan
0.56741148 0.19722858 3.1860001 nan
0.57348001 0.19722858 3.1860001 nan
0.57427335 0.19543335 3.1570001 nan
0.58028668 0.19543335 3.1570001 nan
0.58630002 0.19543335 3.1570001 nan
0.58706003 0.19370002 3.1290002 nan
0.59302002 0.19370002 3.1290002 nan
0.59362006 0.19196668 3.1010001 nan
0.5995267 0.19196668 3.1010001 nan
0.60543334 0.19196668 3.1010001 nan
0.61686003 0.19370002 3.1290002 nan
0.61724669 0.19196668 3.1010001 nan
0.62315339 0.19196668 3.1010001 nan
0.62906003 0.19196668 3.1010001 nan
0.64070004 0.19370002 3.1290002 nan
0.64666003 0.19370002 3.1290002 nan
0.65262002 0.19370002 3.1290002 -3.3690401e+38
0.66447335 0.19543335 3.1570001 -3.1417179e+38
0.66454005 0.19370002 3.1290002 -2.9015196e+38
0.67050004 0.19370002 3.1290002 -2.540964e+38
0.6704067 0.19196668 3.1010001 -2.1687285e+38
0.6763134 0.19196668 3.1010001 -2.235398e+38
0.68222004 0.19196668 3.1010001 -2.288359e+38
0.84090865 0.2195143 3.5460002 -2.3283397e+38
0.83905721 0.21728572 3.5100002 -2.328392e+38
0.8544172 0.2195143 3.5460002 -2.3284965e+38
0.86117148 0.2195143 3.5460002 -2.3154638e+38
0.85911435 0.21728572 3.5100002 -2.6348939e+38
0.86580008 0.21728572 3.5100002 -2.9544794e+38
0.87248576 0.21728572 3.5100002 -3.0748885e+38
0.87917149 0.21728572 3.5100002 -3.1826376e+38
0.89494294 0.2195143 3.5460002 nan
0.8925429 0.21728572 3.5100002 nan
1.2538905 0.27628097 4.4630003 nan
1.2623916 0.27628097 4.4630003 nan
1.2387143 0.26928574 4.3500004 nan
1.2315201 0.26594287 4.296 nan
1.2397029 0.26594287 4.296 nan
1.2478858 0.26594287 4.296 nan
1.225661 0.25950477 4.1920004 nan
1.2189316 0.25640953 4.1420002 nan
1.2268211 0.25640953 4.1420002 nan
1.2201039 0.25337622 4.0930004 nan
1.2279 0.25337622 4.0930004 nan
1.2212049 0.25040478 4.0450001 nan
1.2289096 0.25040478 4.0450001 nan
1.2222458 0.24749525 3.9980001 -3.2473795e+38
1.2157105 0.24464764 3.9520001 -3.0762515e+38
1.2232382 0.24464764 3.9520001 nan
1.2307658 0.24464764 3.9520001 nan
1.2241935 0.24186192 3.9070003 nan
1.21808 0.23920001 3.8640001 nan
0.35940477 0.19264096 3.0190001 -2.5956957e+38
0.36515525 0.19264096 3.0190001 -2.5956957e+38
0.37090573 0.19264096 3.0190001 -2.6087801e+38
0.3766562 0.19264096 3.0190001 -2.6352083e+38
0.37911335 0.19098192 2.993 -2.5952268e+38
0.38481432 0.19098192 2.993 -2.5685384e+38
0.39051527 0.19098192 2.993 -2.5152654e+38
0.39277431 0.18932287 2.9670002 -2.4752847e+38
0.39842573 0.18932287 2.9670002 -2.4353039e+38
0.40407717 0.18932287 2.9670002 -2.3953232e+38
0.40972859 0.18932287 2.9670002 -2.3820307e+38
0.41538003 0.18932287 2.9670002 -2.3686863e+38
0.42103145 0.18932287 2.9670002 -2.3553938e+38
0.42668289 0.18932287 2.9670002 -2.3553934e+38
0.4323343 0.18932287 2.9670002 -2.355393e+38
0.43798575 0.18932287 2.9670002 -2.3686329e+38
0.44752479 0.19098192 2.993 -2.3552883e+38
0.45322573 0.19098192 2.993 -2.3551849e+38
0.45892671 0.19098192 2.993 -2.3817696e+38
0.46462765 0.19098192 2.993 -2.4082469e+38
0.5613429 0.20329715 3.1860001 nan
0.56224668 0.20144668 3.1570001 nan
0.56826001 0.20144668 3.1570001 nan
0.57427335 0.20144668 3.1570001 nan
0.58028668 0.20144668 3.1570001 nan
0.58630002 0.20144668 3.1570001 nan
0.59231335 0.20144668 3.1570001 nan
0.59302002 0.19966002 3.1290002 nan
0.59898001 0.19966002 3.1290002 nan
0.60494006 0.19966002 3.1290002 nan
0.60543334 0.19787334 3.1010001 nan
0.61134005 0.19787334 3.1010001 nan
0.61724669 0.19787334 3.1010001 nan
0.62315339 0.19787334 3.1010001 nan
0.62906003 0.19787334 3.1010001 nan
0.63496673 0.19787334 3.1010001 nan
0.64087337 0.19787334 3.1010001 nan
0.64678001 0.19787334 3.1010001 -3.2499815e+38
0.65858006 0.19966002 3.1290002 -3.0488269e+38
0.66454005 0.19966002 3.1290002 -2.8619545e+38
0.66450006 0.19787334 3.1010001 -2.5280882e+38
0.6704067 0.19787334 3.1010001 -2.2086059e+38
0.84766293 0.22626859 3.5460002 -2.3815618e+38
0.8544172 0.22626859 3.5460002 -2.3949585e+38
0.86117148 0.22626859 3.5460002 -2.4084067e+38
0.86792576 0.22626859 3.5460002 -2.6750314e+38
0.87468004 0.22626859 3.5460002 -2.9413954e+38
0.87248576 0.22397144 3.5100002 -3.1284211e+38
0.8881886 0.22626859 3.5460002 -3.3289586e+38
0.89494294 0.22626859 3.5460002 nan
0.90169722 0.22626859 3.5460002 nan
1.2701858 0.28848287 4.5210004 nan
1.2787973 0.28848287 4.5210004 nan
1.2546611 0.28114477 4.4060001 nan
1.2630534 0.28114477 4.4060001 nan
1.2397029 0.27412573 4.296 nan
1.2478858 0.27412573 4.296 nan
1.225661 0.26748955 4.1920004 nan
1.2336458 0.26748955 4.1920004 nan
1.2268211 0.26429906 4.1420002 nan
1.2201039 0.26117238 4.0930004 nan
1.2279 0.26117238 4.0930004 nan
1.2212049 0.25810954 4.0450001 nan
1.2146306 0.2551105 3.9980001 nan
1.2366143 0.25810954 4.0450001 -3.3813947e+38
1.2157105 0.25217524 3.9520001 -3.2889797e+38
1.2232382 0.25217524 3.9520001 nan
1.2307658 0.25217524 3.9520001 nan
1.2241935 0.24930383 3.9070003 nan
1.21808 0.24656002 3.8640001 nan
1.22544 0.24656002 3.8640001 nan
1.219081 0.24381621 3.8210001 nan
1.2128792 0.24113621 3.7790003 -3.0214099e+38
1.2139601 0.23852001 3.7380002 -2.4349913e+38
0.3536543 0.19839144 3.0190001 -2.4092399e+38
0.35940477 0.19839144 3.0190001 -2.5288705e+38
0.36515525 0.19839144 3.0190001 -2.6352604e+38
0.37090573 0.19839144 3.0190001 -2.62176e+38
0.3766562 0.19839144 3.0190001 -2.5951751e+38
0.37911335 0.19668287 2.993 -2.5552459e+38
0.38481432 0.19668287 2.993 -2.515265e+38
0.39051527 0.19668287 2.993 -2.4884728e+38
0.39277431 0.1949743 2.9670002 -2.448544e+38
0.39842573 0.1949743 2.9670002 -2.4086152e+38
0.40407717 0.1949743 2.9670002 -2.3686865e+38
0.40972859 0.1949743 2.9670002 -2.3554461e+38
0.41538003 0.1949743 2.9670002 -2.3421534e+38
0.42103145 0.1949743 2.9670002 -2.3421013e+38
0.42668289 0.1949743 2.9670002 -2.3421009e+38
0.4323343 0.1949743 2.9670002 -2.3553409e+38
0.43798575 0.1949743 2.9670002 -2.3552885e+38
0.44752479 0.19668287 2.993 -2.3552883e+38
0.45322573 0.19668287 2.993 -2.3418928e+38
0.45892671 0.19668287 2.993 -2.3817183e+38
0.55623335 0.20746002 3.1570001 nan
0.56224668 0.20746002 3.1570001 nan
0.56826001 0.20746002 3.1570001 nan
0.57427335 0.20746002 3.1570001 nan
0.58028668 0.20746002 3.1570001 nan
0.58630002 0.20746002 3.1570001 nan
0.59231335 0.20746002 3.1570001 nan
0.59832668 0.20746002 3.1570001 nan
0.59898001 0.20562002 3.1290002 nan
0.60494006 0.20562002 3.1290002 nan
0.60543334 0.20378001 3.1010001 nan
0.61134005 0.20378001 3.1010001 nan
0.61724669 0.20378001 3.1010001 nan
0.62315339 0.20378001 3.1010001 nan
0.62906003 0.20378001 3.1010001 nan
0.63496673 0.20378001 3.1010001 nan
0.64087337 0.20378001 3.1010001 -3.3693019e+38
0.64678001 0.20378001 3.1010001 -3.1292065e+38
0.65268672 0.20378001 3.1010001 -2.9681378e+38
0.65859336 0.20378001 3.1010001 -2.8078499e+38
0.66450006 0.20378001 3.1010001 -2.5273606e+38
0.84766293 0.23302287 3.5460002 -2.4213867e+38
0.8544172 0.23302287 3.5460002 -2.4613162e+38
0.86117148 0.23302287 3.5460002 -2.4885762e+38
0.86792576 0.23302287 3.5460002 -2.7153242e+38
0.87468004 0.23302287 3.5460002 -2.9284692e+38
0.88143432 0.23302287 3.5460002 -3.195043e+38
0.8881886 0.23302287 3.5460002 nan
0.89494294 0.23302287 3.5460002 nan
0.90169722 0.23302287 3.5460002 nan
1.2783172 0.30103716 4.5810003 nan
1.287043 0.30103716 4.5810003 nan
1.2787973 0.29709432 4.5210004 nan
1.2708925 0.29328287 4.4630003 nan
1.2793934 0.29328287 4.4630003 nan
1.2552857 0.28585717 4.3500004 nan
1.2478858 0.28230858 4.296 nan
1.2405725 0.27882573 4.243 nan
1.2336458 0.27547431 4.1920004 nan
1.2268211 0.2721886 4.1420002 nan
1.2201039 0.26896858 4.0930004 nan
1.2279 0.26896858 4.0930004 nan
1.2356963 0.26896858 4.0930004 nan
1.2146306 0.26272574 3.9980001 nan
1.2222458 0.26272574 3.9980001 nan
1.2157105 0.25970286 3.9520001 nan
1.2232382 0.25970286 3.9520001 nan
1.2167515 0.25674573 3.9070003 nan
1.2241935 0.25674573 3.9070003 -3.3132752e+38
1.2316353 0.25674573 3.9070003 -3.088968e+38
1.22544 0.25392002 3.8640001 -3.0486236e+38
1.2328001 0.25392002 3.8640001 -2.9960206e+38
1.2263591 0.25109431 3.8210001 -2.6742487e+38
1.2200773 0.2483343 3.7790003 -2.3551841e+38
1.2272754 0.2483343 3.7790003 -2.4355627e+38
1.2210801 0.24564001 3.7380002 -2.502076e+38
0.3536543 0.20414191 3.0190001 -2.5952797e+38
0.35940477 0.20414191 3.0190001 -2.6085718e+38
0.36515525 0.20414191 3.0190001 -2.635104e+38
0.37090573 0.20414191 3.0190001 -2.5950708e+38
0.3766562 0.20414191 3.0190001 -2.5550901e+38
0.37911335 0.20238382 2.993 -2.5285054e+38
0.38481432 0.20238382 2.993 -2.4885764e+38
0.39051527 0.20238382 2.993 -2.475128e+38
0.39621621 0.20238382 2.993 -2.461732e+38
0.39842573 0.20062573 2.9670002 -2.4218554e+38
0.40407717 0.20062573 2.9670002 -2.3818747e+38
0.40972859 0.20062573 2.9670002 -2.3686863e+38
0.41538003 0.20062573 2.9670002 -2.3554457e+38
0.42103145 0.20062573 2.9670002 -2.3554453e+38
0.42668289 0.20062573 2.9670002 -2.3554449e+38
0.4323343 0.20062573 2.9670002 -2.3686327e+38
0.43798575 0.20062573 2.9670002 -2.3685289e+38
0.44752479 0.20238382 2.993 -2.381821e+38
0.45322573 0.20238382 2.993 -2.3950621e+38
0.55623335 0.21347335 3.1570001 nan
0.56224668 0.21347335 3.1570001 nan
0.56322002 0.21158001 3.1290002 nan
0.56918001 0.21158001 3.1290002 nan
0.58028668 0.21347335 3.1570001 nan
0.58630002 0.21347335 3.1570001 nan
0.58706003 0.21158001 3.1290002 nan
0.59302002 0.21158001 3.1290002 nan
0.59898001 0.21158001 3.1290002 nan
0.60494006 0.21158001 3.1290002 nan
0.61090004 0.21158001 3.1290002 nan
0.61134005 0.20968668 3.1010001 nan
0.61724669 0.20968668 3.1010001 nan
0.62315339 0.20968668 3.1010001 nan
0.62906003 0.20968668 3.1010001 nan
0.63496673 0.20968668 3.1010001 nan
0.64087337 0.20968668 3.1010001 -3.3287984e+38
0.64678001 0.20968668 3.1010001 -3.1287369e+38
0.65268672 0.20968668 3.1010001 -2.8881756e+38
0.65859336 0.20968668 3.1010001 -2.6479266e+38
0.66450006 0.20968668 3.1010001 -2.4744503e+38
0.83905721 0.23734288 3.5100002 -2.4480234e+38
0.8544172 0.23977716 3.5460002 -2.514849e+38
0.86117148 0.23977716 3.5460002 -2.581986e+38
0.86792576 0.23977716 3.5460002 -2.781942e+38
0.87468004 0.23977716 3.5460002 -2.9950371e+38
0.86378574 0.2349762 3.4750001 -3.2883011e+38
0.87040484 0.2349762 3.4750001 nan
0.87702388 0.2349762 3.4750001 nan
0.88364291 0.2349762 3.4750001 nan
0.89026195 0.2349762 3.4750001 nan
0.90591437 0.23734288 3.5100002 nan
1.3040735 0.3226105 4.7710004 -2.5292329e+38
1.3042344 0.31821525 4.7060003 -3.2751585e+38
1.2956182 0.31395525 4.6430001 nan
1.304462 0.31395525 4.6430001 nan
1.3044944 0.30976287 4.5810003 nan
1.29602 0.30570573 4.5210004 nan
1.2714458 0.29792956 4.4060001 nan
1.2798382 0.29792956 4.4060001 nan
1.2560687 0.29049146 4.296 nan
1.2486544 0.28690764 4.243 nan
1.2268211 0.28007811 4.1420002 nan
1.2347106 0.28007811 4.1420002 nan
1.2279 0.27676478 4.0930004 nan
1.2212049 0.27351907 4.0450001 nan
1.2289096 0.27351907 4.0450001 nan
1.2222458 0.27034098 3.9980001 nan
1.2157105 0.26723048 3.9520001 nan
1.2232382 0.26723048 3.9520001 nan
1.2307658 0.26723048 3.9520001 nan
1.2241935 0.26418763 3.9070003 nan
1.2316353 0.26418763 3.9070003 -3.3004912e+38
1.2390772 0.26418763 3.9070003 -3.2479439e+38
1.2328001 0.26128003 3.8640001 -3.1817409e+38
1.2263591 0.2583724 3.8210001 -3.0077976e+38
1.2336372 0.2583724 3.8210001 -2.8473079e+38
1.2272754 0.25553238 3.7790003 -2.7546295e+38
1.1952734 0.24741811 3.6590002 -2.6749279e+38
1.202243 0.24741811 3.6590002 -2.6616357e+38
0.35060859 0.20808478 2.993 -2.7680264e+38
0.35630953 0.20808478 2.993 -2.7015644e+38
0.36201051 0.20808478 2.993 -2.6348951e+38
0.37090573 0.20989239 3.0190001 -2.5815702e+38
0.3734124 0.20808478 2.993 -2.5151088e+38
0.37911335 0.20808478 2.993 -2.4885241e+38
0.38815716 0.20989239 3.0190001 -2.4618874e+38
0.38712287 0.20627716 2.9670002 -2.4617836e+38
0.39277431 0.20627716 2.9670002 -2.4617836e+38
0.39842573 0.20627716 2.9670002 -2.4351992e+38
0.40407717 0.20627716 2.9670002 -2.3952704e+38
0.40972859 0.20627716 2.9670002 -2.3820303e+38
0.41538003 0.20627716 2.9670002 -2.3687376e+38
0.42103145 0.20627716 2.9670002 -2.3687374e+38
0.42668289 0.20627716 2.9670002 -2.3686851e+38
0.4323343 0.20627716 2.9670002 -2.3818733e+38
0.43798575 0.20627716 2.9670002 -2.3818212e+38
0.44752479 0.20808478 2.993 -2.4216459e+38
0.45322573 0.20808478 2.993 -2.448126e+38
0.55130005 0.21754001 3.1290002 nan
0.55726004 0.21754001 3.1290002 nan
0.56322002 0.21754001 3.1290002 nan
0.56918001 0.21754001 3.1290002 nan
0.57514006 0.21754001 3.1290002 nan
0.58110005 0.21754001 3.1290002 nan
0.59231335 0.21948668 3.1570001 nan
0.59832668 0.21948668 3.1570001 nan
0.60434002 0.21948668 3.1570001 nan
0.60494006 0.21754001 3.1290002 nan
0.61090004 0.21754001 3.1290002 nan
0.61686003 0.21754001 3.1290002 nan
0.61724669 0.21559335 3.1010001 nan
0.62315339 0.21559335 3.1010001 nan
0.62906003 0.21559335 3.1010001 nan
0.63496673 0.21559335 3.1010001 nan
0.64087337 0.21559335 3.1010001 -3.2741732e+38
0.64094007 0.21364668 3.0730002 -3.1146129e+38
0.64679337 0.21364668 3.0730002 -2.8078512e+38
0.65264672 0.21364668 3.0730002 -2.4882119e+38
0.66450006 0.21559335 3.1010001 -2.4209705e+38
0.83237147 0.24402858 3.5100002 -2.4212303e+38
0.8306905 0.24159525 3.4750001 -2.4746596e+38
0.84574294 0.24402858 3.5100002 -2.5681218e+38
0.85242862 0.24402858 3.5100002 -2.6618947e+38
0.85911435 0.24402858 3.5100002 -2.8619541e+38
0.87468004 0.24653144 3.5460002 -3.0485153e+38
0.86378574 0.24159525 3.4750001 -3.381759e+38
0.87040484 0.24159525 3.4750001 nan
0.87702388 0.24159525 3.4750001 nan
0.88364291 0.24159525 3.4750001 -3.2495692e+38
0.89026195 0.24159525 3.4750001 nan
1.3040735 0.33169812 4.7710004 -2.2229403e+38
1.2952706 0.32717907 4.7060003 -2.8097737e+38
1.3042344 0.32717907 4.7060003 -3.3819656e+38
1.2956182 0.32279906 4.6430001 nan
1.304462 0.32279906 4.6430001 nan
1.3046315 0.31431717 4.5210004 nan
1.2560687 0.29867432 4.296 nan
1.2642515 0.29867432 4.296 nan
1.2268211 0.28796765 4.1420002 nan
1.2347106 0.28796765 4.1420002 nan
1.2279 0.28456098 4.0930004 nan
1.2212049 0.28122383 4.0450001 nan
1.2289096 0.28122383 4.0450001 nan
1.2222458 0.27795622 3.9980001 nan
1.2157105 0.2747581 3.9520001 nan
1.2232382 0.2747581 3.9520001 nan
1.2167515 0.27162954 3.9070003 nan
1.2241935 0.27162954 3.9070003 nan
1.21808 0.26864001 3.8640001 nan
1.22544 0.26864001 3.8640001 nan
1.2328001 0.26864001 3.8640001 -3.367888e+38
1.2263591 0.26565048 3.8210001 -3.3544907e+38
1.2200773 0.26273048 3.7790003 -3.326922e+38
1.2272754 0.26273048 3.7790003 -3.0871961e+38
1.2080134 0.25709906 3.6980002 -2.8344872e+38
1.202243 0.25438765 3.6590002 -2.7412859e+38
1.2092124 0.25438765 3.6590002 -2.6482401e+38
1.216182 0.25438765 3.6590002 -2.6348964e+38
1.2231516 0.25438765 3.6590002 -2.6218635e+38
0.35060859 0.21378572 2.993 -2.7282005e+38
0.35630953 0.21378572 2.993 -2.6614783e+38
0.36201051 0.21378572 2.993 -2.6080499e+38
0.36771145 0.21378572 2.993 -2.5549332e+38
0.3734124 0.21378572 2.993 -2.4884718e+38
0.37911335 0.21378572 2.993 -2.4751793e+38
0.38481432 0.21378572 2.993 -2.4618351e+38
0.39051527 0.21378572 2.993 -2.4484909e+38
0.39621621 0.21378572 2.993 -2.4351986e+38
0.39842573 0.21192859 2.9670002 -2.4219063e+38
0.40407717 0.21192859 2.9670002 -2.4085623e+38
0.40972859 0.21192859 2.9670002 -2.3952702e+38
0.41538003 0.21192859 2.9670002 -2.3819258e+38
0.42103145 0.21192859 2.9670002 -2.3686851e+38
0.42668289 0.21192859 2.9670002 -2.3686331e+38
0.4323343 0.21192859 2.9670002 -2.3818733e+38
0.43798575 0.21192859 2.9670002 -2.3951134e+38
0.55130005 0.22350001 3.1290002 nan
0.55227339 0.22150001 3.1010001 nan
0.56322002 0.22350001 3.1290002 nan
0.56408668 0.22150001 3.1010001 nan
0.58028668 0.22550002 3.1570001 nan
0.58630002 0.22550002 3.1570001 nan
0.59231335 0.22550002 3.1570001 nan
0.60434002 0.22550002 3.1570001 nan
0.61686003 0.22350001 3.1290002 nan
0.61724669 0.22150001 3.1010001 nan
0.62878007 0.22350001 3.1290002 nan
0.63474005 0.22350001 3.1290002 nan
0.63496673 0.22150001 3.1010001 -3.3829552e+38
0.64087337 0.22150001 3.1010001 -3.1685075e+38
0.64094007 0.21950002 3.0730002 -2.9551564e+38
0.64679337 0.21950002 3.0730002 -2.701617e+38
0.65264672 0.21950002 3.0730002 -2.4482319e+38
0.83237147 0.2507143 3.5100002 -2.4212822e+38
0.8306905 0.2482143 3.4750001 -2.4745039e+38
0.84574294 0.2507143 3.5100002 -2.6481347e+38
0.85242862 0.2507143 3.5100002 -2.8082647e+38
0.85911435 0.2507143 3.5100002 -3.02146e+38
0.87468004 0.25328574 3.5460002 -3.234501e+38
0.87248576 0.2507143 3.5100002 -3.3946322e+38
0.87040484 0.2482143 3.4750001 nan
0.87702388 0.2482143 3.4750001 -3.3948466e+38
0.88364291 0.2482143 3.4750001 -3.2355997e+38
0.89026195 0.2482143 3.4750001 -3.3954713e+38
0.89688098 0.2482143 3.4750001 nan
1.3042344 0.33614287 4.7060003 -2.9304453e+38
1.2956182 0.33164287 4.6430001 -3.0225569e+38
1.0027858 0.2482143 3.4750001 -2.9691223e+38
1.0094048 0.2482143 3.4750001 -3.0752001e+38
1.0160239 0.2482143 3.4750001 -3.1826816e+38
1.022643 0.2482143 3.4750001 -3.3817034e+38
1.0292619 0.2482143 3.4750001 nan
1.0254477 0.24571431 3.4400001 nan
1.2135 0.2889286 4.0450001 nan
1.2212049 0.2889286 4.0450001 nan
1.2289096 0.2889286 4.0450001 nan
1.2222458 0.28557146 3.9980001 nan
1.2157105 0.28228572 3.9520001 nan
1.2232382 0.28228572 3.9520001 nan
1.2307658 0.28228572 3.9520001 nan
1.2241935 0.27907145 3.9070003 nan
1.2316353 0.27907145 3.9070003 nan
1.2390772 0.27907145 3.9070003 nan
1.2465191 0.27907145 3.9070003 nan
1.2263591 0.2729286 3.8210001 nan
1.2200773 0.26992857 3.7790003 nan
1.2139601 0.26700002 3.7380002 -3.3005474e+38
1.1952734 0.26135716 3.6590002 -3.1667944e+38
1.1897572 0.25864288 3.6210003 -3.0739566e+38
1.1966543 0.25864288 3.6210003 -2.9803395e+38
1.2035515 0.25864288 3.6210003 -2.8743645e+38
1.2104486 0.25864288 3.6210003 -2.7809003e+38
1.2045705 0.25592858 3.5830002 -2.688059e+38
0.34191146 0.21758002 2.9670002 -2.5550893e+38
0.34756288 0.21758002 2.9670002 -2.6747712e+38
0.35630953 0.21948668 2.993 -2.6347377e+38
0.36201051 0.21948668 2.993 -2.5815173e+38
0.36771145 0.21948668 2.993 -2.5283488e+38
0.3734124 0.21948668 2.993 -2.4618355e+38
0.37911335 0.21948668 2.993 -2.4618355e+38
0.38147146 0.21758002 2.9670002 -2.448543e+38
0.38712287 0.21758002 2.9670002 -2.4351986e+38
0.39277431 0.21758002 2.9670002 -2.4086662e+38
0.39842573 0.21758002 2.9670002 -2.4086662e+38
0.40407717 0.21758002 2.9670002 -2.4086144e+38
0.40972859 0.21758002 2.9670002 -2.3953222e+38
0.41538003 0.21758002 2.9670002 -2.3820297e+38
0.42103145 0.21758002 2.9670002 -2.3820812e+38
0.42668289 0.21758002 2.9670002 -2.3686849e+38
0.4323343 0.21758002 2.9670002 -2.3952173e+38
0.43798575 0.21758002 2.9670002 -2.4084574e+38
0.55130005 0.22946002 3.1290002 nan
0.55227339 0.22740668 3.1010001 nan
0.56322002 0.22946002 3.1290002 nan
0.56918001 0.22946002 3.1290002 nan
0.58028668 0.23151335 3.1570001 nan
0.58630002 0.23151335 3.1570001 nan
0.59231335 0.23151335 3.1570001 nan
0.59832668 0.23151335 3.1570001 nan
0.60543334 0.22740668 3.1010001 nan
0.61134005 0.22740668 3.1010001 nan
0.61724669 0.22740668 3.1010001 nan
0.62878007 0.22946002 3.1290002 nan
0.62906003 0.22740668 3.1010001 nan
0.63496673 0.22740668 3.1010001 -3.3152456e+38
0.63508672 0.22535335 3.0730002 -3.0617005e+38
0.64094007 0.22535335 3.0730002 -2.7953363e+38
0.82407147 0.25483334 3.4750001 -2.4344189e+38
0.8306905 0.25483334 3.4750001 -2.4748673e+38
0.8373096 0.25483334 3.4750001 -2.7150634e+38
0.84392864 0.25483334 3.4750001 -2.9546879e+38
0.85911435 0.25740001 3.5100002 -3.1943643e+38
0.86580008 0.25740001 3.5100002 nan
0.87248576 0.25740001 3.5100002 nan
0.87040484 0.25483334 3.4750001 nan
0.87702388 0.25483334 3.4750001 -3.3150402e+38
0.88364291 0.25483334 3.4750001 -3.2086508e+38
0.89026195 0.25483334 3.4750001 -3.3281785e+38
0.89688098 0.25483334 3.4750001 nan
0.90350008 0.25483334 3.4750001 -3.2093826e+38
0.91011912 0.25483334 3.4750001 -2.9823671e+38
1.2956182 0.34048668 4.6430001 -2.4211317e+38
1.304462 0.34048668 4.6430001 -2.3694162e+38
0.99616671 0.25483334 3.4750001 -2.3288597e+38
1.0027858 0.25483334 3.4750001 -2.2495204e+38
1.0094048 0.25483334 3.4750001 -2.4351962e+38
1.0160239 0.25483334 3.4750001 -2.6225352e+38
1.022643 0.25483334 3.4750001 -3.0618046e+38
1.0292619 0.25483334 3.4750001 nan
1.0254477 0.25226668 3.4400001 nan
1.0320001 0.25226668 3.4400001 nan
1.0385524 0.25226668 3.4400001 nan
1.2006553 0.28981334 3.9520001 nan
1.2081829 0.28981334 3.9520001 nan
1.2157105 0.28981334 3.9520001 nan
1.2232382 0.28981334 3.9520001 nan
1.2307658 0.28981334 3.9520001 nan
1.1972468 0.28020668 3.8210001 nan
1.1912849 0.2771267 3.7790003 nan
1.1854801 0.27412003 3.7380002 nan
1.2056811 0.2771267 3.7790003 nan
1.19972 0.27412003 3.7380002 nan
1.20684 0.27412003 3.7380002 nan
1.1759629 0.26554 3.6210003 nan
1.1828601 0.26554 3.6210003 nan
1.1897572 0.26554 3.6210003 nan
1.1966543 0.26554 3.6210003 -3.3004957e+38
1.1909211 0.26275334 3.5830002 -3.1145593e+38
1.1977458 0.26275334 3.5830002 -2.9279966e+38
1.2045705 0.26275334 3.5830002 -2.8213434e+38
1.2242429 0.26554 3.6210003 -2.7013541e+38
1.2311401 0.26554 3.6210003 -2.7149626e+38
1.2250448 0.26275334 3.5830002 -2.7284098e+38
1.2268287 0.25740001 3.5100002 -2.7813193e+38
1.2212144 0.25483334 3.4750001 -2.7414948e+38
1.2278334 0.25483334 3.4750001 -2.6884813e+38
1.2344525 0.25483334 3.4750001 -2.5688505e+38
0.34756288 0.22323145 2.9670002 -2.6082051e+38
0.35630953 0.22518763 2.993 -2.5815165e+38
0.36201051 0.22518763 2.993 -2.5548289e+38
0.36771145 0.22518763 2.993 -2.514901e+38
0.3701686 0.22323145 2.9670002 -2.4749724e+38
0.37582001 0.22323145 2.9670002 -2.4484917e+38
0.38147146 0.22323145 2.9670002 -2.4353028e+38
0.38712287 0.22323145 2.9670002 -2.4220621e+38
0.41538003 0.22323145 2.9670002 -2.39527e+38
0.42103145 0.22323145 2.9670002 -2.3819773e+38
0.42668289 0.22323145 2.9670002 -2.3686329e+38
0.54636669 0.23331335 3.1010001 nan
0.55227339 0.23331335 3.1010001 nan
0.56322002 0.23542002 3.1290002 nan
0.56918001 0.23542002 3.1290002 nan
0.58028668 0.23752668 3.1570001 nan
0.58630002 0.23752668 3.1570001 nan
0.59231335 0.23752668 3.1570001 nan
0.59832668 0.23752668 3.1570001 nan
0.61134005 0.23331335 3.1010001 nan
0.61724669 0.23331335 3.1010001 nan
0.62315339 0.23331335 3.1010001 nan
0.62906003 0.23331335 3.1010001 nan
0.63496673 0.23331335 3.1010001 -3.301484e+38
0.63508672 0.23120669 3.0730002 -3.0749392e+38
0.64094007 0.23120669 3.0730002 -2.8482965e+38
0.81745243 0.26145241 3.4750001 -2.394749e+38
0.82407147 0.26145241 3.4750001 -2.4080942e+38
0.82232386 0.25881907 3.4400001 -2.4216465e+38
0.8373096 0.26145241 3.4750001 -2.688375e+38
0.84392864 0.26145241 3.4750001 -2.9680325e+38
0.85054767 0.26145241 3.4750001 -3.2609302e+38
0.86580008 0.26408574 3.5100002 nan
0.87248576 0.26408574 3.5100002 nan
0.87917149 0.26408574 3.5100002 nan
0.88585722 0.26408574 3.5100002 -3.3281757e+38
0.8925429 0.26408574 3.5100002 -3.2349232e+38
0.89922863 0.26408574 3.5100002 -3.2883011e+38
0.89688098 0.26145241 3.4750001 -3.3548144e+38
0.90350008 0.26145241 3.4750001 -3.2619759e+38
0.91011912 0.26145241 3.4750001 -3.1684552e+38
0.91673815 0.26145241 3.4750001 -2.6343678e+38
0.95205432 0.2695781 3.5830002 -2.1014333e+38
0.94321436 0.26145241 3.4750001 -2.4482317e+38
0.94983339 0.26145241 3.4750001 -2.4354594e+38
0.95645243 0.26145241 3.4750001 -2.4352004e+38
0.95337147 0.25881907 3.4400001 -2.4481818e+38
0.95992386 0.25881907 3.4400001 -2.434786e+38
0.96647626 0.25881907 3.4400001 -2.4349937e+38
0.98292863 0.26145241 3.4750001 -2.475286e+38
0.99951434 0.26408574 3.5100002 -2.5284009e+38
0.99616671 0.26145241 3.4750001 -2.5817753e+38
1.0027858 0.26145241 3.4750001 -2.6340607e+38
1.0094048 0.26145241 3.4750001 -2.7546246e+38
1.0160239 0.26145241 3.4750001 -2.887185e+38
1.022643 0.26145241 3.4750001 -3.074576e+38
1.0292619 0.26145241 3.4750001 -3.2608249e+38
1.0254477 0.25881907 3.4400001 -3.3813391e+38
1.0320001 0.25881907 3.4400001 nan
1.0385524 0.25881907 3.4400001 nan
1.0663714 0.26408574 3.5100002 nan
1.0840629 0.26679429 3.5460002 nan
1.0797429 0.26408574 3.5100002 nan
1.0864286 0.26408574 3.5100002 nan
1.1516629 0.27823049 3.6980002 nan
1.1587068 0.27823049 3.6980002 nan
1.1534562 0.27529621 3.6590002 nan
1.1604258 0.27529621 3.6590002 nan
1.1673954 0.27529621 3.6590002 nan
1.1743648 0.27529621 3.6590002 nan
1.1939257 0.27823049 3.6980002 nan
1.1759629 0.27243716 3.6210003 nan
1.1828601 0.27243716 3.6210003 nan
1.1772715 0.2695781 3.5830002 nan
1.1840962 0.2695781 3.5830002 nan
1.1909211 0.2695781 3.5830002 -3.3408905e+38
1.1977458 0.2695781 3.5830002 -3.2210485e+38
1.2045705 0.2695781 3.5830002 -3.1674082e+38
1.2242429 0.27243716 3.6210003 -3.1264456e+38
1.2056401 0.26679429 3.5460002 -3.1004888e+38
1.2000858 0.26408574 3.5100002 -3.0733329e+38
1.2067715 0.26408574 3.5100002 -2.9408253e+38
1.2134572 0.26408574 3.5100002 -2.8211432e+38
1.220143 0.26408574 3.5100002 -2.7278381e+38
1.2145953 0.26145241 3.4750001 -2.6347404e+38
1.2212144 0.26145241 3.4750001 -2.5951234e+38
1.2278334 0.26145241 3.4750001 -2.555714e+38
1.2344525 0.26145241 3.4750001 -2.501974e+38
1.2285715 0.25881907 3.4400001 -2.4482325e+38
0.34191146 0.22888288 2.9670002 -2.5816207e+38
0.34756288 0.22888288 2.9670002 -2.541692e+38
0.35630953 0.23088859 2.993 -2.5282959e+38
0.35886574 0.22888288 2.9670002 -2.5148482e+38
0.36451715 0.22888288 2.9670002 -2.5014008e+38
0.3701686 0.22888288 2.9670002 -2.4749722e+38
0.37582001 0.22888288 2.9670002 -2.44844e+38
0.38481432 0.23088859 2.993 -2.4220631e+38
0.39051527 0.23088859 2.993 -2.4222708e+38
0.39621621 0.23088859 2.993 -2.422115e+38
0.61686003 0.24138002 3.1290002 nan
0.61724669 0.23922002 3.1010001 nan
0.62878007 0.24138002 3.1290002 nan
0.62906003 0.23922002 3.1010001 nan
0.81083339 0.26807144 3.4750001 -2.3548186e+38
0.81745243 0.26807144 3.4750001 -2.3948005e+38
0.82407147 0.26807144 3.4750001 -2.3815613e+38
0.8306905 0.26807144 3.4750001 -2.3688925e+38
0.8373096 0.26807144 3.4750001 -2.6753425e+38
0.84392864 0.26807144 3.4750001 -2.9683442e+38
0.85054767 0.26807144 3.4750001 -3.3410479e+38
0.86580008 0.27077144 3.5100002 nan
0.87248576 0.27077144 3.5100002 nan
0.87040484 0.26807144 3.4750001 nan
0.88585722 0.27077144 3.5100002 -3.3546542e+38
0.8925429 0.27077144 3.5100002 -3.2482137e+38
0.89026195 0.26807144 3.4750001 -3.2617672e+38
0.89688098 0.26807144 3.4750001 -3.2750595e+38
0.90350008 0.26807144 3.4750001 -3.315196e+38
0.91928577 0.27077144 3.5100002 -3.3538193e+38
0.92597151 0.27077144 3.5100002 -2.7668229e+38
0.93265718 0.27077144 3.5100002 -2.1817559e+38
0.93934292 0.27077144 3.5100002 -2.2750625e+38
0.94602865 0.27077144 3.5100002 -2.368007e+38
0.94321436 0.26807144 3.4750001 -2.3682171e+38
0.94983339 0.26807144 3.4750001 -2.3548731e+38
0.95645243 0.26807144 3.4750001 -2.381406e+38
0.95337147 0.26537144 3.4400001 -2.4082493e+38
0.95992386 0.26537144 3.4400001 -2.4614177e+38
0.96647626 0.26537144 3.4400001 -2.5018156e+38
0.98292863 0.26807144 3.4750001 -2.5821422e+38
0.98954767 0.26807144 3.4750001 -2.6489669e+38
0.99616671 0.26807144 3.4750001 -2.8357334e+38
1.0027858 0.26807144 3.4750001 -3.0216709e+38
1.0094048 0.26807144 3.4750001 -3.0887049e+38
1.0160239 0.26807144 3.4750001 -3.141613e+38
1.022643 0.26807144 3.4750001 -3.0750983e+38
1.0292619 0.26807144 3.4750001 -3.0091587e+38
1.035881 0.26807144 3.4750001 -3.2225128e+38
1.0320001 0.26537144 3.4400001 nan
1.0491191 0.26807144 3.4750001 nan
1.0663714 0.27077144 3.5100002 nan
1.0840629 0.2735486 3.5460002 nan
1.0797429 0.27077144 3.5100002 nan
1.0864286 0.27077144 3.5100002 nan
1.1043258 0.2735486 3.5460002 nan
1.13458 0.27933431 3.6210003 nan
1.1294981 0.27640286 3.5830002 nan
1.136323 0.27640286 3.5830002 nan
1.1313429 0.2735486 3.5460002 nan
1.1380972 0.2735486 3.5460002 nan
1.1567972 0.27640286 3.5830002 nan
1.163622 0.27640286 3.5830002 nan
1.1704468 0.27640286 3.5830002 nan
1.1772715 0.27640286 3.5830002 nan
1.1840962 0.27640286 3.5830002 nan
1.1909211 0.27640286 3.5830002 nan
1.1977458 0.27640286 3.5830002 nan
1.2045705 0.27640286 3.5830002 nan
1.2113953 0.27640286 3.5830002 nan
1.2056401 0.2735486 3.5460002 nan
1.2000858 0.27077144 3.5100002 nan
1.2067715 0.27077144 3.5100002 -3.1003807e+38
1.2134572 0.27077144 3.5100002 -2.78121e+38
1.220143 0.27077144 3.5100002 -2.634164e+38
1.2268287 0.27077144 3.5100002 -2.4747631e+38
1.2335143 0.27077144 3.5100002 -2.4484927e+38
1.2278334 0.26807144 3.4750001 -2.4088237e+38
1.2468858 0.27077144 3.5100002 -2.4217528e+38
0.34191146 0.23453431 2.9670002 -2.5416918e+38
0.34756288 0.23453431 2.9670002 -2.5017632e+38
0.35321432 0.23453431 2.9670002 -2.4883154e+38
0.35886574 0.23453431 2.9670002 -2.4748675e+38
0.36451715 0.23453431 2.9670002 -2.4483351e+38
0.3701686 0.23453431 2.9670002 -2.4350953e+38
0.37911335 0.23658954 2.993 -2.4219075e+38
0.38481432 0.23658954 2.993 -2.4220118e+38
0.39051527 0.23658954 2.993 -2.4220641e+38
0.39621621 0.23658954 2.993 -2.4219599e+38
0.61686003 0.24734002 3.1290002 nan
0.61724669 0.24512668 3.1010001 nan
0.62878007 0.24734002 3.1290002 nan
0.80266672 0.27192384 3.4400001 -2.368162e+38
0.80921912 0.27192384 3.4400001 -2.4080924e+38
0.82407147 0.27469051 3.4750001 -2.4616783e+38
0.8306905 0.27469051 3.4750001 -2.5154192e+38
0.8373096 0.27469051 3.4750001 -2.7554077e+38
0.84392864 0.27469051 3.4750001 -3.0086369e+38
0.85054767 0.27469051 3.4750001 -3.3414639e+38
0.86580008 0.27745715 3.5100002 nan
0.87248576 0.27745715 3.5100002 nan
0.87040484 0.27469051 3.4750001 nan
0.88585722 0.27745715 3.5100002 -3.3280152e+38
0.8925429 0.27745715 3.5100002 -3.1947312e+38
0.89922863 0.27745715 3.5100002 -3.1684083e+38
0.90591437 0.27745715 3.5100002 -3.1418239e+38
0.90350008 0.27469051 3.4750001 -3.1814931e+38
0.91011912 0.27469051 3.4750001 -3.2210515e+38
0.92597151 0.27745715 3.5100002 -2.8742509e+38
0.93265718 0.27745715 3.5100002 -2.5274049e+38
0.93934292 0.27745715 3.5100002 -2.5541963e+38
0.95573151 0.28030288 3.5460002 -2.5666617e+38
0.95271432 0.27745715 3.5100002 -2.4876386e+38
0.95940006 0.27745715 3.5100002 -2.3939174e+38
0.95645243 0.27469051 3.4750001 -2.6212359e+38
0.96307147 0.27469051 3.4750001 -2.8470988e+38
0.96969056 0.27469051 3.4750001 -2.7808948e+38
0.9763096 0.27469051 3.4750001 -2.7014044e+38
0.98292863 0.27469051 3.4750001 -2.7420637e+38
0.98954767 0.27469051 3.4750001 -2.7824097e+38
0.99616671 0.27469051 3.4750001 -2.9557821e+38
1.0027858 0.27469051 3.4750001 -3.1427087e+38
1.0094048 0.27469051 3.4750001 -3.2891353e+38
1.0160239 0.27469051 3.4750001 nan
1.022643 0.27469051 3.4750001 -3.275368e+38
1.0292619 0.27469051 3.4750001 -3.1294168e+38
1.035881 0.27469051 3.4750001 -3.2225709e+38
1.0425 0.27469051 3.4750001 -3.328958e+38
1.0491191 0.27469051 3.4750001 -3.3820202e+38
1.0663714 0.27745715 3.5100002 nan
1.0730572 0.27745715 3.5100002 nan
1.0689763 0.27469051 3.4750001 nan
1.0864286 0.27745715 3.5100002 nan
1.0931144 0.27745715 3.5100002 nan
1.1110801 0.28030288 3.5460002 nan
1.1178343 0.28030288 3.5460002 nan
1.1245886 0.28030288 3.5460002 nan
1.1198572 0.27745715 3.5100002 nan
1.1265429 0.27745715 3.5100002 nan
1.1448514 0.28030288 3.5460002 nan
1.163622 0.28322765 3.5830002 nan
1.1704468 0.28322765 3.5830002 nan
1.1772715 0.28322765 3.5830002 nan
1.1840962 0.28322765 3.5830002 nan
1.1909211 0.28322765 3.5830002 nan
1.1977458 0.28322765 3.5830002 nan
1.2045705 0.28322765 3.5830002 nan
1.1988858 0.28030288 3.5460002 nan
1.2056401 0.28030288 3.5460002 nan
1.2000858 0.27745715 3.5100002 nan
1.2067715 0.27745715 3.5100002 -3.3005918e+38
1.2134572 0.27745715 3.5100002 -3.1937854e+38
1.220143 0.27745715 3.5100002 -2.7408085e+38
1.2268287 0.27745715 3.5100002 -2.2879414e+38
1.2335143 0.27745715 3.5100002 -2.5681747e+38
1.2402 0.27745715 3.5100002 -2.8606053e+38
1.2344525 0.27469051 3.4750001 -2.860917e+38
1.2410715 0.27469051 3.4750001 -2.8742089e+38
0.34191146 0.24018572 2.9670002 -2.5016592e+38
0.34756288 0.24018572 2.9670002 -2.4617823e+38
0.35321432 0.24018572 2.9670002 -2.4483862e+38
0.35886574 0.24018572 2.9670002 -2.4217499e+38
0.36451715 0.24018572 2.9670002 -2.4085098e+38
0.3701686 0.24018572 2.9670002 -2.3819777e+38
0.37911335 0.2422905 2.993 -2.3953224e+38
0.38481432 0.2422905 2.993 -2.4086672e+38
0.38712287 0.24018572 2.9670002 -2.4086678e+38
0.80266672 0.27847621 3.4400001 -2.3814551e+38
0.80921912 0.27847621 3.4400001 -2.4215925e+38
0.82407147 0.28130955 3.4750001 -2.5416397e+38
0.8306905 0.28130955 3.4750001 -2.6618935e+38
0.8373096 0.28130955 3.4750001 -2.8488165e+38
0.84392864 0.28130955 3.4750001 -3.035117e+38
0.85911435 0.28414288 3.5100002 -3.3548596e+38
0.86580008 0.28414288 3.5100002 nan
0.87248576 0.28414288 3.5100002 nan
0.87917149 0.28414288 3.5100002 nan
0.88585722 0.28414288 3.5100002 -3.3147767e+38
0.8925429 0.28414288 3.5100002 -3.1287897e+38
0.89922863 0.28414288 3.5100002 -3.0620177e+38
0.90591437 0.28414288 3.5100002 -2.9957644e+38
0.91260004 0.28414288 3.5100002 -3.0478953e+38
0.91928577 0.28414288 3.5100002 -3.088495e+38
0.92597151 0.28414288 3.5100002 -2.9816335e+38
0.93265718 0.28414288 3.5100002 -2.8748275e+38
0.93934292 0.28414288 3.5100002 -2.8211386e+38
0.94602865 0.28414288 3.5100002 -2.7682313e+38
0.95271432 0.28414288 3.5100002 -2.6085187e+38
0.95940006 0.28414288 3.5100002 -2.4362916e+38
0.95645243 0.28130955 3.4750001 -2.8625806e+38
0.96307147 0.28130955 3.4750001 -3.287463e+38
0.96969056 0.28130955 3.4750001 -3.1002777e+38
0.9763096 0.28130955 3.4750001 -2.9019877e+38
0.98292863 0.28130955 3.4750001 -2.9022512e+38
0.99951434 0.28414288 3.5100002 -2.9026672e+38
1.0062001 0.28414288 3.5100002 -3.0888116e+38
1.0128858 0.28414288 3.5100002 -3.2625479e+38
1.0195715 0.28414288 3.5100002 nan
1.0262572 0.28414288 3.5100002 nan
1.0329429 0.28414288 3.5100002 nan
1.0396286 0.28414288 3.5100002 -3.2491507e+38
1.035881 0.28130955 3.4750001 -3.235913e+38
1.0425 0.28130955 3.4750001 -3.2227749e+38
1.0491191 0.28130955 3.4750001 -3.2757347e+38
1.0663714 0.28414288 3.5100002 -3.3159219e+38
1.0730572 0.28414288 3.5100002 nan
1.0689763 0.28130955 3.4750001 nan
1.0864286 0.28414288 3.5100002 nan
1.0931144 0.28414288 3.5100002 nan
1.0998001 0.28414288 3.5100002 nan
1.1064858 0.28414288 3.5100002 -3.3683097e+38
1.1131715 0.28414288 3.5100002 nan
1.1198572 0.28414288 3.5100002 nan
1.1265429 0.28414288 3.5100002 nan
1.1448514 0.28705716 3.5460002 nan
1.163622 0.29005241 3.5830002 nan
1.1704468 0.29005241 3.5830002 nan
1.1651144 0.28705716 3.5460002 nan
1.1718687 0.28705716 3.5460002 nan
1.178623 0.28705716 3.5460002 nan
1.1977458 0.29005241 3.5830002 nan
1.1921315 0.28705716 3.5460002 nan
1.1988858 0.28705716 3.5460002 nan
1.1934 0.28414288 3.5100002 nan
1.2000858 0.28414288 3.5100002 nan
1.2067715 0.28414288 3.5100002 nan
1.2134572 0.28414288 3.5100002 nan
1.220143 0.28414288 3.5100002 -2.8474104e+38
1.2268287 0.28414288 3.5100002 -2.0896496e+38
1.2335143 0.28414288 3.5100002 -2.7022398e+38
1.2278334 0.28130955 3.4750001 -3.3005997e+38
1.2344525 0.28130955 3.4750001 -3.3004437e+38
1.2285715 0.27847621 3.4400001 -3.2999239e+38
0.33626002 0.24583715 2.9670002 -2.5150553e+38
0.34191146 0.24583715 2.9670002 -2.4883667e+38
0.34756288 0.24583715 2.9670002 -2.4617302e+38
0.35321432 0.24583715 2.9670002 -2.4218012e+38
0.35886574 0.24583715 2.9670002 -2.395165e+38
0.36451715 0.24583715 2.9670002 -2.395269e+38
0.3734124 0.24799144 2.993 -2.3820291e+38
0.37911335 0.24799144 2.993 -2.3953217e+38
0.38481432 0.24799144 2.993 -2.4086668e+38
0.81083339 0.28792858 3.4750001 -2.4081441e+38
0.80921912 0.28502858 3.4400001 -2.4615736e+38
0.82407147 0.28792858 3.4750001 -2.6214972e+38
0.8306905 0.28792858 3.4750001 -2.7682315e+38
0.8373096 0.28792858 3.4750001 -2.9815828e+38
0.84392864 0.28792858 3.4750001 -3.1807605e+38
0.85911435 0.29082859 3.5100002 nan
0.86580008 0.29082859 3.5100002 nan
0.87248576 0.29082859 3.5100002 nan
0.87917149 0.29082859 3.5100002 nan
0.88585722 0.29082859 3.5100002 nan
0.8925429 0.29082859 3.5100002 nan
0.89922863 0.29082859 3.5100002 nan
0.90591437 0.29082859 3.5100002 nan
0.91260004 0.29082859 3.5100002 nan
0.91928577 0.29082859 3.5100002 nan
0.92597151 0.29082859 3.5100002 nan
0.93265718 0.29082859 3.5100002 nan
0.93934292 0.29082859 3.5100002 nan
0.94602865 0.29082859 3.5100002 nan
0.95271432 0.29082859 3.5100002 nan
0.95940006 0.29082859 3.5100002 -3.3290081e+38
0.95645243 0.28792858 3.4750001 nan
0.97277147 0.29082859 3.5100002 nan
0.96969056 0.28792858 3.4750001 nan
0.9763096 0.28792858 3.4750001 nan
0.98292863 0.28792858 3.4750001 nan
0.99951434 0.29082859 3.5100002 nan
1.0062001 0.29082859 3.5100002 nan
1.0128858 0.29082859 3.5100002 nan
1.0195715 0.29082859 3.5100002 nan
1.0160239 0.28792858 3.4750001 nan
1.0329429 0.29082859 3.5100002 nan
1.0396286 0.29082859 3.5100002 nan
1.035881 0.28792858 3.4750001 nan
1.0425 0.28792858 3.4750001 nan
1.0491191 0.28792858 3.4750001 nan
1.0663714 0.29082859 3.5100002 nan
1.0730572 0.29082859 3.5100002 nan
1.0689763 0.28792858 3.4750001 nan
1.0864286 0.29082859 3.5100002 nan
1.0931144 0.29082859 3.5100002 nan
1.0998001 0.29082859 3.5100002 nan
1.1064858 0.29082859 3.5100002 nan
1.1245886 0.29381144 3.5460002 nan
1.1198572 0.29082859 3.5100002 nan
1.1265429 0.29082859 3.5100002 nan
1.1448514 0.29381144 3.5460002 nan
1.1516058 0.29381144 3.5460002 nan
1.1583601 0.29381144 3.5460002 nan
1.1651144 0.29381144 3.5460002 nan
1.1599715 0.29082859 3.5100002 nan
1.178623 0.29381144 3.5460002 nan
1.1853772 0.29381144 3.5460002 nan
1.1921315 0.29381144 3.5460002 nan
1.1867144 0.29082859 3.5100002 nan
1.1934 0.29082859 3.5100002 nan
1.2000858 0.29082859 3.5100002 nan
1.2067715 0.29082859 3.5100002 nan
1.2134572 0.29082859 3.5100002 nan
1.220143 0.29082859 3.5100002 nan
1.2268287 0.29082859 3.5100002 -2.7807463e+38
1.2212144 0.28792858 3.4750001 -3.1946251e+38
1.2278334 0.28792858 3.4750001 nan
1.2220191 0.28502858 3.4400001 nan
1.2164286 0.28221145 3.4060001 nan
0.3392067 0.25369239 2.993 -2.4751263e+38
0.34490764 0.25369239 2.993 -2.4617302e+38
0.34756288 0.2514886 2.9670002 -2.448386e+38
0.35321432 0.2514886 2.9670002 -2.408457e+38
0.35886574 0.2514886 2.9670002 -2.3686323e+38
0.36451715 0.2514886 2.9670002 -2.3820287e+38
0.3701686 0.2514886 2.9670002 -2.3820291e+38
0.37911335 0.25369239 2.993 -2.3953217e+38
0.38481432 0.25369239 2.993 -2.4086664e+38
0.81900007 0.29751432 3.5100002 -2.4345733e+38
0.81745243 0.29454765 3.4750001 -2.5015022e+38
0.82407147 0.29454765 3.4750001 -2.6878541e+38
0.8306905 0.29454765 3.4750001 -2.8747251e+38
0.8373096 0.29454765 3.4750001 -3.1018364e+38
0.84392864 0.29454765 3.4750001 -3.3276508e+38
0.85911435 0.29751432 3.5100002 nan
0.86580008 0.29751432 3.5100002 nan
0.87248576 0.29751432 3.5100002 nan
0.87917149 0.29751432 3.5100002 nan
0.88585722 0.29751432 3.5100002 nan
0.8925429 0.29751432 3.5100002 nan
0.89922863 0.29751432 3.5100002 nan
0.90591437 0.29751432 3.5100002 nan
0.91260004 0.29751432 3.5100002 nan
0.91928577 0.29751432 3.5100002 nan
0.91673815 0.29454765 3.4750001 nan
0.93265718 0.29751432 3.5100002 nan
0.93934292 0.29751432 3.5100002 nan
0.94602865 0.29751432 3.5100002 nan
0.95271432 0.29751432 3.5100002 nan
0.95940006 0.29751432 3.5100002 nan
0.95645243 0.29454765 3.4750001 nan
0.97277147 0.29751432 3.5100002 nan
0.9794572 0.29751432 3.5100002 nan
0.98614293 0.29751432 3.5100002 nan
0.98292863 0.29454765 3.4750001 nan
0.99951434 0.29751432 3.5100002 nan
1.0062001 0.29751432 3.5100002 nan
1.0128858 0.29751432 3.5100002 nan
1.0195715 0.29751432 3.5100002 nan
1.0160239 0.29454765 3.4750001 nan
1.0329429 0.29751432 3.5100002 nan
1.0396286 0.29751432 3.5100002 nan
1.035881 0.29454765 3.4750001 nan
1.0425 0.29454765 3.4750001 nan
1.0491191 0.29454765 3.4750001 nan
1.0663714 0.29751432 3.5100002 nan
1.0730572 0.29751432 3.5100002 nan
1.0689763 0.29454765 3.4750001 nan
1.0864286 0.29751432 3.5100002 nan
1.0931144 0.29751432 3.5100002 nan
1.0998001 0.29751432 3.5100002 nan
1.1064858 0.29751432 3.5100002 nan
1.1131715 0.29751432 3.5100002 nan
1.1198572 0.29751432 3.5100002 nan
1.1265429 0.29751432 3.5100002 nan
1.1332287 0.29751432 3.5100002 nan
1.1399144 0.29751432 3.5100002 nan
1.1466001 0.29751432 3.5100002 nan
1.1532857 0.29751432 3.5100002 nan
1.1599715 0.29751432 3.5100002 nan
1.1666572 0.29751432 3.5100002 nan
1.1733429 0.29751432 3.5100002 nan
1.1800287 0.29751432 3.5100002 nan
1.1867144 0.29751432 3.5100002 nan
1.1934 0.29751432 3.5100002 nan
1.2000858 0.29751432 3.5100002 nan
1.1947381 0.29454765 3.4750001 nan
1.2134572 0.29751432 3.5100002 nan
1.2079762 0.29454765 3.4750001 nan
1.2145953 0.29454765 3.4750001 nan
1.2212144 0.29454765 3.4750001 nan
1.2278334 0.29454765 3.4750001 nan
1.2220191 0.29158098 3.4400001 nan
0.33626002 0.25714001 2.9670002 -2.4617302e+38
0.34191146 0.25714001 2.9670002 -2.448386e+38
0.34756288 0.25714001 2.9670002 -2.4217495e+38
0.35321432 0.25714001 2.9670002 -2.3952167e+38
0.36201051 0.25939336 2.993 -2.355392e+38
0.36451715 0.25714001 2.9670002 -2.3687364e+38
0.3734124 0.25939336 2.993 -2.3687887e+38
0.37911335 0.25939336 2.993 -2.3820814e+38
0.38481432 0.25939336 2.993 -2.3820814e+38
0.81083339 0.30116668 3.4750001 -2.4214891e+38
0.81745243 0.30116668 3.4750001 -2.5282944e+38
0.82407147 0.30116668 3.4750001 -2.701561e+38
0.8306905 0.30116668 3.4750001 -2.8878612e+38
0.8373096 0.30116668 3.4750001 -3.1547459e+38
0.84392864 0.30116668 3.4750001 nan
0.85911435 0.30420002 3.5100002 nan
0.86580008 0.30420002 3.5100002 nan
0.87248576 0.30420002 3.5100002 nan
0.87917149 0.30420002 3.5100002 nan
0.88585722 0.30420002 3.5100002 nan
0.8925429 0.30420002 3.5100002 nan
0.89922863 0.30420002 3.5100002 nan
0.90591437 0.30420002 3.5100002 nan
0.91260004 0.30420002 3.5100002 nan
0.91928577 0.30420002 3.5100002 nan
0.91673815 0.30116668 3.4750001 nan
0.93265718 0.30420002 3.5100002 nan
0.93934292 0.30420002 3.5100002 nan
0.94602865 0.30420002 3.5100002 nan
0.95271432 0.30420002 3.5100002 nan
0.95940006 0.30420002 3.5100002 nan
0.95645243 0.30116668 3.4750001 nan
0.97277147 0.30420002 3.5100002 nan
0.9794572 0.30420002 3.5100002 nan
0.98614293 0.30420002 3.5100002 nan
0.98292863 0.30116668 3.4750001 nan
0.99951434 0.30420002 3.5100002 nan
1.0062001 0.30420002 3.5100002 nan
1.0128858 0.30420002 3.5100002 nan
1.0195715 0.30420002 3.5100002 nan
1.0160239 0.30116668 3.4750001 nan
1.022643 0.30116668 3.4750001 nan
1.0396286 0.30420002 3.5100002 nan
1.035881 0.30116668 3.4750001 nan
1.0425 0.30116668 3.4750001 nan
1.0491191 0.30116668 3.4750001 nan
1.0557382 0.30116668 3.4750001 nan
1.0623572 0.30116668 3.4750001 nan
1.0689763 0.30116668 3.4750001 nan
1.0755953 0.30116668 3.4750001 nan
1.0822144 0.30116668 3.4750001 nan
1.0888335 0.30116668 3.4750001 nan
1.0954524 0.30116668 3.4750001 nan
1.1131715 0.30420002 3.5100002 nan
1.1198572 0.30420002 3.5100002 nan
1.1153096 0.30116668 3.4750001 nan
1.1332287 0.30420002 3.5100002 nan
1.1399144 0.30420002 3.5100002 nan
1.1466001 0.30420002 3.5100002 nan
1.1532857 0.30420002 3.5100002 nan
1.1599715 0.30420002 3.5100002 nan
1.1666572 0.30420002 3.5100002 nan
1.1733429 0.30420002 3.5100002 nan
1.1800287 0.30420002 3.5100002 nan
1.1867144 0.30420002 3.5100002 nan
1.1934 0.30420002 3.5100002 nan
1.1881192 0.30116668 3.4750001 nan
1.1947381 0.30116668 3.4750001 nan
1.2134572 0.30420002 3.5100002 nan
1.2079762 0.30116668 3.4750001 nan
1.2145953 0.30116668 3.4750001 nan
1.2212144 0.30116668 3.4750001 nan
1.2278334 0.30116668 3.4750001 nan
1.2220191 0.29813334 3.4400001 nan
0.33626002 0.26279145 2.9670002 -2.448386e+38
0.34490764 0.26509431 2.993 -2.4217495e+38
0.34756288 0.26279145 2.9670002 -2.3952688e+38
0.35321432 0.26279145 2.9670002 -2.368736e+38
0.36201051 0.26509431 2.993 -2.3421518e+38
0.36451715 0.26279145 2.9670002 -2.3554962e+38
0.3701686 0.26279145 2.9670002 -2.3554964e+38
