# .PCD v0.7 - Point Cloud Data file format
VERSION 0.7
FIELDS x y z rgb
SIZE 4 4 4 4
TYPE F F F F
COUNT 1 1 1 1
WIDTH 1221
HEIGHT 1
VIEWPOINT 0 0 0 1 0 0 0
POINTS 1221
DATA ascii
2.5180738 0.64571899 0.82110447 nan
2.534075 0.64617181 0.81822443 nan
2.5340648 0.64170897 0.81822443 nan
2.5340545 0.63724619 0.81822443 nan
2.5340443 0.63278329 0.81822443 nan
2.534034 0.62832046 0.81822443 nan
2.5340238 0.62385762 0.81822443 nan
2.7050633 0.64091986 0.78744447 nan
2.7050524 0.63613129 0.78744447 nan
2.6870298 0.62632686 0.79068446 nan
2.6870189 0.62157261 0.79068446 nan
2.6870081 0.61681837 0.79068446 nan
2.6869972 0.61206406 0.79068446 nan
2.6869862 0.60730982 0.79068446 nan
2.6869755 0.60255551 0.79068446 -3.3164535e+38
2.6689534 0.59299111 0.79392445 -3.2222611e+38
2.6689427 0.58827108 0.79392445 -3.1162864e+38
2.6689317 0.58355111 0.79392445 -3.1828516e+38
2.668921 0.57883108 0.79392445 -3.2493647e+38
2.6689103 0.5741111 0.79392445 -3.236072e+38
2.6869099 0.57402986 0.79068446 -3.2228323e+38
2.6868992 0.56927562 0.79068446 -3.222781e+38
2.6868882 0.56452131 0.79068446 -3.2229887e+38
2.6868773 0.55976707 0.79068446 -3.2762099e+38
2.6868663 0.55501276 0.79068446 -3.3161389e+38
2.6868556 0.55025846 0.79068446 -3.3292237e+38
2.6868446 0.54550427 0.79068446 -3.3426204e+38
2.6868336 0.54074997 0.79068446 -3.289348e+38
2.6868227 0.53599566 0.79068446 -3.222937e+38
2.6868119 0.53124142 0.79068446 -3.1295261e+38
2.7048109 0.53078294 0.78744447 -3.0234475e+38
2.5342693 0.73096591 0.81376159 nan
2.5342591 0.72650307 0.81376159 nan
2.5342488 0.72204024 0.81376159 nan
2.5342386 0.71757734 0.81376159 nan
2.5182161 0.70777225 0.81667209 nan
2.5182059 0.70333987 0.81667209 nan
2.5031843 0.69395614 0.81940067 nan
2.5031743 0.68955231 0.81940067 nan
2.5031643 0.6851486 0.81940067 nan
2.503154 0.68074477 0.81940067 nan
2.488133 0.6715039 0.82212925 nan
2.503134 0.67193717 0.81940067 nan
2.4881129 0.66275352 0.82212925 nan
2.5031137 0.66312957 0.81940067 nan
2.5031037 0.6587258 0.81940067 nan
2.5030935 0.65432197 0.81940067 nan
2.5180941 0.65458375 0.81667209 nan
2.5030735 0.64551437 0.81940067 nan
2.5180738 0.64571899 0.81667209 nan
2.534075 0.64617181 0.81376159 nan
2.5340648 0.64170897 0.81376159 nan
2.5340545 0.63724619 0.81376159 nan
2.5340443 0.63278329 0.81376159 nan
2.534034 0.62832046 0.81376159 nan
2.5340238 0.62385762 0.81376159 nan
2.7050633 0.64091986 0.78265589 nan
2.7050524 0.63613129 0.78265589 nan
2.6870298 0.62632686 0.78593016 nan
2.6870189 0.62157261 0.78593016 nan
2.6870081 0.61681837 0.78593016 nan
2.6869972 0.61206406 0.78593016 nan
2.6869862 0.60730982 0.78593016 nan
2.6869755 0.60255551 0.78593016 -3.317025e+38
2.6689534 0.59299111 0.78920448 -3.2225715e+38
2.6689427 0.58827108 0.78920448 -3.1290586e+38
2.6689317 0.58355111 0.78920448 -3.1959877e+38
2.668921 0.57883108 0.78920448 -3.2492086e+38
2.6689103 0.5741111 0.78920448 -3.2492083e+38
2.6688993 0.56939113 0.78920448 -3.2491051e+38
2.6868992 0.56927562 0.78593016 -3.2493651e+38
2.6868882 0.56452131 0.78593016 -3.2495211e+38
2.6868773 0.55976707 0.78593016 -3.2894501e+38
2.6868663 0.55501276 0.78593016 -3.3427228e+38
2.6868556 0.55025846 0.78593016 -3.3690993e+38
2.6868446 0.54550427 0.78593016 -3.3955285e+38
2.6868336 0.54074997 0.78593016 -3.3955808e+38
2.6868227 0.53599566 0.78593016 -3.3953202e+38
2.6868119 0.53124142 0.78593016 -3.3692536e+38
2.7048109 0.53078294 0.78265589 -3.3421505e+38
2.5342693 0.73096591 0.80929875 nan
2.5342591 0.72650307 0.80929875 nan
2.5342488 0.72204024 0.80929875 nan
2.5342386 0.71757734 0.80929875 nan
2.5182161 0.70777225 0.81223971 nan
2.5182059 0.70333987 0.81223971 nan
2.5181956 0.69890749 0.81223971 nan
2.5031743 0.68955231 0.81499684 nan
2.5031643 0.6851486 0.81499684 nan
2.503154 0.68074477 0.81499684 nan
2.488133 0.6715039 0.81775397 nan
2.4881229 0.66712868 0.81775397 nan
2.4881129 0.66275352 0.81775397 nan
2.5031137 0.66312957 0.81499684 nan
2.5031037 0.6587258 0.81499684 nan
2.5030935 0.65432197 0.81499684 nan
2.5180941 0.65458375 0.81223971 nan
2.5030735 0.64551437 0.81499684 nan
2.5180738 0.64571899 0.81223971 nan
2.5180635 0.64128667 0.81223971 nan
2.5340648 0.64170897 0.80929875 nan
2.5340545 0.63724619 0.80929875 nan
2.5340443 0.63278329 0.80929875 nan
2.534034 0.62832046 0.80929875 nan
2.5340238 0.62385762 0.80929875 nan
2.7050633 0.64091986 0.77786732 nan
2.7050524 0.63613129 0.77786732 nan
2.6870298 0.62632686 0.78117585 nan
2.6870189 0.62157261 0.78117585 nan
2.6870081 0.61681837 0.78117585 nan
2.6869972 0.61206406 0.78117585 nan
2.6869862 0.60730982 0.78117585 nan
2.6869755 0.60255551 0.78117585 -3.3023253e+38
2.6689534 0.59299111 0.78448445 -3.2218914e+38
2.6689427 0.58827108 0.78448445 -3.1427111e+38
2.6689317 0.58355111 0.78448445 -3.196194e+38
2.668921 0.57883108 0.78448445 -3.2493116e+38
2.6689103 0.5741111 0.78448445 -3.2624483e+38
2.6688993 0.56939113 0.78448445 -3.2625526e+38
2.6688886 0.56467116 0.78448445 -3.2628124e+38
2.6868882 0.56452131 0.78117585 -3.2627089e+38
2.6868773 0.55976707 0.78117585 -3.3159823e+38
2.6868663 0.55501276 0.78117585 -3.3690997e+38
2.6868556 0.55025846 0.78117585 nan
2.6868446 0.54550427 0.78117585 nan
2.6868336 0.54074997 0.78117585 nan
2.6868227 0.53599566 0.78117585 nan
2.6868119 0.53124142 0.78117585 nan
2.7048109 0.53078294 0.77786732 nan
2.5342591 0.72650307 0.80483592 nan
2.5342488 0.72204024 0.80483592 nan
2.5342386 0.71757734 0.80483592 nan
2.5182161 0.70777225 0.80780733 nan
2.5182059 0.70333987 0.80780733 nan
2.5031843 0.69395614 0.81059301 nan
2.5031743 0.68955231 0.81059301 nan
2.488153 0.6802544 0.81337875 nan
2.488143 0.67587918 0.81337875 nan
2.488133 0.6715039 0.81337875 nan
2.4881229 0.66712868 0.81337875 nan
2.4881129 0.66275352 0.81337875 nan
2.4881029 0.65837824 0.81337875 nan
2.5031037 0.6587258 0.81059301 nan
2.5030935 0.65432197 0.81059301 nan
2.5180941 0.65458375 0.80780733 nan
2.5180838 0.65015137 0.80780733 nan
2.5180738 0.64571899 0.80780733 nan
2.5180635 0.64128667 0.80780733 nan
2.5340648 0.64170897 0.80483592 nan
2.5340545 0.63724619 0.80483592 nan
2.5340443 0.63278329 0.80483592 nan
2.534034 0.62832046 0.80483592 nan
2.5340238 0.62385762 0.80483592 nan
2.6870518 0.63583547 0.77642161 nan
2.6870408 0.63108116 0.77642161 nan
2.6870298 0.62632686 0.77642161 nan
2.6870189 0.62157261 0.77642161 nan
2.6870081 0.61681837 0.77642161 nan
2.6869972 0.61206406 0.77642161 nan
2.6689751 0.60243106 0.77976441 nan
2.6869755 0.60255551 0.77642161 -3.1818586e+38
2.6689534 0.59299111 0.77976441 -3.2225094e+38
2.6689427 0.58827108 0.77976441 -3.2762537e+38
2.6689317 0.58355111 0.77976441 -3.2894981e+38
2.668921 0.57883108 0.77976441 -3.3025835e+38
2.6689103 0.5741111 0.77976441 -3.2892921e+38
2.6688993 0.56939113 0.77976441 -3.2758442e+38
2.6688886 0.56467116 0.77976441 -3.2892923e+38
2.6868882 0.56452131 0.77642161 -3.3023255e+38
2.6868773 0.55976707 0.77642161 -3.3424626e+38
2.6868663 0.55501276 0.77642161 -3.3689961e+38
2.6868556 0.55025846 0.77642161 nan
2.6868446 0.54550427 0.77642161 nan
2.6868336 0.54074997 0.77642161 nan
2.6868227 0.53599566 0.77642161 nan
2.6868119 0.53124142 0.77642161 nan
2.7048109 0.53078294 0.77307874 nan
2.5182364 0.71663696 0.80337495 nan
2.5182261 0.71220458 0.80337495 nan
2.5032046 0.70276374 0.80618918 nan
2.5031946 0.69835997 0.80618918 nan
2.5031843 0.69395614 0.80618918 nan
2.5031743 0.68955231 0.80618918 nan
2.488153 0.6802544 0.80900347 nan
2.488143 0.67587918 0.80900347 nan
2.488133 0.6715039 0.80900347 nan
2.4881229 0.66712868 0.80900347 nan
2.4881129 0.66275352 0.80900347 nan
2.4881029 0.65837824 0.80900347 nan
2.5031037 0.6587258 0.80618918 nan
2.5030935 0.65432197 0.80618918 nan
2.5030835 0.64991814 0.80618918 nan
2.5030735 0.64551437 0.80618918 nan
2.5180738 0.64571899 0.80337495 nan
2.5180635 0.64128667 0.80337495 nan
2.5180535 0.63685429 0.80337495 nan
2.5340545 0.63724619 0.80037302 nan
2.5340443 0.63278329 0.80037302 nan
2.534034 0.62832046 0.80037302 nan
2.5340238 0.62385762 0.80037302 nan
2.5500245 0.62409711 0.79737115 nan
2.533993 0.6104691 0.80037302 -3.2501979e+38
2.7050743 0.64570838 0.76829016 nan
2.6870518 0.63583547 0.7716673 nan
2.6870408 0.63108116 0.7716673 nan
2.6870298 0.62632686 0.7716673 nan
2.6870189 0.62157261 0.7716673 nan
2.6870081 0.61681837 0.7716673 nan
2.6869972 0.61206406 0.7716673 nan
2.6689751 0.60243106 0.77504444 nan
2.6689644 0.59771103 0.77504444 -3.0632199e+38
2.6689534 0.59299111 0.77504444 -3.2366399e+38
2.6689427 0.58827108 0.77504444 -3.3961483e+38
2.6689317 0.58355111 0.77504444 -3.382909e+38
2.668921 0.57883108 0.77504444 -3.3561689e+38
2.6689103 0.5741111 0.77504444 -3.3295845e+38
2.6688993 0.56939113 0.77504444 -3.2896557e+38
2.6688886 0.56467116 0.77504444 -3.3161886e+38
2.6688776 0.55995119 0.77504444 -3.3425661e+38
2.6688669 0.55523115 0.77504444 -3.3559109e+38
2.6868663 0.55501276 0.7716673 -3.3692553e+38
2.6868556 0.55025846 0.7716673 nan
2.6868446 0.54550427 0.7716673 nan
2.6868336 0.54074997 0.7716673 nan
2.6868227 0.53599566 0.7716673 nan
2.6868119 0.53124142 0.7716673 nan
2.7048109 0.53078294 0.76829016 -3.2897642e+38
2.5182261 0.71220458 0.79894257 nan
2.5032046 0.70276374 0.80178541 nan
2.5031946 0.69835997 0.80178541 nan
2.5031843 0.69395614 0.80178541 nan
2.5031743 0.68955231 0.80178541 nan
2.5031643 0.6851486 0.80178541 nan
2.503154 0.68074477 0.80178541 nan
2.488133 0.6715039 0.80462825 nan
2.4881229 0.66712868 0.80462825 nan
2.4881129 0.66275352 0.80462825 nan
2.4881029 0.65837824 0.80462825 nan
2.5031037 0.6587258 0.80178541 nan
2.5030935 0.65432197 0.80178541 nan
2.5030835 0.64991814 0.80178541 nan
2.5030735 0.64551437 0.80178541 nan
2.5030632 0.6411106 0.80178541 nan
2.5180635 0.64128667 0.79894257 nan
2.5180535 0.63685429 0.79894257 nan
2.5180433 0.63242191 0.79894257 nan
2.5340443 0.63278329 0.79591018 nan
2.534034 0.62832046 0.79591018 nan
2.5340238 0.62385762 0.79591018 nan
2.5340135 0.61939472 0.79591018 nan
2.5340033 0.61493194 0.79591018 nan
2.533993 0.6104691 0.79591018 -3.2358067e+38
2.5339828 0.60600621 0.79591018 -2.8348655e+38
2.7050853 0.65049696 0.76350158 nan
2.7050743 0.64570838 0.76350158 nan
2.6870518 0.63583547 0.76691306 nan
2.6870408 0.63108116 0.76691306 nan
2.6870298 0.62632686 0.76691306 nan
2.6870189 0.62157261 0.76691306 nan
2.6870081 0.61681837 0.76691306 nan
2.6869972 0.61206406 0.76691306 nan
2.6689751 0.60243106 0.77032447 nan
2.6689644 0.59771103 0.77032447 -3.2758497e+38
2.6689534 0.59299111 0.77032447 -3.3695183e+38
2.6689427 0.58827108 0.77032447 nan
2.6689317 0.58355111 0.77032447 nan
2.668921 0.57883108 0.77032447 -3.3830658e+38
2.6689103 0.5741111 0.77032447 -3.3564287e+38
2.6688993 0.56939113 0.77032447 -3.3299482e+38
2.6688886 0.56467116 0.77032447 -3.3295847e+38
2.6688776 0.55995119 0.77032447 -3.3293778e+38
2.6868773 0.55976707 0.76691306 -3.3159823e+38
2.6868663 0.55501276 0.76691306 -3.3160857e+38
2.6868556 0.55025846 0.76691306 -3.3292216e+38
2.6868446 0.54550427 0.76691306 -3.3558583e+38
2.6868336 0.54074997 0.76691306 -3.3822352e+38
2.6868227 0.53599566 0.76691306 nan
2.7048218 0.53557152 0.76350158 -3.3155665e+38
2.7048109 0.53078294 0.76350158 -3.2217926e+38
2.5032146 0.70716757 0.79738164 nan
2.5032046 0.70276374 0.79738164 nan
2.5031946 0.69835997 0.79738164 nan
2.5031843 0.69395614 0.79738164 nan
2.5031743 0.68955231 0.79738164 nan
2.488153 0.6802544 0.80025303 nan
2.488143 0.67587918 0.80025303 nan
2.488133 0.6715039 0.80025303 nan
2.4881229 0.66712868 0.80025303 nan
2.4881129 0.66275352 0.80025303 nan
2.4881029 0.65837824 0.80025303 nan
2.4880929 0.65400302 0.80025303 nan
2.5030935 0.65432197 0.79738164 nan
2.5030835 0.64991814 0.79738164 nan
2.5030735 0.64551437 0.79738164 nan
2.5030632 0.6411106 0.79738164 nan
2.5180635 0.64128667 0.79451013 nan
2.5180535 0.63685429 0.79451013 nan
2.5180433 0.63242191 0.79451013 nan
2.518033 0.62798953 0.79451013 nan
2.534034 0.62832046 0.79144728 nan
2.5340238 0.62385762 0.79144728 nan
2.5340135 0.61939472 0.79144728 nan
2.5340033 0.61493194 0.79144728 nan
2.533993 0.6104691 0.79144728 -3.2079261e+38
2.5339828 0.60600621 0.79144728 -2.838349e+38
2.7050853 0.65049696 0.75871301 nan
2.7050743 0.64570838 0.75871301 nan
2.7050633 0.64091986 0.75871301 nan
2.7050524 0.63613129 0.75871301 nan
2.6870298 0.62632686 0.76215875 nan
2.6870189 0.62157261 0.76215875 nan
2.6870081 0.61681837 0.76215875 nan
2.6869972 0.61206406 0.76215875 -3.0796934e+38
2.6869862 0.60730982 0.76215875 -3.289503e+38
2.6869755 0.60255551 0.76215875 nan
2.6869645 0.59780121 0.76215875 nan
2.6869535 0.59304702 0.76215875 nan
2.6869426 0.58829272 0.76215875 nan
2.6869318 0.58353841 0.76215875 nan
2.6869209 0.57878411 0.76215875 -3.3964613e+38
2.6869099 0.57402986 0.76215875 -3.3696692e+38
2.6868992 0.56927562 0.76215875 -3.3428772e+38
2.6868882 0.56452131 0.76215875 -3.3027931e+38
2.6868773 0.55976707 0.76215875 -3.2758976e+38
2.6868663 0.55501276 0.76215875 -3.2493647e+38
2.6868556 0.55025846 0.76215875 -3.2355532e+38
2.7048547 0.54993725 0.75871301 -3.2225727e+38
2.7048438 0.54514867 0.75871301 -3.2486903e+38
2.7048328 0.54036009 0.75871301 -3.276002e+38
2.7048218 0.53557152 0.75871301 -3.2226773e+38
2.7048109 0.53078294 0.75871301 -3.1560082e+38
2.5032146 0.70716757 0.79297781 nan
2.5032046 0.70276374 0.79297781 nan
2.5031946 0.69835997 0.79297781 nan
2.5031843 0.69395614 0.79297781 nan
2.5031743 0.68955231 0.79297781 nan
2.5031643 0.6851486 0.79297781 nan
2.503154 0.68074477 0.79297781 nan
2.488133 0.6715039 0.79587781 nan
2.4881229 0.66712868 0.79587781 nan
2.4881129 0.66275352 0.79587781 nan
2.4881029 0.65837824 0.79587781 nan
2.4880929 0.65400302 0.79587781 nan
2.4880829 0.6496278 0.79587781 nan
2.5030835 0.64991814 0.79297781 nan
2.5030735 0.64551437 0.79297781 nan
2.5030632 0.6411106 0.79297781 nan
2.5180635 0.64128667 0.79007781 nan
2.5180535 0.63685429 0.79007781 nan
2.5180433 0.63242191 0.79007781 nan
2.518033 0.62798953 0.79007781 nan
2.534034 0.62832046 0.78698444 nan
2.5340238 0.62385762 0.78698444 nan
2.5340135 0.61939472 0.78698444 nan
2.5340033 0.61493194 0.78698444 nan
2.533993 0.6104691 0.78698444 nan
2.5339828 0.60600621 0.78698444 nan
2.7050853 0.65049696 0.75392449 nan
2.7050743 0.64570838 0.75392449 nan
2.7050633 0.64091986 0.75392449 nan
2.7050524 0.63613129 0.75392449 nan
2.6870298 0.62632686 0.75740445 nan
2.6870189 0.62157261 0.75740445 nan
2.6870081 0.61681837 0.75740445 nan
2.6869972 0.61206406 0.75740445 nan
2.6689751 0.60243106 0.76088446 nan
2.6869755 0.60255551 0.75740445 nan
2.6869645 0.59780121 0.75740445 nan
2.6869535 0.59304702 0.75740445 nan
2.6869426 0.58829272 0.75740445 nan
2.6869318 0.58353841 0.75740445 nan
2.6869209 0.57878411 0.75740445 nan
2.6869099 0.57402986 0.75740445 -3.396098e+38
2.6868992 0.56927562 0.75740445 -3.3694098e+38
2.6868882 0.56452131 0.75740445 -3.3427218e+38
2.6868773 0.55976707 0.75740445 -3.3293778e+38
2.6868663 0.55501276 0.75740445 -3.3293263e+38
2.6868556 0.55025846 0.75740445 -3.3426188e+38
2.6868446 0.54550427 0.75740445 -3.3558597e+38
2.6868336 0.54074997 0.75740445 -3.3959966e+38
2.7048328 0.54036009 0.75392449 nan
2.7048218 0.53557152 0.75392449 nan
2.7048109 0.53078294 0.75392449 nan
2.5342386 0.71757734 0.78252161 nan
2.5342283 0.7131145 0.78252161 nan
2.5031946 0.69835997 0.78857398 nan
2.5031843 0.69395614 0.78857398 nan
2.5031743 0.68955231 0.78857398 nan
2.488153 0.6802544 0.79150259 nan
2.488143 0.67587918 0.79150259 nan
2.488133 0.6715039 0.79150259 nan
2.4881229 0.66712868 0.79150259 nan
2.4881129 0.66275352 0.79150259 nan
2.4881029 0.65837824 0.79150259 nan
2.4880929 0.65400302 0.79150259 nan
2.4880829 0.6496278 0.79150259 nan
2.5030835 0.64991814 0.78857398 nan
2.5030735 0.64551437 0.78857398 nan
2.5030632 0.6411106 0.78857398 nan
2.5030532 0.63670677 0.78857398 nan
2.5180535 0.63685429 0.78564537 nan
2.5180433 0.63242191 0.78564537 nan
2.518033 0.62798953 0.78564537 nan
2.534034 0.62832046 0.78252161 nan
2.5340238 0.62385762 0.78252161 nan
2.5340135 0.61939472 0.78252161 nan
2.5340033 0.61493194 0.78252161 nan
2.533993 0.6104691 0.78252161 nan
2.5499935 0.61061716 0.77939779 nan
2.6870735 0.64534396 0.75265014 nan
2.7050743 0.64570838 0.74913585 nan
2.7050633 0.64091986 0.74913585 nan
2.7050524 0.63613129 0.74913585 nan
2.7050414 0.63134271 0.74913585 nan
2.6870189 0.62157261 0.75265014 nan
2.6870081 0.61681837 0.75265014 nan
2.6869972 0.61206406 0.75265014 nan
2.6869862 0.60730982 0.75265014 nan
2.6869755 0.60255551 0.75265014 nan
2.6869645 0.59780121 0.75265014 nan
2.6869535 0.59304702 0.75265014 nan
2.6869426 0.58829272 0.75265014 nan
2.6869318 0.58353841 0.75265014 nan
2.6869209 0.57878411 0.75265014 nan
2.6869099 0.57402986 0.75265014 nan
2.6688886 0.56467116 0.75616443 nan
2.6868882 0.56452131 0.75265014 -3.3827023e+38
2.6868773 0.55976707 0.75265014 -3.3961508e+38
2.6868663 0.55501276 0.75265014 -3.3962031e+38
2.6868556 0.55025846 0.75265014 nan
2.6868446 0.54550427 0.75265014 nan
2.6868336 0.54074997 0.75265014 nan
2.6868227 0.53599566 0.75265014 nan
2.7048218 0.53557152 0.74913585 nan
2.7048109 0.53078294 0.74913585 nan
2.5342386 0.71757734 0.77805877 nan
2.5342283 0.7131145 0.77805877 nan
2.5031946 0.69835997 0.78417015 nan
2.5031843 0.69395614 0.78417015 nan
2.5031743 0.68955231 0.78417015 nan
2.5031643 0.6851486 0.78417015 nan
2.503154 0.68074477 0.78417015 nan
2.488133 0.6715039 0.78712732 nan
2.503134 0.67193717 0.78417015 nan
2.5031238 0.66753334 0.78417015 nan
2.5031137 0.66312957 0.78417015 nan
2.4880929 0.65400302 0.78712732 nan
2.4880829 0.6496278 0.78712732 nan
2.5030835 0.64991814 0.78417015 nan
2.5030735 0.64551437 0.78417015 nan
2.5030632 0.6411106 0.78417015 nan
2.5030532 0.63670677 0.78417015 nan
2.5180535 0.63685429 0.78121305 nan
2.5180433 0.63242191 0.78121305 nan
2.518033 0.62798953 0.78121305 nan
2.534034 0.62832046 0.77805877 nan
2.5340238 0.62385762 0.77805877 nan
2.5340135 0.61939472 0.77805877 nan
2.5340033 0.61493194 0.77805877 nan
2.533993 0.6104691 0.77805877 nan
2.5499935 0.61061716 0.77490449 nan
2.5499833 0.60612386 0.77490449 nan
2.7050743 0.64570838 0.74434733 nan
2.7050633 0.64091986 0.74434733 nan
2.7050524 0.63613129 0.74434733 nan
2.6870298 0.62632686 0.74789584 nan
2.6870189 0.62157261 0.74789584 nan
2.6870081 0.61681837 0.74789584 nan
2.6869972 0.61206406 0.74789584 nan
2.6869862 0.60730982 0.74789584 nan
2.6869755 0.60255551 0.74789584 nan
2.6869645 0.59780121 0.74789584 nan
2.6869535 0.59304702 0.74789584 nan
2.6869426 0.58829272 0.74789584 nan
2.6869318 0.58353841 0.74789584 -3.3956311e+38
2.6869209 0.57878411 0.74789584 nan
2.6869099 0.57402986 0.74789584 nan
2.6688886 0.56467116 0.75144446 nan
2.6688776 0.55995119 0.75144446 nan
2.6868773 0.55976707 0.74789584 nan
2.6868663 0.55501276 0.74789584 nan
2.6868556 0.55025846 0.74789584 nan
2.6868446 0.54550427 0.74789584 nan
2.6868336 0.54074997 0.74789584 nan
2.6868227 0.53599566 0.74789584 nan
2.6868119 0.53124142 0.74789584 nan
2.7048109 0.53078294 0.74434733 nan
2.5342386 0.71757734 0.77359587 nan
2.5342283 0.7131145 0.77359587 nan
2.5182059 0.70333987 0.77678061 nan
2.5031843 0.69395614 0.77976632 nan
2.5031743 0.68955231 0.77976632 nan
2.5031643 0.6851486 0.77976632 nan
2.503154 0.68074477 0.77976632 nan
2.503144 0.67634094 0.77976632 nan
2.503134 0.67193717 0.77976632 nan
2.5031238 0.66753334 0.77976632 nan
2.5031137 0.66312957 0.77976632 nan
2.5031037 0.6587258 0.77976632 nan
2.5030935 0.65432197 0.77976632 nan
2.5030835 0.64991814 0.77976632 nan
2.5030735 0.64551437 0.77976632 nan
2.5030632 0.6411106 0.77976632 nan
2.5030532 0.63670677 0.77976632 nan
2.5030432 0.632303 0.77976632 nan
2.5180433 0.63242191 0.77678061 nan
2.518033 0.62798953 0.77678061 nan
2.518023 0.62355715 0.77678061 nan
2.5180128 0.61912477 0.77678061 nan
2.5180025 0.61469245 0.77678061 nan
2.5179925 0.61026007 0.77678061 nan
2.533993 0.6104691 0.77359587 nan
2.5339828 0.60600621 0.77359587 nan
2.5499833 0.60612386 0.77041113 nan
2.7050743 0.64570838 0.73955876 nan
2.7050633 0.64091986 0.73955876 nan
2.7050524 0.63613129 0.73955876 nan
2.7050414 0.63134271 0.73955876 nan
2.6870189 0.62157261 0.74314159 nan
2.6870081 0.61681837 0.74314159 nan
2.6869972 0.61206406 0.74314159 nan
2.6869862 0.60730982 0.74314159 nan
2.6869755 0.60255551 0.74314159 nan
2.6869645 0.59780121 0.74314159 nan
2.6869535 0.59304702 0.74314159 nan
2.6869426 0.58829272 0.74314159 nan
2.6869318 0.58353841 0.74314159 -3.36941e+38
2.6689103 0.5741111 0.74672449 -3.3957881e+38
2.6688993 0.56939113 0.74672449 nan
2.6688886 0.56467116 0.74672449 nan
2.6688776 0.55995119 0.74672449 nan
2.6688669 0.55523115 0.74672449 nan
2.6868663 0.55501276 0.74314159 nan
2.6868556 0.55025846 0.74314159 nan
2.6868446 0.54550427 0.74314159 nan
2.6868336 0.54074997 0.74314159 nan
2.6868227 0.53599566 0.74314159 nan
2.6868119 0.53124142 0.74314159 nan
2.7048109 0.53078294 0.73955876 nan
2.7047999 0.52599442 0.73955876 nan
2.550251 0.72295022 0.76591778 nan
2.5342283 0.7131145 0.76913303 nan
2.5182059 0.70333987 0.77234828 nan
2.5181956 0.69890749 0.77234828 nan
2.5181856 0.69447511 0.77234828 nan
2.5031643 0.6851486 0.77536255 nan
2.503154 0.68074477 0.77536255 nan
2.503144 0.67634094 0.77536255 nan
2.503134 0.67193717 0.77536255 nan
2.5031238 0.66753334 0.77536255 -3.2629239e+38
2.5031137 0.66312957 0.77536255 nan
2.5031037 0.6587258 0.77536255 nan
2.5030935 0.65432197 0.77536255 nan
2.5030835 0.64991814 0.77536255 nan
2.5030735 0.64551437 0.77536255 nan
2.5030632 0.6411106 0.77536255 nan
2.5030532 0.63670677 0.77536255 nan
2.5030432 0.632303 0.77536255 nan
2.5030329 0.62789917 0.77536255 nan
2.518033 0.62798953 0.77234828 nan
2.518023 0.62355715 0.77234828 nan
2.5180128 0.61912477 0.77234828 nan
2.5180025 0.61469245 0.77234828 nan
2.5179925 0.61026007 0.77234828 nan
2.5179822 0.60582769 0.77234828 nan
2.5339828 0.60600621 0.76913303 nan
2.5499833 0.60612386 0.76591778 nan
2.7230859 0.65082711 0.73115301 nan
2.7230749 0.64600426 0.73115301 nan
2.7050524 0.63613129 0.73477018 nan
2.7050414 0.63134271 0.73477018 nan
2.6870189 0.62157261 0.73838729 nan
2.6870081 0.61681837 0.73838729 nan
2.6869972 0.61206406 0.73838729 nan
2.6869862 0.60730982 0.73838729 nan
2.6869755 0.60255551 0.73838729 -3.0619175e+38
2.6869645 0.59780121 0.73838729 -3.1157663e+38
2.6869535 0.59304702 0.73838729 -3.1565759e+38
2.6869426 0.58829272 0.73838729 -3.1961913e+38
2.6869318 0.58353841 0.73838729 -3.2499351e+38
2.6869209 0.57878411 0.73838729 -3.2627635e+38
2.6869099 0.57402986 0.73838729 -3.2763152e+38
2.6688886 0.56467116 0.74200445 nan
2.6868882 0.56452131 0.73838729 nan
2.6688669 0.55523115 0.74200445 nan
2.6868663 0.55501276 0.73838729 nan
2.6868556 0.55025846 0.73838729 nan
2.6868446 0.54550427 0.73838729 nan
2.6868336 0.54074997 0.73838729 nan
2.6868227 0.53599566 0.73838729 nan
2.6868119 0.53124142 0.73838729 nan
2.686801 0.52648717 0.73838729 nan
2.68679 0.52173287 0.73838729 nan
2.550251 0.72295022 0.76142442 nan
2.5502408 0.71845686 0.76142442 nan
2.5342181 0.70865172 0.76467013 nan
2.5181956 0.69890749 0.76791584 nan
2.5181856 0.69447511 0.76791584 nan
2.5031643 0.6851486 0.77095878 nan
2.503154 0.68074477 0.77095878 nan
2.503144 0.67634094 0.77095878 nan
2.503134 0.67193717 0.77095878 -3.3687894e+38
2.5031238 0.66753334 0.77095878 -3.103778e+38
2.5031137 0.66312957 0.77095878 nan
2.5031037 0.6587258 0.77095878 nan
2.5030935 0.65432197 0.77095878 nan
2.5030835 0.64991814 0.77095878 nan
2.5030735 0.64551437 0.77095878 nan
2.5030632 0.6411106 0.77095878 nan
2.5030532 0.63670677 0.77095878 nan
2.5030432 0.632303 0.77095878 nan
2.5180433 0.63242191 0.76791584 nan
2.518033 0.62798953 0.76791584 nan
2.518023 0.62355715 0.76791584 nan
2.5180128 0.61912477 0.76791584 nan
2.5180025 0.61469245 0.76791584 nan
2.5179925 0.61026007 0.76791584 nan
2.5179822 0.60582769 0.76791584 nan
2.5339828 0.60600621 0.76467013 nan
2.5499833 0.60612386 0.76142442 nan
2.7050743 0.64570838 0.7299816 nan
2.7050633 0.64091986 0.7299816 nan
2.7050524 0.63613129 0.7299816 nan
2.7050414 0.63134271 0.7299816 nan
2.6870189 0.62157261 0.73363304 nan
2.6870081 0.61681837 0.73363304 nan
2.6869972 0.61206406 0.73363304 nan
2.6869862 0.60730982 0.73363304 -3.3389152e+38
2.6869755 0.60255551 0.73363304 -2.5823497e+38
2.6869645 0.59780121 0.73363304 -2.7284652e+38
2.6869535 0.59304702 0.73363304 -2.8623737e+38
2.6869426 0.58829272 0.73363304 -2.9951921e+38
2.6869318 0.58353841 0.73363304 -3.1155006e+38
2.6869209 0.57878411 0.73363304 -3.1290036e+38
2.6688993 0.56939113 0.73728448 -3.1428699e+38
2.6688886 0.56467116 0.73728448 -3.396309e+38
2.6688776 0.55995119 0.73728448 nan
2.6688669 0.55523115 0.73728448 nan
2.6868663 0.55501276 0.73363304 nan
2.6868556 0.55025846 0.73363304 nan
2.6868446 0.54550427 0.73363304 nan
2.6868336 0.54074997 0.73363304 nan
2.6868227 0.53599566 0.73363304 nan
2.6868119 0.53124142 0.73363304 nan
2.686801 0.52648717 0.73363304 nan
2.5672641 0.72865885 0.75345016 nan
2.5502408 0.71845686 0.75693113 nan
2.5342181 0.70865172 0.7602073 nan
2.5342078 0.70418882 0.7602073 nan
2.5181856 0.69447511 0.76348352 nan
2.5031643 0.6851486 0.76655495 nan
2.503154 0.68074477 0.76655495 nan
2.503144 0.67634094 0.76655495 nan
2.503134 0.67193717 0.76655495 nan
2.5031238 0.66753334 0.76655495 nan
2.5031137 0.66312957 0.76655495 nan
2.5031037 0.6587258 0.76655495 nan
2.5030935 0.65432197 0.76655495 nan
2.5030835 0.64991814 0.76655495 nan
2.5030735 0.64551437 0.76655495 nan
2.5030632 0.6411106 0.76655495 -3.3700339e+38
2.5030532 0.63670677 0.76655495 -3.3692569e+38
2.5030432 0.632303 0.76655495 -3.3689437e+38
2.5180433 0.63242191 0.76348352 nan
2.518033 0.62798953 0.76348352 nan
2.518023 0.62355715 0.76348352 nan
2.5180128 0.61912477 0.76348352 nan
2.5180025 0.61469245 0.76348352 nan
2.5179925 0.61026007 0.76348352 nan
2.5179822 0.60582769 0.76348352 nan
2.5339828 0.60600621 0.7602073 nan
2.5499833 0.60612386 0.75693113 nan
2.7050743 0.64570838 0.72519302 nan
2.7050633 0.64091986 0.72519302 nan
2.7050524 0.63613129 0.72519302 nan
2.7050414 0.63134271 0.72519302 nan
2.7050304 0.62655413 0.72519302 nan
2.6870081 0.61681837 0.72887874 nan
2.6869972 0.61206406 0.72887874 nan
2.6869862 0.60730982 0.72887874 nan
2.6869755 0.60255551 0.72887874 -2.7553497e+38
2.6869645 0.59780121 0.72887874 -2.8750877e+38
2.6869535 0.59304702 0.72887874 -2.9945112e+38
2.6869426 0.58829272 0.72887874 -3.0347519e+38
2.6869318 0.58353841 0.72887874 -3.0878717e+38
2.6869209 0.57878411 0.72887874 -3.0351725e+38
2.6688993 0.56939113 0.73256445 -2.9824249e+38
2.6688886 0.56467116 0.73256445 -3.1161845e+38
2.6688776 0.55995119 0.73256445 -3.2635941e+38
2.6688669 0.55523115 0.73256445 -3.343192e+38
2.6868663 0.55501276 0.72887874 nan
2.6868556 0.55025846 0.72887874 nan
2.6868446 0.54550427 0.72887874 nan
2.6868336 0.54074997 0.72887874 nan
2.6868227 0.53599566 0.72887874 nan
2.668802 0.52691126 0.73256445 nan
2.686801 0.52648717 0.72887874 nan
2.550251 0.72295022 0.75243783 nan
2.5502408 0.71845686 0.75243783 nan
2.5342181 0.70865172 0.75574446 nan
2.5181956 0.69890749 0.75905108 nan
2.5181856 0.69447511 0.75905108 nan
2.5181754 0.69004273 0.75905108 nan
2.503154 0.68074477 0.76215112 nan
2.503144 0.67634094 0.76215112 nan
2.503134 0.67193717 0.76215112 nan
2.5031238 0.66753334 0.76215112 nan
2.5031137 0.66312957 0.76215112 nan
2.5031037 0.6587258 0.76215112 nan
2.4880829 0.6496278 0.76525116 nan
2.4880729 0.64525259 0.76525116 -3.1833716e+38
2.4880629 0.64087737 0.76525116 -3.1431293e+38
2.4880528 0.63650215 0.76525116 -3.0898559e+38
2.5030532 0.63670677 0.76215112 -3.1022134e+38
2.5030432 0.632303 0.76215112 -3.1032535e+38
2.5180433 0.63242191 0.75905108 nan
2.518033 0.62798953 0.75905108 nan
2.518023 0.62355715 0.75905108 nan
2.5180128 0.61912477 0.75905108 nan
2.5180025 0.61469245 0.75905108 nan
2.5179925 0.61026007 0.75905108 nan
2.5179822 0.60582769 0.75905108 nan
2.5179722 0.60139531 0.75905108 nan
2.5339725 0.60154337 0.75574446 nan
2.7050743 0.64570838 0.72040445 nan
2.7050633 0.64091986 0.72040445 nan
2.7050524 0.63613129 0.72040445 nan
2.7050414 0.63134271 0.72040445 nan
2.7050304 0.62655413 0.72040445 nan
2.6870081 0.61681837 0.72412443 nan
2.6869972 0.61206406 0.72412443 nan
2.6869862 0.60730982 0.72412443 nan
2.6869755 0.60255551 0.72412443 -2.9283098e+38
2.6869645 0.59780121 0.72412443 -3.0219809e+38
2.6869535 0.59304702 0.72412443 -3.1146116e+38
2.6869426 0.58829272 0.72412443 -3.0879756e+38
2.668921 0.57883108 0.72784448 -3.0479446e+38
2.6689103 0.5741111 0.72784448 -2.9281082e+38
2.6688993 0.56939113 0.72784448 -2.8088953e+38
2.6688886 0.56467116 0.72784448 -2.8356898e+38
2.6688776 0.55995119 0.72784448 -2.8631576e+38
2.6688669 0.55523115 0.72784448 -3.0093733e+38
2.6688561 0.55051118 0.72784448 -3.1429729e+38
2.6688452 0.54579121 0.72784448 -3.3165535e+38
2.6868446 0.54550427 0.72412443 nan
2.6868336 0.54074997 0.72412443 nan
2.6868227 0.53599566 0.72412443 nan
2.668802 0.52691126 0.72784448 nan
2.6687911 0.52219129 0.72784448 nan
2.5502408 0.71845686 0.74794447 nan
2.5342181 0.70865172 0.75128162 nan
2.5342078 0.70418882 0.75128162 nan
2.5341978 0.69972599 0.75128162 nan
2.5181754 0.69004273 0.75461876 nan
2.5181651 0.68561041 0.75461876 nan
2.503144 0.67634094 0.75774729 nan
2.503134 0.67193717 0.75774729 nan
2.5031238 0.66753334 0.75774729 nan
2.5031137 0.66312957 0.75774729 nan
2.5031037 0.6587258 0.75774729 nan
2.5030935 0.65432197 0.75774729 -3.3826011e+38
2.5030835 0.64991814 0.75774729 -3.2091772e+38
2.5030735 0.64551437 0.75774729 -3.1428703e+38
2.5030632 0.6411106 0.75774729 -3.0763026e+38
2.5030532 0.63670677 0.75774729 -3.2892882e+38
2.5030432 0.632303 0.75774729 nan
2.5180433 0.63242191 0.75461876 nan
2.518033 0.62798953 0.75461876 nan
2.518023 0.62355715 0.75461876 nan
2.5180128 0.61912477 0.75461876 nan
2.5029926 0.61028397 0.75774729 nan
2.5029824 0.6058802 0.75774729 nan
2.5029724 0.60147637 0.75774729 nan
2.5029624 0.59707254 0.75774729 nan
2.517962 0.59696293 0.75461876 nan
2.7050743 0.64570838 0.71561587 nan
2.7050633 0.64091986 0.71561587 nan
2.7050524 0.63613129 0.71561587 nan
2.7050414 0.63134271 0.71561587 nan
2.7050304 0.62655413 0.71561587 nan
2.6870081 0.61681837 0.71937019 nan
2.6869972 0.61206406 0.71937019 nan
2.6869862 0.60730982 0.71937019 nan
2.6869755 0.60255551 0.71937019 -2.8088918e+38
2.6869645 0.59780121 0.71937019 -2.9684511e+38
2.6869535 0.59304702 0.71937019 -3.1280625e+38
2.6869426 0.58829272 0.71937019 -3.087978e+38
2.6869318 0.58353841 0.71937019 -3.0479464e+38
2.6869209 0.57878411 0.71937019 -2.981382e+38
2.6688993 0.56939113 0.72312444 -2.901419e+38
2.6688886 0.56467116 0.72312444 -2.9152287e+38
2.6688776 0.55995119 0.72312444 -2.9287298e+38
2.6688669 0.55523115 0.72312444 -2.9952442e+38
2.6688561 0.55051118 0.72312444 -3.0613444e+38
2.6688452 0.54579121 0.72312444 -3.0889694e+38
2.6868446 0.54550427 0.71937019 -3.1295786e+38
2.6868336 0.54074997 0.71937019 -3.3165585e+38
2.6868227 0.53599566 0.71937019 nan
2.668802 0.52691126 0.72312444 nan
2.6687911 0.52219129 0.72312444 nan
2.5502408 0.71845686 0.74345112 nan
2.5502305 0.71396357 0.74345112 nan
2.5342078 0.70418882 0.74681878 nan
2.5341978 0.69972599 0.74681878 nan
2.5181754 0.69004273 0.75018632 nan
2.5181651 0.68561041 0.75018632 nan
2.5181551 0.68117797 0.75018632 nan
2.503134 0.67193717 0.75334346 nan
2.5031238 0.66753334 0.75334346 nan
2.5031137 0.66312957 0.75334346 nan
2.5031037 0.6587258 0.75334346 -3.2104769e+38
2.5030935 0.65432197 0.75334346 -3.2225212e+38
2.5030835 0.64991814 0.75334346 -3.2228317e+38
2.5030735 0.64551437 0.75334346 -3.142921e+38
2.5030632 0.6411106 0.75334346 -3.0637401e+38
2.5030532 0.63670677 0.75334346 nan
2.5030432 0.632303 0.75334346 nan
2.5180433 0.63242191 0.75018632 nan
2.518033 0.62798953 0.75018632 nan
2.518023 0.62355715 0.75018632 nan
2.5030026 0.6146878 0.75334346 nan
2.5029926 0.61028397 0.75334346 nan
2.5029824 0.6058802 0.75334346 nan
2.5029724 0.60147637 0.75334346 nan
2.5029624 0.59707254 0.75334346 nan
2.517962 0.59696293 0.75018632 nan
2.7050743 0.64570838 0.71082729 nan
2.7050633 0.64091986 0.71082729 nan
2.7050524 0.63613129 0.71082729 nan
2.7050414 0.63134271 0.71082729 nan
2.7050304 0.62655413 0.71082729 nan
2.6870081 0.61681837 0.71461588 nan
2.6869972 0.61206406 0.71461588 nan
2.6869862 0.60730982 0.71461588 nan
2.6869755 0.60255551 0.71461588 -2.6887417e+38
2.6869645 0.59780121 0.71461588 -2.9148658e+38
2.6869535 0.59304702 0.71461588 -3.1278025e+38
2.6869426 0.58829272 0.71461588 -3.0879263e+38
2.6869318 0.58353841 0.71461588 -3.0480498e+38
2.6869209 0.57878411 0.71461588 -3.0214657e+38
2.6688993 0.56939113 0.71840447 -2.9948284e+38
2.6688886 0.56467116 0.71840447 -2.9949836e+38
2.6688776 0.55995119 0.71840447 -2.9817957e+38
2.6688669 0.55523115 0.71840447 -2.9815367e+38
2.6868663 0.55501276 0.71461588 -2.968454e+38
2.6868556 0.55025846 0.71461588 -2.8617541e+38
2.6868446 0.54550427 0.71461588 -2.7559894e+38
2.6868336 0.54074997 0.71461588 -2.8616032e+38
2.6868227 0.53599566 0.71461588 -2.9700715e+38
2.668802 0.52691126 0.71840447 -3.3167624e+38
2.6687911 0.52219129 0.71840447 nan
2.6507704 0.51320964 0.722193 nan
2.6507597 0.50852394 0.722193 nan
2.5502408 0.71845686 0.73895776 nan
2.5502305 0.71396357 0.73895776 nan
2.5342078 0.70418882 0.74235588 nan
2.5341978 0.69972599 0.74235588 nan
2.5181754 0.69004273 0.745754 nan
2.5181651 0.68561041 0.745754 nan
2.503144 0.67634094 0.74893969 nan
2.503134 0.67193717 0.74893969 nan
2.5031238 0.66753334 0.74893969 nan
2.5031137 0.66312957 0.74893969 nan
2.5031037 0.6587258 0.74893969 -3.3962031e+38
2.5030935 0.65432197 0.74893969 nan
2.5030835 0.64991814 0.74893969 nan
2.5030735 0.64551437 0.74893969 -3.396252e+38
2.5030632 0.6411106 0.74893969 -3.303108e+38
2.5180635 0.64128667 0.745754 nan
2.5030432 0.632303 0.74893969 nan
2.5180433 0.63242191 0.745754 nan
2.518033 0.62798953 0.745754 nan
2.518023 0.62355715 0.745754 nan
2.5180128 0.61912477 0.745754 nan
2.5180025 0.61469245 0.745754 nan
2.5179925 0.61026007 0.745754 nan
2.5179822 0.60582769 0.745754 nan
2.5179722 0.60139531 0.745754 nan
2.517962 0.59696293 0.745754 nan
2.6870625 0.64058971 0.70986158 nan
2.7050633 0.64091986 0.70603871 nan
2.7050524 0.63613129 0.70603871 nan
2.7050414 0.63134271 0.70603871 nan
2.7050304 0.62655413 0.70603871 nan
2.6870081 0.61681837 0.70986158 nan
2.6869972 0.61206406 0.70986158 nan
2.6869862 0.60730982 0.70986158 nan
2.6869755 0.60255551 0.70986158 -2.9143466e+38
2.6869645 0.59780121 0.70986158 -2.9945666e+38
2.6869535 0.59304702 0.70986158 -3.0745291e+38
2.6869426 0.58829272 0.70986158 -3.0481535e+38
2.6869318 0.58353841 0.70986158 -3.0216209e+38
2.6869209 0.57878411 0.70986158 -3.0082764e+38
2.6688993 0.56939113 0.71368444 -3.0082766e+38
2.6688886 0.56467116 0.71368444 -3.0084326e+38
2.6688776 0.55995119 0.71368444 -3.0086405e+38
2.6688669 0.55523115 0.71368444 -3.0087446e+38
2.6868663 0.55501276 0.70986158 -2.9958172e+38
2.6868556 0.55025846 0.70986158 -2.9422341e+38
2.6868446 0.54550427 0.70986158 -2.8887011e+38
2.6868336 0.54074997 0.70986158 -2.9686099e+38
2.6868227 0.53599566 0.70986158 -3.048208e+38
2.6868119 0.53124142 0.70986158 -3.2089616e+38
2.6687911 0.52219129 0.71368444 -3.3820253e+38
2.6687803 0.51747125 0.71368444 nan
2.6507597 0.50852394 0.7175073 nan
2.6507487 0.5038383 0.7175073 nan
2.5502305 0.71396357 0.73446447 nan
2.5342078 0.70418882 0.73789304 nan
2.5341978 0.69972599 0.73789304 nan
2.5181754 0.69004273 0.74132156 nan
2.5181651 0.68561041 0.74132156 nan
2.5181551 0.68117797 0.74132156 nan
2.503134 0.67193717 0.74453592 nan
2.5031238 0.66753334 0.74453592 -3.2911173e+38
2.5031137 0.66312957 0.74453592 nan
2.5031037 0.6587258 0.74453592 nan
2.5030935 0.65432197 0.74453592 nan
2.5030835 0.64991814 0.74453592 nan
2.5030735 0.64551437 0.74453592 nan
2.5030632 0.6411106 0.74453592 nan
2.5180635 0.64128667 0.74132156 nan
2.5180535 0.63685429 0.74132156 nan
2.5340545 0.63724619 0.73789304 -3.3017511e+38
2.5340443 0.63278329 0.73789304 -3.1956202e+38
2.518023 0.62355715 0.74132156 -3.1816527e+38
2.5180128 0.61912477 0.74132156 -3.1687762e+38
2.5180025 0.61469245 0.74132156 -3.1945825e+38
2.5179925 0.61026007 0.74132156 -3.2225203e+38
2.5179822 0.60582769 0.74132156 -3.3293291e+38
2.5179722 0.60139531 0.74132156 nan
2.517962 0.59696293 0.74132156 nan
2.6870625 0.64058971 0.70510733 nan
2.7050633 0.64091986 0.70125014 nan
2.7050524 0.63613129 0.70125014 nan
2.7050414 0.63134271 0.70125014 nan
2.7050304 0.62655413 0.70125014 nan
2.6870081 0.61681837 0.70510733 nan
2.6869972 0.61206406 0.70510733 nan
2.6869862 0.60730982 0.70510733 -3.3818111e+38
2.6869755 0.60255551 0.70510733 -3.1284785e+38
2.6869645 0.59780121 0.70510733 -3.0745302e+38
2.6869535 0.59304702 0.70510733 -3.0082766e+38
2.6869426 0.58829272 0.70510733 -3.0084847e+38
2.6869318 0.58353841 0.70510733 -2.9951403e+38
2.6689103 0.5741111 0.70896447 -3.0083805e+38
2.6688993 0.56939113 0.70896447 -3.0084326e+38
2.6868992 0.56927562 0.70510733 -3.0218809e+38
2.6688776 0.55995119 0.70896447 -3.0353291e+38
2.6868773 0.55976707 0.70510733 -3.0356926e+38
2.6868663 0.55501276 0.70510733 -3.0224011e+38
2.6868556 0.55025846 0.70510733 -3.0226096e+38
2.6868446 0.54550427 0.70510733 -3.0224545e+38
2.6868336 0.54074997 0.70510733 -3.0758838e+38
2.6868227 0.53599566 0.70510733 -3.1154501e+38
2.6868119 0.53124142 0.70510733 -3.1153473e+38
2.686801 0.52648717 0.70510733 -3.1161797e+38
2.6687803 0.51747125 0.70896447 -3.3160849e+38
2.6687696 0.51275128 0.70896447 nan
2.6507487 0.5038383 0.7128216 nan
2.650738 0.49915263 0.7128216 nan
2.5342181 0.70865172 0.73343015 nan
2.5342078 0.70418882 0.73343015 nan
2.5341978 0.69972599 0.73343015 nan
2.5181754 0.69004273 0.73688924 nan
2.5181651 0.68561041 0.73688924 nan
2.5181551 0.68117797 0.73688924 nan
2.503134 0.67193717 0.74013209 nan
2.5031238 0.66753334 0.74013209 nan
2.5181246 0.66788083 0.73688924 nan
2.5031037 0.6587258 0.74013209 -3.2763132e+38
2.5030935 0.65432197 0.74013209 -3.3293792e+38
2.5180941 0.65458375 0.73688924 -3.3831159e+38
2.5180838 0.65015137 0.73688924 -3.2760988e+38
2.5180738 0.64571899 0.73688924 -3.1827924e+38
2.5180635 0.64128667 0.73688924 -3.2756818e+38
2.5180535 0.63685429 0.73688924 -3.368361e+38
2.5180433 0.63242191 0.73688924 -3.3281173e+38
2.518033 0.62798953 0.73688924 -3.2872555e+38
2.518023 0.62355715 0.73688924 -3.2878283e+38
2.5180128 0.61912477 0.73688924 -3.2740679e+38
2.5180025 0.61469245 0.73688924 -3.3011187e+38
2.5179925 0.61026007 0.73688924 -3.3140534e+38
2.533993 0.6104691 0.73343015 -3.3150459e+38
2.5499935 0.61061716 0.72997111 -3.3151501e+38
2.6690617 0.64019096 0.70424443 nan
2.6870625 0.64058971 0.70035303 nan
2.7050633 0.64091986 0.69646162 nan
2.7050524 0.63613129 0.69646162 nan
2.7050414 0.63134271 0.69646162 nan
2.7050304 0.62655413 0.69646162 nan
2.6870081 0.61681837 0.70035303 nan
2.6869972 0.61206406 0.70035303 nan
2.6869862 0.60730982 0.70035303 nan
2.6869755 0.60255551 0.70035303 -3.315974e+38
2.6869645 0.59780121 0.70035303 -3.1951494e+38
2.6869535 0.59304702 0.70035303 -3.0882394e+38
2.6869426 0.58829272 0.70035303 -3.0484656e+38
2.6869318 0.58353841 0.70035303 -3.021777e+38
2.6869209 0.57878411 0.70035303 -3.0217766e+38
2.6869099 0.57402986 0.70035303 -3.0217251e+38
2.6868992 0.56927562 0.70035303 -3.0351214e+38
2.6868882 0.56452131 0.70035303 -3.0485695e+38
2.6868773 0.55976707 0.70035303 -3.0620175e+38
2.6868663 0.55501276 0.70035303 -3.0754139e+38
2.6868556 0.55025846 0.70035303 -3.0757256e+38
2.6868446 0.54550427 0.70035303 -3.0893832e+38
2.6868336 0.54074997 0.70035303 -3.1291059e+38
2.6868227 0.53599566 0.70035303 -3.1690884e+38
2.6868119 0.53124142 0.70035303 -3.2092786e+38
2.686801 0.52648717 0.70035303 -3.2626546e+38
2.6687803 0.51747125 0.70424443 -3.3828554e+38
2.6687696 0.51275128 0.70424443 nan
2.6687586 0.50803125 0.70424443 nan
2.6687479 0.50331134 0.70424443 nan
2.5182059 0.70333987 0.7324568 nan
2.5181956 0.69890749 0.7324568 nan
2.5181856 0.69447511 0.7324568 nan
2.5181754 0.69004273 0.7324568 nan
2.5181651 0.68561041 0.7324568 nan
2.5181551 0.68117797 0.7324568 nan
2.503134 0.67193717 0.73572826 nan
2.5031238 0.66753334 0.73572826 nan
2.5181246 0.66788083 0.7324568 nan
2.5031037 0.6587258 0.73572826 -2.9555292e+38
2.5181043 0.65901613 0.7324568 -2.9949375e+38
2.5180941 0.65458375 0.7324568 -3.022508e+38
2.5180838 0.65015137 0.7324568 -2.9287864e+38
2.5180738 0.64571899 0.7324568 -2.8234341e+38
2.5180635 0.64128667 0.7324568 -3.0765582e+38
2.5180535 0.63685429 0.7324568 -3.3287975e+38
2.5180433 0.63242191 0.7324568 -3.355172e+38
2.518033 0.62798953 0.7324568 -3.3815497e+38
2.518023 0.62355715 0.7324568 -3.3818101e+38
2.5180128 0.61912477 0.7324568 -3.3815501e+38
2.5340135 0.61939472 0.72896731 -3.3951018e+38
2.5340033 0.61493194 0.72896731 nan
2.533993 0.6104691 0.72896731 -3.3016479e+38
2.5339828 0.60600621 0.72896731 -3.1956729e+38
2.6690617 0.64019096 0.69952446 -3.3031016e+38
2.6870625 0.64058971 0.69559872 -3.396412e+38
2.7050633 0.64091986 0.69167304 nan
2.7050524 0.63613129 0.69167304 nan
2.6870298 0.62632686 0.69559872 nan
2.7050304 0.62655413 0.69167304 nan
2.6870081 0.61681837 0.69559872 nan
2.6869972 0.61206406 0.69559872 nan
2.6869862 0.60730982 0.69559872 nan
2.6869755 0.60255551 0.69559872 nan
2.6869645 0.59780121 0.69559872 -3.3284886e+38
2.6869535 0.59304702 0.69559872 -3.1551168e+38
2.6869426 0.58829272 0.69559872 -3.1019988e+38
2.6869318 0.58353841 0.69559872 -3.0485178e+38
2.6869209 0.57878411 0.69559872 -3.0351732e+38
2.6869099 0.57402986 0.69559872 -3.0217772e+38
2.6868992 0.56927562 0.69559872 -3.0483101e+38
2.6868882 0.56452131 0.69559872 -3.0617583e+38
2.6868773 0.55976707 0.69559872 -3.088395e+38
2.6868663 0.55501276 0.69559872 -3.1152915e+38
2.6868556 0.55025846 0.69559872 -3.1287919e+38
2.6868446 0.54550427 0.69559872 -3.1422414e+38
2.6868336 0.54074997 0.69559872 -3.1821196e+38
2.6868227 0.53599566 0.69559872 -3.2092246e+38
2.6868119 0.53124142 0.69559872 -3.3164987e+38
2.686801 0.52648717 0.69559872 nan
2.68679 0.52173287 0.69559872 nan
2.6867793 0.51697862 0.69559872 nan
2.6687586 0.50803125 0.69952446 nan
2.6687479 0.50331134 0.69952446 nan
2.6687369 0.49859133 0.69952446 nan
2.5342181 0.70865172 0.72450447 nan
2.5342078 0.70418882 0.72450447 nan
2.5341978 0.69972599 0.72450447 nan
2.5181754 0.69004273 0.72802442 nan
2.5181651 0.68561041 0.72802442 nan
2.5181551 0.68117797 0.72802442 nan
2.503134 0.67193717 0.73132443 nan
2.5181348 0.67231321 0.72802442 nan
2.5181246 0.66788083 0.72802442 nan
2.5181143 0.66344851 0.72802442 -2.9817464e+38
2.5181043 0.65901613 0.72802442 -3.0753082e+38
2.5180941 0.65458375 0.72802442 -3.155376e+38
2.5180838 0.65015137 0.72802442 -3.0623844e+38
2.5180738 0.64571899 0.72802442 -2.9828902e+38
2.5180635 0.64128667 0.72802442 -3.2359106e+38
2.5180535 0.63685429 0.72802442 nan
2.5180433 0.63242191 0.72802442 nan
2.518033 0.62798953 0.72802442 nan
2.534034 0.62832046 0.72450447 nan
2.5340238 0.62385762 0.72450447 nan
2.5340135 0.61939472 0.72450447 nan
2.5340033 0.61493194 0.72450447 nan
2.533993 0.6104691 0.72450447 -3.3948995e+38
2.5499935 0.61061716 0.72098446 -3.3546588e+38
2.6690617 0.64019096 0.69480443 nan
2.6870625 0.64058971 0.69084448 nan
2.6870518 0.63583547 0.69084448 nan
2.6870408 0.63108116 0.69084448 nan
2.6870298 0.62632686 0.69084448 nan
2.6870189 0.62157261 0.69084448 nan
2.6870081 0.61681837 0.69084448 nan
2.6869972 0.61206406 0.69084448 nan
2.6869862 0.60730982 0.69084448 nan
2.6869755 0.60255551 0.69084448 nan
2.6869645 0.59780121 0.69084448 -3.3021126e+38
2.6869535 0.59304702 0.69084448 -3.1814945e+38
2.6869426 0.58829272 0.69084448 -3.115084e+38
2.6869318 0.58353841 0.69084448 -3.0483624e+38
2.6869209 0.57878411 0.69084448 -3.0217772e+38
2.6869099 0.57402986 0.69084448 -3.0084332e+38
2.6868992 0.56927562 0.69084448 -3.0217255e+38
2.6868882 0.56452131 0.69084448 -3.0484145e+38
2.6868773 0.55976707 0.69084448 -3.0752072e+38
2.6868663 0.55501276 0.69084448 -3.1153442e+38
2.6868556 0.55025846 0.69084448 -3.1420333e+38
2.6868446 0.54550427 0.69084448 -3.168671e+38
2.6868336 0.54074997 0.69084448 -3.2087046e+38
2.6868227 0.53599566 0.69084448 -3.2488416e+38
2.6868119 0.53124142 0.69084448 -3.3155113e+38
2.686801 0.52648717 0.69084448 -3.3816596e+38
2.6687803 0.51747125 0.69480443 nan
2.6687696 0.51275128 0.69480443 nan
2.6687586 0.50803125 0.69480443 nan
2.6687479 0.50331134 0.69480443 nan
2.6507273 0.49446687 0.69876444 nan
2.6166987 0.48205534 0.70624447 nan
2.5342078 0.70418882 0.72004157 nan
2.5341978 0.69972599 0.72004157 nan
2.5181754 0.69004273 0.72359204 nan
2.5181651 0.68561041 0.72359204 nan
2.5181551 0.68117797 0.72359204 nan
2.5181448 0.67674559 0.72359204 nan
2.5181348 0.67231321 0.72359204 nan
2.5181246 0.66788083 0.72359204 nan
2.5181143 0.66344851 0.72359204 -3.0090604e+38
2.5181043 0.65901613 0.72359204 -3.1558955e+38
2.5180941 0.65458375 0.72359204 -3.288612e+38
2.5180838 0.65015137 0.72359204 -3.2089638e+38
2.5180738 0.64571899 0.72359204 -3.1292618e+38
2.5180635 0.64128667 0.72359204 -3.3822823e+38
2.5180535 0.63685429 0.72359204 nan
2.5180433 0.63242191 0.72359204 nan
2.518033 0.62798953 0.72359204 nan
2.534034 0.62832046 0.72004157 nan
2.5340238 0.62385762 0.72004157 nan
2.5340135 0.61939472 0.72004157 nan
2.5340033 0.61493194 0.72004157 nan
2.5500038 0.61511052 0.7164911 nan
2.5499935 0.61061716 0.7164911 nan
2.6690617 0.64019096 0.69008446 nan
2.6870625 0.64058971 0.68609017 nan
2.6870518 0.63583547 0.68609017 nan
2.6870408 0.63108116 0.68609017 nan
2.6870298 0.62632686 0.68609017 nan
2.6870189 0.62157261 0.68609017 nan
2.6870081 0.61681837 0.68609017 nan
2.6869972 0.61206406 0.68609017 -3.369362e+38
2.6869862 0.60730982 0.68609017 -3.3686291e+38
2.6869755 0.60255551 0.68609017 -3.3555951e+38
2.6869645 0.59780121 0.68609017 -3.2750611e+38
2.6869535 0.59304702 0.68609017 -3.194943e+38
2.6869426 0.58829272 0.68609017 -3.1151885e+38
2.6869318 0.58353841 0.68609017 -3.0351746e+38
2.6869209 0.57878411 0.68609017 -3.0084858e+38
2.6869099 0.57402986 0.68609017 -2.9817974e+38
2.6868992 0.56927562 0.68609017 -3.0082261e+38
2.6868882 0.56452131 0.68609017 -3.0217782e+38
2.6868773 0.55976707 0.68609017 -3.0751553e+38
2.6868663 0.55501276 0.68609017 -3.1152919e+38
2.6868556 0.55025846 0.68609017 -3.155273e+38
2.6868446 0.54550427 0.68609017 -3.1819626e+38
2.6868336 0.54074997 0.68609017 -3.2351328e+38
2.6868227 0.53599566 0.68609017 -3.2751664e+38
2.6868119 0.53124142 0.68609017 -3.3149402e+38
2.686801 0.52648717 0.68609017 -3.3420961e+38
2.68679 0.52173287 0.68609017 nan
2.6867793 0.51697862 0.68609017 nan
2.6867683 0.51222432 0.68609017 nan
2.6687479 0.50331134 0.69008446 nan
2.6687369 0.49859133 0.69008446 nan
2.6337078 0.48591825 0.69785112 nan
2.5181956 0.69890749 0.71915966 nan
2.5181856 0.69447511 0.71915966 nan
2.5031643 0.6851486 0.72251683 nan
2.5181651 0.68561041 0.71915966 nan
2.5181551 0.68117797 0.71915966 nan
2.5181448 0.67674559 0.71915966 nan
2.5341465 0.67741174 0.71557873 nan
2.5181246 0.66788083 0.71915966 nan
2.5181143 0.66344851 0.71915966 -2.928842e+38
2.5181043 0.65901613 0.71915966 -3.0623329e+38
2.5180941 0.65458375 0.71915966 -3.1955679e+38
2.5180838 0.65015137 0.71915966 -3.1555878e+38
2.5180738 0.64571899 0.71915966 -3.1156588e+38
2.5180635 0.64128667 0.71915966 -3.2888736e+38
2.5180535 0.63685429 0.71915966 nan
2.5180433 0.63242191 0.71915966 nan
2.518033 0.62798953 0.71915966 nan
2.534034 0.62832046 0.71557873 nan
2.5340238 0.62385762 0.71557873 nan
2.5340135 0.61939472 0.71557873 nan
2.5340033 0.61493194 0.71557873 nan
2.5500038 0.61511052 0.71199781 nan
2.5499935 0.61061716 0.71199781 nan
2.6870735 0.64534396 0.68133587 nan
2.7050743 0.64570838 0.67730731 nan
2.6870518 0.63583547 0.68133587 nan
2.6870408 0.63108116 0.68133587 nan
2.6870298 0.62632686 0.68133587 nan
2.6870189 0.62157261 0.68133587 nan
2.6870081 0.61681837 0.68133587 nan
2.6869972 0.61206406 0.68133587 -3.2749636e+38
2.6869862 0.60730982 0.68133587 -3.302168e+38
2.6869755 0.60255551 0.68133587 -3.3419397e+38
2.6869645 0.59780121 0.68133587 -3.2481654e+38
2.6869535 0.59304702 0.68133587 -3.1681513e+38
2.6869426 0.58829272 0.68133587 -3.0751043e+38
2.6869318 0.58353841 0.68133587 -2.9818503e+38
2.6869209 0.57878411 0.68133587 -2.981798e+38
2.6869099 0.57402986 0.68133587 -2.9684538e+38
2.6868992 0.56927562 0.68133587 -2.99509e+38
