# .PCD v0.7 - Point Cloud Data file format
VERSION 0.7
FIELDS x y z rgb
SIZE 4 4 4 4
TYPE F F F F
COUNT 1 1 1 1
WIDTH 1338
HEIGHT 1
VIEWPOINT 0 0 0 1 0 0 0
POINTS 1338
DATA ascii
9.5411263 -5.7794042 2.4948101 -2.6360427e+38
9.729063 -5.8179059 2.5079646 -2.6750857e+38
9.7192116 -5.8285336 2.5079646 -2.7947161e+38
9.7093601 -5.8391609 2.5079646 -2.7813197e+38
9.589324 -5.7274127 2.4806314 -2.7546843e+38
9.5411263 -5.7794042 2.4806314 -2.6357837e+38
9.7389145 -5.8072786 2.4934731 -2.6216564e+38
9.729063 -5.8179059 2.4934731 -2.7015669e+38
9.7192116 -5.8285336 2.4934731 -2.7814759e+38
9.7093601 -5.8391609 2.4934731 -2.8076964e+38
9.6995077 -5.8497882 2.4934731 -2.8209384e+38
9.5796843 -5.7378111 2.4664521 -3.2347659e+38
9.5700455 -5.7482095 2.4664521 nan
9.5604057 -5.7586074 2.4664521 -3.3136875e+38
9.550766 -5.7690058 2.4664521 -2.980707e+38
9.5411263 -5.7794042 2.4664521 -2.7151224e+38
9.7389145 -5.8072786 2.4789817 -2.6879582e+38
9.844614 -5.9447885 2.5068302 -2.7279934e+38
9.7192116 -5.8285336 2.4789817 -2.7678187e+38
9.7093601 -5.8391609 2.4789817 -2.8338134e+38
9.589324 -5.7274127 2.4522731 -2.888752e+38
9.5796843 -5.7378111 2.4522731 nan
9.5604057 -5.7586074 2.4522731 nan
9.550766 -5.7690058 2.4522731 -3.1671587e+38
9.5411263 -5.7794042 2.4522731 -2.7949736e+38
9.8546867 -5.9339223 2.492013 -2.5418433e+38
9.844614 -5.9447885 2.492013 -2.7145949e+38
9.7192116 -5.8285336 2.4644904 -2.8742077e+38
9.7093601 -5.8391609 2.4644904 -3.1540741e+38
9.589324 -5.7274127 2.4380941 nan
9.5796843 -5.7378111 2.4380941 nan
9.5700455 -5.7482095 2.4380941 nan
9.5604057 -5.7586074 2.4380941 nan
9.550766 -5.7690058 2.4380941 -3.3660719e+38
9.5411263 -5.7794042 2.4380941 -2.8737343e+38
9.8546867 -5.9339223 2.477196 -2.394694e+38
9.844614 -5.9447885 2.477196 -2.6877515e+38
9.8345404 -5.9556546 2.477196 -2.9814317e+38
9.7093601 -5.8391609 2.4499989 nan
9.589324 -5.7274127 2.4239149 nan
9.5796843 -5.7378111 2.4239149 nan
9.5700455 -5.7482095 2.4239149 nan
9.5604057 -5.7586074 2.4239149 nan
9.550766 -5.7690058 2.4239149 nan
9.5411263 -5.7794042 2.4239149 -2.9528116e+38
9.9868584 -6.0561137 2.4906645 -3.2863635e+38
9.8546867 -5.9339223 2.462379 -2.7131382e+38
9.844614 -5.9447885 2.462379 -2.8472595e+38
9.7192116 -5.8285336 2.4355073 -2.9815905e+38
9.7093601 -5.8391609 2.4355073 -3.3553383e+38
9.589324 -5.7274127 2.4097362 nan
9.5796843 -5.7378111 2.4097362 nan
9.5700455 -5.7482095 2.4097362 nan
9.5604057 -5.7586074 2.4097362 nan
9.550766 -5.7690058 2.4097362 nan
9.9868584 -6.0561137 2.4755044 nan
9.976553 -6.0672312 2.4755044 -3.0204216e+38
9.844614 -5.9447885 2.4475617 -3.0064524e+38
9.8345404 -5.9556546 2.4475617 -2.981329e+38
9.7093601 -5.8391609 2.421016 -3.2218954e+38
9.589324 -5.7274127 2.3955569 nan
9.5796843 -5.7378111 2.3955569 nan
9.5700455 -5.7482095 2.3955569 nan
9.8647604 -5.9230556 2.4327445 nan
9.8546867 -5.9339223 2.4327445 nan
9.844614 -5.9447885 2.4327445 nan
9.8345404 -5.9556546 2.4327445 nan
9.7093601 -5.8391609 2.4065247 nan
9.6995077 -5.8497882 2.4065247 nan
9.6896553 -5.8604159 2.4065247 nan
9.6798038 -5.8710432 2.4065247 nan
9.6699524 -5.8816705 2.4065247 nan
9.8647604 -5.9230556 2.4179273 nan
9.8546867 -5.9339223 2.4179273 nan
9.844614 -5.9447885 2.4179273 nan
9.8345404 -5.9556546 2.4179273 nan
9.8244667 -5.9665208 2.4179273 nan
9.6995077 -5.8497882 2.3920331 nan
9.6896553 -5.8604159 2.3920331 nan
9.5700455 -5.7482095 2.3671989 nan
9.5604057 -5.7586074 2.3671989 nan
9.550766 -5.7690058 2.3671989 nan
10.017778 -6.0227604 2.4300246 nan
9.8647604 -5.9230556 2.4031103 nan
9.8546867 -5.9339223 2.4031103 nan
9.844614 -5.9447885 2.4031103 nan
9.8345404 -5.9556546 2.4031103 nan
9.8244667 -5.9665208 2.4031103 nan
9.6995077 -5.8497882 2.3775415 nan
9.5796843 -5.7378111 2.3530197 nan
9.5700455 -5.7482095 2.3530197 nan
9.5604057 -5.7586074 2.3530197 nan
9.550766 -5.7690058 2.3530197 nan
9.5411263 -5.7794042 2.3530197 nan
9.8949804 -5.8904572 2.3882933 nan
9.8849068 -5.9013233 2.3882933 nan
9.9971657 -6.0449958 2.4148645 nan
9.8647604 -5.9230556 2.3882933 nan
9.8546867 -5.9339223 2.3882933 nan
9.844614 -5.9447885 2.3882933 nan
9.8345404 -5.9556546 2.3882933 nan
9.8244667 -5.9665208 2.3882933 nan
9.6995077 -5.8497882 2.3630502 nan
9.5796843 -5.7378111 2.3388407 nan
9.5700455 -5.7482095 2.3388407 nan
9.5604057 -5.7586074 2.3388407 nan
9.550766 -5.7690058 2.3388407 nan
9.5411263 -5.7794042 2.3388407 nan
9.6403961 -5.9135528 2.3630502 nan
9.5218477 -5.8002009 2.3388407 nan
9.512208 -5.8105993 2.3388407 nan
9.9050541 -5.8795905 2.373476 nan
9.8949804 -5.8904572 2.373476 nan
9.8849068 -5.9013233 2.373476 nan
9.8748341 -5.9121895 2.373476 nan
9.8647604 -5.9230556 2.373476 nan
9.8546867 -5.9339223 2.373476 nan
9.844614 -5.9447885 2.373476 nan
9.8345404 -5.9556546 2.373476 nan
9.8244667 -5.9665208 2.373476 nan
9.814394 -5.9773874 2.373476 nan
9.6896553 -5.8604159 2.3485589 nan
9.6798038 -5.8710432 2.3485589 nan
9.6699524 -5.8816705 2.3485589 nan
9.6601 -5.8922982 2.3485589 nan
9.6502485 -5.9029255 2.3485589 nan
9.6403961 -5.9135528 2.3485589 nan
9.5218477 -5.8002009 2.3246617 nan
9.512208 -5.8105993 2.3246617 nan
9.5025682 -5.8209977 2.3246617 nan
9.9151268 -5.8687243 2.3586588 nan
9.9050541 -5.8795905 2.3586588 nan
9.8949804 -5.8904572 2.3586588 nan
9.8849068 -5.9013233 2.3586588 nan
9.8748341 -5.9121895 2.3586588 nan
9.8647604 -5.9230556 2.3586588 nan
9.8546867 -5.9339223 2.3586588 nan
9.844614 -5.9447885 2.3586588 nan
9.8345404 -5.9556546 2.3586588 nan
9.8244667 -5.9665208 2.3586588 nan
9.814394 -5.9773874 2.3586588 nan
9.6896553 -5.8604159 2.3340673 nan
9.6798038 -5.8710432 2.3340673 nan
9.6699524 -5.8816705 2.3340673 nan
9.6601 -5.8922982 2.3340673 nan
9.6502485 -5.9029255 2.3340673 nan
9.6403961 -5.9135528 2.3340673 nan
9.5218477 -5.8002009 2.3104825 nan
9.512208 -5.8105993 2.3104825 nan
9.5025682 -5.8209977 2.3104825 nan
9.4929295 -5.8313961 2.3104825 nan
9.9151268 -5.8687243 2.3438416 nan
9.9050541 -5.8795905 2.3438416 nan
9.7783222 -5.7647691 2.319576 nan
9.8849068 -5.9013233 2.3438416 nan
9.8748341 -5.9121895 2.3438416 nan
9.8647604 -5.9230556 2.3438416 nan
9.8546867 -5.9339223 2.3438416 nan
9.844614 -5.9447885 2.3438416 nan
9.8345404 -5.9556546 2.3438416 nan
9.8244667 -5.9665208 2.3438416 nan
9.814394 -5.9773874 2.3438416 nan
9.6896553 -5.8604159 2.319576 nan
9.6798038 -5.8710432 2.319576 nan
9.6699524 -5.8816705 2.319576 nan
9.6601 -5.8922982 2.319576 nan
9.6502485 -5.9029255 2.319576 nan
9.6403961 -5.9135528 2.319576 nan
9.5218477 -5.8002009 2.2963037 nan
9.512208 -5.8105993 2.2963037 nan
9.5025682 -5.8209977 2.2963037 nan
9.4929295 -5.8313961 2.2963037 nan
9.9151268 -5.8687243 2.3290246 nan
9.7881746 -5.7541413 2.3050847 nan
9.7783222 -5.7647691 2.3050847 nan
9.8849068 -5.9013233 2.3290246 nan
9.8748341 -5.9121895 2.3290246 nan
9.8647604 -5.9230556 2.3290246 nan
9.8546867 -5.9339223 2.3290246 nan
9.844614 -5.9447885 2.3290246 nan
9.8345404 -5.9556546 2.3290246 nan
9.8244667 -5.9665208 2.3290246 nan
9.6995077 -5.8497882 2.3050847 nan
9.6896553 -5.8604159 2.3050847 nan
9.6798038 -5.8710432 2.3050847 -3.3689427e+38
9.6699524 -5.8816705 2.3050847 nan
9.6601 -5.8922982 2.3050847 nan
9.6502485 -5.9029255 2.3050847 nan
9.6403961 -5.9135528 2.3050847 nan
9.5218477 -5.8002009 2.2821245 nan
9.512208 -5.8105993 2.2821245 nan
9.5025682 -5.8209977 2.2821245 nan
9.47365 -5.8521924 2.2821245 nan
9.9352741 -5.846992 2.3142076 nan
9.9252005 -5.8578582 2.3142076 nan
9.9151268 -5.8687243 2.3142076 nan
9.9050541 -5.8795905 2.3142076 nan
9.7783222 -5.7647691 2.2905931 nan
9.8849068 -5.9013233 2.3142076 nan
9.8748341 -5.9121895 2.3142076 nan
9.8647604 -5.9230556 2.3142076 nan
9.8546867 -5.9339223 2.3142076 nan
9.844614 -5.9447885 2.3142076 nan
9.8345404 -5.9556546 2.3142076 nan
9.8244667 -5.9665208 2.3142076 nan
9.814394 -5.9773874 2.3142076 nan
9.6896553 -5.8604159 2.2905931 nan
9.6798038 -5.8710432 2.2905931 nan
9.6699524 -5.8816705 2.2905931 nan
9.6601 -5.8922982 2.2905931 nan
9.6502485 -5.9029255 2.2905931 nan
9.6403961 -5.9135528 2.2905931 nan
9.5218477 -5.8002009 2.2679455 nan
9.512208 -5.8105993 2.2679455 nan
9.5025682 -5.8209977 2.2679455 nan
9.4929295 -5.8313961 2.2679455 nan
9.4832897 -5.8417945 2.2679455 nan
9.47365 -5.8521924 2.2679455 nan
9.8177299 -5.722259 2.2761016 nan
9.8078785 -5.7328868 2.2761016 nan
9.798027 -5.7435141 2.2761016 nan
9.9050541 -5.8795905 2.2993903 nan
9.7783222 -5.7647691 2.2761016 nan
9.8849068 -5.9013233 2.2993903 nan
9.8748341 -5.9121895 2.2993903 nan
9.8647604 -5.9230556 2.2993903 nan
9.8546867 -5.9339223 2.2993903 nan
9.844614 -5.9447885 2.2993903 nan
9.8345404 -5.9556546 2.2993903 nan
9.8244667 -5.9665208 2.2993903 nan
9.814394 -5.9773874 2.2993903 nan
9.6896553 -5.8604159 2.2761016 nan
9.6798038 -5.8710432 2.2761016 nan
9.6699524 -5.8816705 2.2761016 nan
9.6601 -5.8922982 2.2761016 nan
9.6502485 -5.9029255 2.2761016 nan
9.6403961 -5.9135528 2.2761016 nan
9.5218477 -5.8002009 2.2537665 nan
9.512208 -5.8105993 2.2537665 nan
9.5025682 -5.8209977 2.2537665 nan
9.4929295 -5.8313961 2.2537665 nan
9.5911369 -5.9666901 2.2761016 nan
9.47365 -5.8521924 2.2537665 nan
9.4640102 -5.8625908 2.2537665 nan
9.4543705 -5.8729892 2.2537665 nan
9.9453468 -5.8361254 2.2845731 nan
9.9352741 -5.846992 2.2845731 nan
9.9252005 -5.8578582 2.2845731 nan
9.9151268 -5.8687243 2.2845731 nan
9.9050541 -5.8795905 2.2845731 nan
9.8949804 -5.8904572 2.2845731 nan
9.8849068 -5.9013233 2.2845731 nan
9.8748341 -5.9121895 2.2845731 nan
9.8647604 -5.9230556 2.2845731 nan
9.8546867 -5.9339223 2.2845731 nan
9.844614 -5.9447885 2.2845731 nan
9.8345404 -5.9556546 2.2845731 nan
9.8244667 -5.9665208 2.2845731 nan
9.814394 -5.9773874 2.2845731 nan
9.8043213 -5.9882536 2.2845731 nan
9.6798038 -5.8710432 2.2616103 nan
9.6699524 -5.8816705 2.2616103 nan
9.6601 -5.8922982 2.2616103 nan
9.6502485 -5.9029255 2.2616103 nan
9.5314865 -5.7898026 2.2395873 nan
9.5218477 -5.8002009 2.2395873 nan
9.512208 -5.8105993 2.2395873 nan
9.5025682 -5.8209977 2.2395873 nan
9.4929295 -5.8313961 2.2395873 nan
9.4832897 -5.8417945 2.2395873 nan
9.47365 -5.8521924 2.2395873 nan
9.4640102 -5.8625908 2.2395873 nan
9.9654932 -5.814393 2.2697558 nan
9.9554195 -5.8252592 2.2697558 nan
9.9453468 -5.8361254 2.2697558 nan
9.9352741 -5.846992 2.2697558 nan
9.9252005 -5.8578582 2.2697558 nan
9.9151268 -5.8687243 2.2697558 nan
9.7881746 -5.7541413 2.2471189 nan
9.7783222 -5.7647691 2.2471189 nan
9.8849068 -5.9013233 2.2697558 nan
9.8748341 -5.9121895 2.2697558 nan
9.7487669 -5.7966514 2.2471189 nan
9.8546867 -5.9339223 2.2697558 nan
9.729063 -5.8179059 2.2471189 nan
9.8345404 -5.9556546 2.2697558 nan
9.8244667 -5.9665208 2.2697558 nan
9.6995077 -5.8497882 2.2471189 nan
9.6896553 -5.8604159 2.2471189 nan
9.6798038 -5.8710432 2.2471189 nan
9.6699524 -5.8816705 2.2471189 nan
9.550766 -5.7690058 2.2254083 nan
9.5411263 -5.7794042 2.2254083 nan
9.5314865 -5.7898026 2.2254083 nan
9.5218477 -5.8002009 2.2254083 nan
9.512208 -5.8105993 2.2254083 nan
9.5025682 -5.8209977 2.2254083 nan
9.4929295 -5.8313961 2.2254083 nan
9.4832897 -5.8417945 2.2254083 nan
9.47365 -5.8521924 2.2254083 nan
9.4640102 -5.8625908 2.2254083 nan
9.4543705 -5.8729892 2.2254083 nan
9.4447317 -5.8833876 2.2254083 nan
10.100229 -5.9338188 2.2784245 nan
9.9554195 -5.8252592 2.2549388 nan
9.9453468 -5.8361254 2.2549388 nan
9.9352741 -5.846992 2.2549388 nan
9.9252005 -5.8578582 2.2549388 nan
9.9151268 -5.8687243 2.2549388 nan
9.9050541 -5.8795905 2.2549388 nan
9.8949804 -5.8904572 2.2549388 nan
9.8849068 -5.9013233 2.2549388 nan
9.8748341 -5.9121895 2.2549388 nan
9.7487669 -5.7966514 2.2326274 nan
9.8546867 -5.9339223 2.2549388 nan
9.844614 -5.9447885 2.2549388 nan
9.8345404 -5.9556546 2.2549388 nan
9.8244667 -5.9665208 2.2549388 nan
9.6995077 -5.8497882 2.2326274 nan
9.6896553 -5.8604159 2.2326274 nan
9.6798038 -5.8710432 2.2326274 nan
9.5604057 -5.7586074 2.2112293 nan
9.550766 -5.7690058 2.2112293 nan
9.5411263 -5.7794042 2.2112293 nan
9.5314865 -5.7898026 2.2112293 nan
9.5218477 -5.8002009 2.2112293 nan
9.512208 -5.8105993 2.2112293 nan
9.5025682 -5.8209977 2.2112293 nan
9.4929295 -5.8313961 2.2112293 nan
9.4832897 -5.8417945 2.2112293 nan
9.47365 -5.8521924 2.2112293 nan
9.4640102 -5.8625908 2.2112293 nan
9.4543705 -5.8729892 2.2112293 nan
9.4447317 -5.8833876 2.2112293 nan
9.435092 -5.893786 2.2112293 nan
10.110536 -5.9227009 2.2632647 nan
10.100229 -5.9338188 2.2632647 nan
10.089923 -5.9449363 2.2632647 nan
9.9554195 -5.8252592 2.2401218 nan
9.9453468 -5.8361254 2.2401218 nan
9.9352741 -5.846992 2.2401218 nan
9.9252005 -5.8578582 2.2401218 nan
9.9151268 -5.8687243 2.2401218 nan
9.9050541 -5.8795905 2.2401218 nan
9.7783222 -5.7647691 2.2181358 nan
9.7684708 -5.7753963 2.2181358 nan
9.7586193 -5.7860236 2.2181358 nan
9.7487669 -5.7966514 2.2181358 nan
9.8546867 -5.9339223 2.2401218 nan
9.729063 -5.8179059 2.2181358 nan
9.8345404 -5.9556546 2.2401218 nan
9.7093601 -5.8391609 2.2181358 nan
9.6995077 -5.8497882 2.2181358 nan
9.6896553 -5.8604159 2.2181358 nan
9.6798038 -5.8710432 2.2181358 nan
9.5604057 -5.7586074 2.1970503 nan
9.550766 -5.7690058 2.1970503 nan
9.5411263 -5.7794042 2.1970503 nan
9.5314865 -5.7898026 2.1970503 nan
9.5218477 -5.8002009 2.1970503 nan
9.512208 -5.8105993 2.1970503 nan
9.4929295 -5.8313961 2.1970503 nan
9.4832897 -5.8417945 2.1970503 nan
9.47365 -5.8521924 2.1970503 nan
9.4640102 -5.8625908 2.1970503 nan
9.435092 -5.893786 2.1970503 nan
10.110536 -5.9227009 2.2481046 nan
10.100229 -5.9338188 2.2481046 nan
10.089923 -5.9449363 2.2481046 nan
9.9554195 -5.8252592 2.2253046 nan
10.06931 -5.9671717 2.2481046 nan
9.9352741 -5.846992 2.2253046 nan
9.9252005 -5.8578582 2.2253046 nan
9.9151268 -5.8687243 2.2253046 nan
9.9050541 -5.8795905 2.2253046 nan
9.7783222 -5.7647691 2.2036445 nan
9.7684708 -5.7753963 2.2036445 nan
9.7586193 -5.7860236 2.2036445 nan
9.7487669 -5.7966514 2.2036445 nan
9.7389145 -5.8072786 2.2036445 nan
9.729063 -5.8179059 2.2036445 nan
9.8345404 -5.9556546 2.2253046 nan
9.7093601 -5.8391609 2.2036445 nan
9.6995077 -5.8497882 2.2036445 nan
9.6896553 -5.8604159 2.2036445 nan
9.6798038 -5.8710432 2.2036445 nan
9.5604057 -5.7586074 2.1828713 nan
9.6601 -5.8922982 2.2036445 nan
9.5411263 -5.7794042 2.1828713 nan
9.5314865 -5.7898026 2.1828713 nan
9.5218477 -5.8002009 2.1828713 nan
9.512208 -5.8105993 2.1828713 nan
9.5025682 -5.8209977 2.1828713 nan
9.4929295 -5.8313961 2.1828713 nan
9.4832897 -5.8417945 2.1828713 nan
9.47365 -5.8521924 2.1828713 nan
9.4640102 -5.8625908 2.1828713 nan
9.4447317 -5.8833876 2.1828713 nan
9.435092 -5.893786 2.1828713 nan
10.110536 -5.9227009 2.2329445 nan
10.100229 -5.9338188 2.2329445 nan
10.089923 -5.9449363 2.2329445 nan
9.9554195 -5.8252592 2.2104874 nan
10.06931 -5.9671717 2.2329445 nan
9.9352741 -5.846992 2.2104874 nan
9.9252005 -5.8578582 2.2104874 nan
9.9151268 -5.8687243 2.2104874 nan
9.9050541 -5.8795905 2.2104874 nan
9.7783222 -5.7647691 2.1891532 nan
9.7684708 -5.7753963 2.1891532 nan
9.7586193 -5.7860236 2.1891532 nan
9.7487669 -5.7966514 2.1891532 nan
9.7389145 -5.8072786 2.1891532 nan
9.729063 -5.8179059 2.1891532 nan
9.7192116 -5.8285336 2.1891532 nan
9.7093601 -5.8391609 2.1891532 nan
9.6995077 -5.8497882 2.1891532 nan
9.6896553 -5.8604159 2.1891532 nan
9.6798038 -5.8710432 2.1891532 nan
9.5604057 -5.7586074 2.1686921 nan
9.550766 -5.7690058 2.1686921 nan
9.5411263 -5.7794042 2.1686921 nan
9.5314865 -5.7898026 2.1686921 nan
9.5218477 -5.8002009 2.1686921 nan
9.512208 -5.8105993 2.1686921 nan
9.5025682 -5.8209977 2.1686921 nan
9.4929295 -5.8313961 2.1686921 nan
9.4832897 -5.8417945 2.1686921 nan
9.47365 -5.8521924 2.1686921 nan
9.4640102 -5.8625908 2.1686921 nan
9.4543705 -5.8729892 2.1686921 nan
9.4447317 -5.8833876 2.1686921 nan
9.435092 -5.893786 2.1686921 nan
9.5320263 -6.0304546 2.1891532 nan
10.110536 -5.9227009 2.2177844 nan
10.100229 -5.9338188 2.2177844 nan
10.089923 -5.9449363 2.2177844 nan
10.079617 -5.9560542 2.2177844 nan
10.06931 -5.9671717 2.2177844 nan
9.9352741 -5.846992 2.1956701 nan
9.9252005 -5.8578582 2.1956701 nan
9.9151268 -5.8687243 2.1956701 nan
9.9050541 -5.8795905 2.1956701 nan
9.7783222 -5.7647691 2.1746616 nan
9.7684708 -5.7753963 2.1746616 nan
9.7586193 -5.7860236 2.1746616 nan
9.7487669 -5.7966514 2.1746616 nan
9.7389145 -5.8072786 2.1746616 nan
9.729063 -5.8179059 2.1746616 nan
9.8345404 -5.9556546 2.1956701 nan
9.7093601 -5.8391609 2.1746616 nan
9.6995077 -5.8497882 2.1746616 nan
9.6896553 -5.8604159 2.1746616 nan
9.5700455 -5.7482095 2.1545131 nan
9.6699524 -5.8816705 2.1746616 nan
9.550766 -5.7690058 2.1545131 nan
9.5411263 -5.7794042 2.1545131 nan
9.5314865 -5.7898026 2.1545131 nan
9.5218477 -5.8002009 2.1545131 nan
9.512208 -5.8105993 2.1545131 nan
9.5025682 -5.8209977 2.1545131 nan
9.4929295 -5.8313961 2.1545131 nan
9.4832897 -5.8417945 2.1545131 nan
9.47365 -5.8521924 2.1545131 nan
9.4640102 -5.8625908 2.1545131 nan
9.4543705 -5.8729892 2.1545131 nan
9.5517292 -6.0091996 2.1746616 nan
9.5418777 -6.0198274 2.1746616 nan
9.5320263 -6.0304546 2.1746616 nan
10.100229 -5.9338188 2.2026246 nan
10.089923 -5.9449363 2.2026246 nan
10.079617 -5.9560542 2.2026246 nan
10.06931 -5.9671717 2.2026246 nan
10.059004 -5.9782896 2.2026246 nan
9.9252005 -5.8578582 2.1808531 nan
9.9151268 -5.8687243 2.1808531 nan
9.9050541 -5.8795905 2.1808531 nan
9.8949804 -5.8904572 2.1808531 nan
9.8849068 -5.9013233 2.1808531 nan
9.8748341 -5.9121895 2.1808531 nan
9.8647604 -5.9230556 2.1808531 nan
9.7389145 -5.8072786 2.1601703 nan
9.729063 -5.8179059 2.1601703 nan
9.8345404 -5.9556546 2.1808531 nan
9.7093601 -5.8391609 2.1601703 nan
9.6995077 -5.8497882 2.1601703 nan
9.6896553 -5.8604159 2.1601703 nan
9.6798038 -5.8710432 2.1601703 nan
9.6699524 -5.8816705 2.1601703 nan
9.6601 -5.8922982 2.1601703 nan
9.6502485 -5.9029255 2.1601703 nan
9.6403961 -5.9135528 2.1601703 nan
9.6305447 -5.9241805 2.1601703 nan
9.512208 -5.8105993 2.1403341 nan
9.5025682 -5.8209977 2.1403341 nan
9.4929295 -5.8313961 2.1403341 nan
9.4832897 -5.8417945 2.1403341 nan
9.47365 -5.8521924 2.1403341 nan
9.4640102 -5.8625908 2.1403341 nan
9.4543705 -5.8729892 2.1403341 nan
9.5517292 -6.0091996 2.1601703 nan
9.5418777 -6.0198274 2.1601703 nan
10.110536 -5.9227009 2.1874645 nan
10.100229 -5.9338188 2.1874645 nan
10.089923 -5.9449363 2.1874645 nan
10.079617 -5.9560542 2.1874645 nan
10.06931 -5.9671717 2.1874645 nan
10.059004 -5.9782896 2.1874645 nan
9.9252005 -5.8578582 2.1660359 nan
9.9151268 -5.8687243 2.1660359 nan
9.9050541 -5.8795905 2.1660359 nan
9.8949804 -5.8904572 2.1660359 nan
9.8849068 -5.9013233 2.1660359 nan
9.8748341 -5.9121895 2.1660359 nan
9.8647604 -5.9230556 2.1660359 nan
9.8546867 -5.9339223 2.1660359 nan
9.844614 -5.9447885 2.1660359 nan
9.8345404 -5.9556546 2.1660359 nan
9.7093601 -5.8391609 2.1456788 nan
9.6995077 -5.8497882 2.1456788 nan
9.6896553 -5.8604159 2.1456788 nan
9.6798038 -5.8710432 2.1456788 nan
9.6699524 -5.8816705 2.1456788 nan
9.6601 -5.8922982 2.1456788 nan
9.6502485 -5.9029255 2.1456788 nan
9.6403961 -5.9135528 2.1456788 nan
9.6305447 -5.9241805 2.1456788 nan
9.6206932 -5.9348078 2.1456788 nan
9.5025682 -5.8209977 2.1261549 nan
9.4929295 -5.8313961 2.1261549 nan
9.5911369 -5.9666901 2.1456788 nan
9.5812855 -5.9773173 2.1456788 nan
9.4640102 -5.8625908 2.1261549 nan
9.4543705 -5.8729892 2.1261549 nan
9.5517292 -6.0091996 2.1456788 nan
9.6532211 -6.151248 2.1660359 nan
10.110536 -5.9227009 2.1723046 nan
10.100229 -5.9338188 2.1723046 nan
10.089923 -5.9449363 2.1723046 nan
10.079617 -5.9560542 2.1723046 nan
10.06931 -5.9671717 2.1723046 nan
9.9352741 -5.846992 2.1512189 nan
9.9252005 -5.8578582 2.1512189 nan
9.9151268 -5.8687243 2.1512189 nan
9.9050541 -5.8795905 2.1512189 nan
9.7783222 -5.7647691 2.1311874 nan
9.7684708 -5.7753963 2.1311874 nan
9.8748341 -5.9121895 2.1512189 nan
9.8647604 -5.9230556 2.1512189 nan
9.8546867 -5.9339223 2.1512189 nan
9.844614 -5.9447885 2.1512189 nan
9.7192116 -5.8285336 2.1311874 nan
9.7093601 -5.8391609 2.1311874 nan
9.6995077 -5.8497882 2.1311874 nan
9.6896553 -5.8604159 2.1311874 nan
9.6798038 -5.8710432 2.1311874 nan
9.6699524 -5.8816705 2.1311874 nan
9.6601 -5.8922982 2.1311874 nan
9.6502485 -5.9029255 2.1311874 nan
9.6403961 -5.9135528 2.1311874 nan
9.6305447 -5.9241805 2.1311874 nan
9.6206932 -5.9348078 2.1311874 nan
9.5025682 -5.8209977 2.1119759 nan
9.4929295 -5.8313961 2.1119759 nan
9.5911369 -5.9666901 2.1311874 nan
9.5812855 -5.9773173 2.1311874 nan
9.571434 -5.9879451 2.1311874 nan
9.4543705 -5.8729892 2.1119759 nan
9.5517292 -6.0091996 2.1311874 nan
9.6532211 -6.151248 2.1512189 nan
10.110536 -5.9227009 2.1571445 nan
10.100229 -5.9338188 2.1571445 nan
10.089923 -5.9449363 2.1571445 nan
10.079617 -5.9560542 2.1571445 nan
10.06931 -5.9671717 2.1571445 nan
9.9352741 -5.846992 2.1364017 nan
9.9252005 -5.8578582 2.1364017 nan
9.9151268 -5.8687243 2.1364017 nan
9.9050541 -5.8795905 2.1364017 nan
9.8949804 -5.8904572 2.1364017 nan
9.8849068 -5.9013233 2.1364017 nan
9.8748341 -5.9121895 2.1364017 nan
9.8647604 -5.9230556 2.1364017 nan
9.8546867 -5.9339223 2.1364017 nan
9.844614 -5.9447885 2.1364017 nan
9.8345404 -5.9556546 2.1364017 nan
9.8244667 -5.9665208 2.1364017 nan
9.814394 -5.9773874 2.1364017 nan
9.8043213 -5.9882536 2.1364017 nan
9.6798038 -5.8710432 2.1166959 nan
9.6699524 -5.8816705 2.1166959 nan
9.6601 -5.8922982 2.1166959 nan
9.6502485 -5.9029255 2.1166959 nan
9.6403961 -5.9135528 2.1166959 nan
9.6305447 -5.9241805 2.1166959 nan
9.6206932 -5.9348078 2.1166959 nan
9.5025682 -5.8209977 2.0977969 nan
9.4929295 -5.8313961 2.0977969 nan
9.4832897 -5.8417945 2.0977969 nan
9.47365 -5.8521924 2.0977969 nan
9.4640102 -5.8625908 2.0977969 nan
9.4543705 -5.8729892 2.0977969 nan
9.4447317 -5.8833876 2.0977969 nan
9.435092 -5.893786 2.0977969 nan
10.110536 -5.9227009 2.1419845 nan
10.100229 -5.9338188 2.1419845 nan
10.089923 -5.9449363 2.1419845 nan
10.079617 -5.9560542 2.1419845 nan
9.9453468 -5.8361254 2.1215844 nan
9.9352741 -5.846992 2.1215844 nan
9.9252005 -5.8578582 2.1215844 nan
9.9151268 -5.8687243 2.1215844 nan
9.9050541 -5.8795905 2.1215844 nan
9.8949804 -5.8904572 2.1215844 nan
9.8849068 -5.9013233 2.1215844 nan
9.8748341 -5.9121895 2.1215844 nan
9.8647604 -5.9230556 2.1215844 nan
9.8546867 -5.9339223 2.1215844 nan
9.844614 -5.9447885 2.1215844 nan
9.8345404 -5.9556546 2.1215844 nan
9.8244667 -5.9665208 2.1215844 nan
9.814394 -5.9773874 2.1215844 nan
9.6896553 -5.8604159 2.1022046 nan
9.6798038 -5.8710432 2.1022046 nan
9.6699524 -5.8816705 2.1022046 nan
9.6601 -5.8922982 2.1022046 nan
9.6502485 -5.9029255 2.1022046 nan
9.6403961 -5.9135528 2.1022046 nan
9.6305447 -5.9241805 2.1022046 nan
9.6206932 -5.9348078 2.1022046 nan
9.6108408 -5.945435 2.1022046 nan
9.4929295 -5.8313961 2.0836179 nan
9.4832897 -5.8417945 2.0836179 nan
9.5812855 -5.9773173 2.1022046 nan
9.571434 -5.9879451 2.1022046 nan
9.4543705 -5.8729892 2.0836179 nan
9.4447317 -5.8833876 2.0836179 nan
9.435092 -5.893786 2.0836179 nan
10.100229 -5.9338188 2.1268246 nan
10.089923 -5.9449363 2.1268246 nan
10.079617 -5.9560542 2.1268246 nan
9.9453468 -5.8361254 2.1067674 nan
9.9352741 -5.846992 2.1067674 nan
9.9252005 -5.8578582 2.1067674 nan
9.9151268 -5.8687243 2.1067674 nan
9.9050541 -5.8795905 2.1067674 nan
9.8949804 -5.8904572 2.1067674 nan
9.8849068 -5.9013233 2.1067674 nan
9.8748341 -5.9121895 2.1067674 nan
9.8647604 -5.9230556 2.1067674 nan
9.8546867 -5.9339223 2.1067674 nan
9.844614 -5.9447885 2.1067674 nan
9.8345404 -5.9556546 2.1067674 nan
9.8244667 -5.9665208 2.1067674 nan
9.814394 -5.9773874 2.1067674 nan
9.6896553 -5.8604159 2.0877132 nan
9.6798038 -5.8710432 2.0877132 nan
9.6699524 -5.8816705 2.0877132 nan
9.6601 -5.8922982 2.0877132 nan
9.6502485 -5.9029255 2.0877132 nan
9.6403961 -5.9135528 2.0877132 nan
9.6305447 -5.9241805 2.0877132 nan
9.6206932 -5.9348078 2.0877132 nan
9.5025682 -5.8209977 2.0694389 nan
9.4929295 -5.8313961 2.0694389 nan
9.5911369 -5.9666901 2.0877132 nan
9.6935139 -6.1077828 2.1067674 nan
9.571434 -5.9879451 2.0877132 nan
9.5615816 -5.9985723 2.0877132 nan
9.5517292 -6.0091996 2.0877132 nan
9.5418777 -6.0198274 2.0877132 nan
10.089923 -5.9449363 2.1116645 nan
10.079617 -5.9560542 2.1116645 nan
9.9453468 -5.8361254 2.0919502 nan
9.9352741 -5.846992 2.0919502 nan
9.9252005 -5.8578582 2.0919502 nan
9.9151268 -5.8687243 2.0919502 nan
9.9050541 -5.8795905 2.0919502 nan
9.7783222 -5.7647691 2.0732217 nan
9.7684708 -5.7753963 2.0732217 nan
9.7586193 -5.7860236 2.0732217 nan
9.8647604 -5.9230556 2.0919502 nan
9.8546867 -5.9339223 2.0919502 nan
9.844614 -5.9447885 2.0919502 nan
9.7192116 -5.8285336 2.0732217 nan
9.8244667 -5.9665208 2.0919502 nan
9.814394 -5.9773874 2.0919502 nan
9.8043213 -5.9882536 2.0919502 nan
9.6798038 -5.8710432 2.0732217 nan
9.6699524 -5.8816705 2.0732217 nan
9.6601 -5.8922982 2.0732217 nan
9.6502485 -5.9029255 2.0732217 nan
9.6403961 -5.9135528 2.0732217 nan
9.5218477 -5.8002009 2.0552597 nan
9.512208 -5.8105993 2.0552597 nan
9.5025682 -5.8209977 2.0552597 nan
9.4929295 -5.8313961 2.0552597 nan
9.5911369 -5.9666901 2.0732217 nan
9.5812855 -5.9773173 2.0732217 nan
9.571434 -5.9879451 2.0732217 nan
9.5615816 -5.9985723 2.0732217 nan
9.5517292 -6.0091996 2.0732217 nan
9.5418777 -6.0198274 2.0732217 nan
10.089923 -5.9449363 2.0965047 nan
9.9554195 -5.8252592 2.0771332 nan
9.9453468 -5.8361254 2.0771332 nan
9.9352741 -5.846992 2.0771332 nan
9.9252005 -5.8578582 2.0771332 nan
9.9151268 -5.8687243 2.0771332 nan
9.7881746 -5.7541413 2.0587301 nan
9.7783222 -5.7647691 2.0587301 nan
9.7684708 -5.7753963 2.0587301 nan
9.7586193 -5.7860236 2.0587301 nan
9.7487669 -5.7966514 2.0587301 nan
9.7389145 -5.8072786 2.0587301 nan
9.729063 -5.8179059 2.0587301 nan
9.7192116 -5.8285336 2.0587301 nan
9.7093601 -5.8391609 2.0587301 nan
9.6995077 -5.8497882 2.0587301 nan
9.6896553 -5.8604159 2.0587301 nan
9.6798038 -5.8710432 2.0587301 nan
9.5604057 -5.7586074 2.0410807 nan
9.6601 -5.8922982 2.0587301 nan
9.5411263 -5.7794042 2.0410807 nan
9.5314865 -5.7898026 2.0410807 nan
9.6305447 -5.9241805 2.0587301 nan
9.512208 -5.8105993 2.0410807 nan
9.6108408 -5.945435 2.0587301 nan
9.6009884 -5.9560628 2.0587301 nan
9.7035875 -6.0969167 2.0771332 nan
9.6935139 -6.1077828 2.0771332 nan
9.6834412 -6.118649 2.0771332 nan
9.5615816 -5.9985723 2.0587301 nan
9.5517292 -6.0091996 2.0587301 nan
9.6532211 -6.151248 2.0771332 nan
10.089923 -5.9449363 2.0813446 nan
10.079617 -5.9560542 2.0813446 nan
10.06931 -5.9671717 2.0813446 nan
9.9352741 -5.846992 2.0623159 nan
9.9252005 -5.8578582 2.0623159 nan
9.9151268 -5.8687243 2.0623159 nan
9.7881746 -5.7541413 2.0442388 nan
9.8949804 -5.8904572 2.0623159 nan
9.7684708 -5.7753963 2.0442388 nan
9.7586193 -5.7860236 2.0442388 nan
9.7487669 -5.7966514 2.0442388 nan
9.7389145 -5.8072786 2.0442388 nan
9.729063 -5.8179059 2.0442388 nan
9.7192116 -5.8285336 2.0442388 nan
9.7093601 -5.8391609 2.0442388 nan
9.6995077 -5.8497882 2.0442388 nan
9.6896553 -5.8604159 2.0442388 nan
9.6798038 -5.8710432 2.0442388 nan
9.6699524 -5.8816705 2.0442388 nan
9.6601 -5.8922982 2.0442388 nan
9.6502485 -5.9029255 2.0442388 nan
9.6403961 -5.9135528 2.0442388 nan
9.6305447 -5.9241805 2.0442388 nan
9.6206932 -5.9348078 2.0442388 nan
9.6108408 -5.945435 2.0442388 nan
9.6009884 -5.9560628 2.0442388 nan
9.7035875 -6.0969167 2.0623159 nan
9.6935139 -6.1077828 2.0623159 nan
9.6834412 -6.118649 2.0623159 nan
9.6733675 -6.1295152 2.0623159 nan
9.6632938 -6.1403818 2.0623159 nan
10.100229 -5.9338188 2.0661845 nan
10.089923 -5.9449363 2.0661845 nan
10.079617 -5.9560542 2.0661845 nan
10.06931 -5.9671717 2.0661845 nan
9.9352741 -5.846992 2.0474987 nan
9.9252005 -5.8578582 2.0474987 nan
9.9151268 -5.8687243 2.0474987 nan
9.9050541 -5.8795905 2.0474987 nan
9.8949804 -5.8904572 2.0474987 nan
9.8849068 -5.9013233 2.0474987 nan
9.7586193 -5.7860236 2.0297475 nan
9.7487669 -5.7966514 2.0297475 nan
9.7389145 -5.8072786 2.0297475 nan
9.6182423 -5.6962175 2.0127225 nan
9.7192116 -5.8285336 2.0297475 nan
9.7093601 -5.8391609 2.0297475 nan
9.6995077 -5.8497882 2.0297475 nan
9.6896553 -5.8604159 2.0297475 nan
9.7942467 -5.9991198 2.0474987 nan
9.6699524 -5.8816705 2.0297475 nan
9.6601 -5.8922982 2.0297475 nan
9.6502485 -5.9029255 2.0297475 nan
9.6403961 -5.9135528 2.0297475 nan
9.6305447 -5.9241805 2.0297475 nan
9.7338076 -6.0643177 2.0474987 nan
9.7237339 -6.0751839 2.0474987 nan
9.7136612 -6.0860505 2.0474987 nan
9.7035875 -6.0969167 2.0474987 nan
9.6935139 -6.1077828 2.0474987 nan
9.6834412 -6.118649 2.0474987 nan
9.6733675 -6.1295152 2.0474987 nan
9.6632938 -6.1403818 2.0474987 nan
10.089923 -5.9449363 2.0510244 nan
10.079617 -5.9560542 2.0510244 nan
10.06931 -5.9671717 2.0510244 nan
10.059004 -5.9782896 2.0510244 nan
10.048697 -5.9894071 2.0510244 nan
9.9151268 -5.8687243 2.0326817 nan
9.9050541 -5.8795905 2.0326817 nan
9.8949804 -5.8904572 2.0326817 nan
9.7684708 -5.7753963 2.0152559 nan
9.7586193 -5.7860236 2.0152559 nan
9.7487669 -5.7966514 2.0152559 nan
9.7389145 -5.8072786 2.0152559 nan
9.6182423 -5.6962175 1.9985435 nan
9.7192116 -5.8285336 2.0152559 nan
9.7093601 -5.8391609 2.0152559 nan
9.6995077 -5.8497882 2.0152559 nan
9.6896553 -5.8604159 2.0152559 nan
9.6798038 -5.8710432 2.0152559 nan
9.6699524 -5.8816705 2.0152559 nan
9.6601 -5.8922982 2.0152559 nan
9.6502485 -5.9029255 2.0152559 nan
9.6403961 -5.9135528 2.0152559 nan
9.6305447 -5.9241805 2.0152559 nan
9.6206932 -5.9348078 2.0152559 nan
9.7237339 -6.0751839 2.0326817 nan
9.7136612 -6.0860505 2.0326817 nan
9.7035875 -6.0969167 2.0326817 nan
9.6935139 -6.1077828 2.0326817 nan
9.6834412 -6.118649 2.0326817 nan
9.6733675 -6.1295152 2.0326817 nan
9.6632938 -6.1403818 2.0326817 nan
10.06931 -5.9671717 2.0358646 nan
10.059004 -5.9782896 2.0358646 nan
10.048697 -5.9894071 2.0358646 nan
9.9151268 -5.8687243 2.0178645 nan
9.9050541 -5.8795905 2.0178645 nan
9.8949804 -5.8904572 2.0178645 nan
9.8849068 -5.9013233 2.0178645 nan
9.7586193 -5.7860236 2.0007646 nan
9.7487669 -5.7966514 2.0007646 nan
9.627882 -5.6858191 1.9843645 nan
9.6182423 -5.6962175 1.9843645 nan
9.6086025 -5.7066159 1.9843645 nan
9.7093601 -5.8391609 2.0007646 nan
9.6995077 -5.8497882 2.0007646 nan
9.6896553 -5.8604159 2.0007646 nan
9.6798038 -5.8710432 2.0007646 nan
9.6699524 -5.8816705 2.0007646 nan
9.6601 -5.8922982 2.0007646 nan
9.7640276 -6.0317187 2.0178645 nan
9.6403961 -5.9135528 2.0007646 nan
9.7438812 -6.0534515 2.0178645 nan
9.7338076 -6.0643177 2.0178645 nan
9.7237339 -6.0751839 2.0178645 nan
9.7136612 -6.0860505 2.0178645 nan
9.7035875 -6.0969167 2.0178645 nan
9.5812855 -5.9773173 2.0007646 nan
9.6834412 -6.118649 2.0178645 nan
9.6733675 -6.1295152 2.0178645 nan
9.6632938 -6.1403818 2.0178645 nan
10.089923 -5.9449363 2.0207045 nan
10.079617 -5.9560542 2.0207045 nan
10.06931 -5.9671717 2.0207045 nan
10.059004 -5.9782896 2.0207045 nan
10.048697 -5.9894071 2.0207045 nan
9.9151268 -5.8687243 2.0030475 nan
9.9050541 -5.8795905 2.0030475 nan
9.8949804 -5.8904572 2.0030475 nan
9.8849068 -5.9013233 2.0030475 nan
9.7586193 -5.7860236 1.9862731 nan
9.7487669 -5.7966514 1.9862731 nan
9.7389145 -5.8072786 1.9862731 nan
9.6182423 -5.6962175 1.9701855 nan
9.7192116 -5.8285336 1.9862731 nan
9.7093601 -5.8391609 1.9862731 nan
9.6995077 -5.8497882 1.9862731 nan
9.6896553 -5.8604159 1.9862731 nan
9.6798038 -5.8710432 1.9862731 nan
9.6699524 -5.8816705 1.9862731 nan
9.6601 -5.8922982 1.9862731 nan
9.7640276 -6.0317187 2.0030475 nan
9.6403961 -5.9135528 1.9862731 nan
9.6305447 -5.9241805 1.9862731 nan
9.6206932 -5.9348078 1.9862731 nan
9.6108408 -5.945435 1.9862731 nan
9.6009884 -5.9560628 1.9862731 nan
9.5911369 -5.9666901 1.9862731 nan
9.47365 -5.8521924 1.9701855 nan
9.571434 -5.9879451 1.9862731 nan
9.5615816 -5.9985723 1.9862731 nan
10.06931 -5.9671717 2.0055447 nan
10.059004 -5.9782896 2.0055447 nan
10.048697 -5.9894071 2.0055447 nan
9.9151268 -5.8687243 1.9882302 nan
9.9050541 -5.8795905 1.9882302 nan
9.8949804 -5.8904572 1.9882302 nan
9.8849068 -5.9013233 1.9882302 nan
9.8748341 -5.9121895 1.9882302 nan
9.8647604 -5.9230556 1.9882302 nan
9.7389145 -5.8072786 1.9717817 nan
9.729063 -5.8179059 1.9717817 nan
9.7192116 -5.8285336 1.9717817 nan
9.7093601 -5.8391609 1.9717817 nan
9.6995077 -5.8497882 1.9717817 nan
9.6896553 -5.8604159 1.9717817 nan
9.6798038 -5.8710432 1.9717817 nan
9.6699524 -5.8816705 1.9717817 nan
9.6601 -5.8922982 1.9717817 nan
9.7640276 -6.0317187 1.9882302 nan
9.6403961 -5.9135528 1.9717817 nan
9.6305447 -5.9241805 1.9717817 nan
9.6206932 -5.9348078 1.9717817 nan
9.6108408 -5.945435 1.9717817 nan
9.6009884 -5.9560628 1.9717817 nan
9.5911369 -5.9666901 1.9717817 nan
9.47365 -5.8521924 1.9560064 nan
9.4640102 -5.8625908 1.9560064 nan
9.4543705 -5.8729892 1.9560064 nan
10.06931 -5.9671717 1.9903846 nan
10.059004 -5.9782896 1.9903846 nan
10.048697 -5.9894071 1.9903846 nan
9.9151268 -5.8687243 1.9734131 nan
9.9050541 -5.8795905 1.9734131 nan
9.8949804 -5.8904572 1.9734131 nan
9.8849068 -5.9013233 1.9734131 nan
9.8748341 -5.9121895 1.9734131 nan
9.7487669 -5.7966514 1.9572902 nan
9.7389145 -5.8072786 1.9572902 nan
9.729063 -5.8179059 1.9572902 nan
9.7192116 -5.8285336 1.9572902 nan
9.7093601 -5.8391609 1.9572902 nan
9.6995077 -5.8497882 1.9572902 nan
9.6896553 -5.8604159 1.9572902 nan
9.6798038 -5.8710432 1.9572902 nan
9.6699524 -5.8816705 1.9572902 nan
9.6601 -5.8922982 1.9572902 nan
9.6502485 -5.9029255 1.9572902 nan
9.6403961 -5.9135528 1.9572902 nan
9.6305447 -5.9241805 1.9572902 nan
9.6206932 -5.9348078 1.9572902 nan
9.6108408 -5.945435 1.9572902 nan
9.4929295 -5.8313961 1.9418274 nan
9.4832897 -5.8417945 1.9418274 nan
10.079617 -5.9560542 1.9752245 nan
10.06931 -5.9671717 1.9752245 nan
10.059004 -5.9782896 1.9752245 nan
10.048697 -5.9894071 1.9752245 nan
9.9151268 -5.8687243 1.958596 nan
9.9050541 -5.8795905 1.958596 nan
9.8949804 -5.8904572 1.958596 nan
9.8849068 -5.9013233 1.958596 nan
9.8748341 -5.9121895 1.958596 nan
9.8647604 -5.9230556 1.958596 nan
9.7389145 -5.8072786 1.9427989 nan
9.729063 -5.8179059 1.9427989 nan
9.7192116 -5.8285336 1.9427989 nan
9.7093601 -5.8391609 1.9427989 nan
9.6995077 -5.8497882 1.9427989 nan
9.6896553 -5.8604159 1.9427989 nan
9.6798038 -5.8710432 1.9427989 nan
9.6699524 -5.8816705 1.9427989 nan
9.6601 -5.8922982 1.9427989 nan
9.6502485 -5.9029255 1.9427989 nan
9.6403961 -5.9135528 1.9427989 nan
9.6305447 -5.9241805 1.9427989 nan
9.6206932 -5.9348078 1.9427989 nan
9.6108408 -5.945435 1.9427989 nan
9.6009884 -5.9560628 1.9427989 nan
9.4832897 -5.8417945 1.9276483 nan
10.079617 -5.9560542 1.9600645 nan
10.06931 -5.9671717 1.9600645 nan
10.059004 -5.9782896 1.9600645 nan
10.048697 -5.9894071 1.9600645 nan
9.9151268 -5.8687243 1.9437788 nan
9.7881746 -5.7541413 1.9283074 nan
9.8949804 -5.8904572 1.9437788 nan
9.7684708 -5.7753963 1.9283074 nan
9.7586193 -5.7860236 1.9283074 nan
9.8647604 -5.9230556 1.9437788 nan
9.7389145 -5.8072786 1.9283074 nan
9.729063 -5.8179059 1.9283074 nan
9.7192116 -5.8285336 1.9283074 nan
9.7093601 -5.8391609 1.9283074 nan
9.6995077 -5.8497882 1.9283074 nan
9.6896553 -5.8604159 1.9283074 nan
9.5700455 -5.7482095 1.9134693 nan
9.6699524 -5.8816705 1.9283074 nan
9.6601 -5.8922982 1.9283074 nan
9.6502485 -5.9029255 1.9283074 nan
9.6403961 -5.9135528 1.9283074 nan
9.6305447 -5.9241805 1.9283074 nan
9.6206932 -5.9348078 1.9283074 nan
9.6108408 -5.945435 1.9283074 nan
9.4929295 -5.8313961 1.9134693 -2.6391167e+38
9.4832897 -5.8417945 1.9134693 -3.3308878e+38
10.100229 -5.9338188 1.9449046 nan
10.089923 -5.9449363 1.9449046 nan
10.079617 -5.9560542 1.9449046 nan
9.9453468 -5.8361254 1.9289618 nan
9.9352741 -5.846992 1.9289618 nan
9.9252005 -5.8578582 1.9289618 nan
9.798027 -5.7435141 1.913816 nan
9.7881746 -5.7541413 1.913816 nan
9.8949804 -5.8904572 1.9289618 nan
9.8849068 -5.9013233 1.9289618 nan
9.8748341 -5.9121895 1.9289618 nan
9.8647604 -5.9230556 1.9289618 nan
9.7389145 -5.8072786 1.913816 nan
9.729063 -5.8179059 1.913816 nan
9.7192116 -5.8285336 1.913816 nan
9.7093601 -5.8391609 1.913816 nan
9.589324 -5.7274127 1.8992903 nan
9.5796843 -5.7378111 1.8992903 nan
9.5700455 -5.7482095 1.8992903 nan
9.5604057 -5.7586074 1.8992903 nan
9.550766 -5.7690058 1.8992903 nan
9.6502485 -5.9029255 1.913816 nan
9.5314865 -5.7898026 1.8992903 nan
9.6305447 -5.9241805 1.913816 nan
9.6206932 -5.9348078 1.913816 nan
9.6108408 -5.945435 1.913816 nan
9.4929295 -5.8313961 1.8992903 nan
9.4832897 -5.8417945 1.8992903 nan
10.06931 -5.9671717 1.9297445 nan
9.9352741 -5.846992 1.9141445 nan
9.8078785 -5.7328868 1.8993245 nan
9.798027 -5.7435141 1.8993245 nan
9.7881746 -5.7541413 1.8993245 nan
9.7783222 -5.7647691 1.8993245 nan
9.7684708 -5.7753963 1.8993245 nan
9.7586193 -5.7860236 1.8993245 nan
9.8647604 -5.9230556 1.9141445 nan
9.7389145 -5.8072786 1.8993245 nan
9.729063 -5.8179059 1.8993245 nan
9.7192116 -5.8285336 1.8993245 nan
9.7093601 -5.8391609 1.8993245 nan
9.6995077 -5.8497882 1.8993245 nan
9.6896553 -5.8604159 1.8993245 nan
9.5700455 -5.7482095 1.8851112 nan
9.5604057 -5.7586074 1.8851112 nan
9.550766 -5.7690058 1.8851112 nan
9.5411263 -5.7794042 1.8851112 nan
9.5314865 -5.7898026 1.8851112 nan
9.6305447 -5.9241805 1.8993245 nan
9.6206932 -5.9348078 1.8993245 nan
9.6108408 -5.945435 1.8993245 nan
9.6009884 -5.9560628 1.8993245 nan
9.5911369 -5.9666901 1.8993245 nan
10.089923 -5.9449363 1.9145845 nan
10.079617 -5.9560542 1.9145845 nan
10.06931 -5.9671717 1.9145845 nan
9.9352741 -5.846992 1.8993274 nan
9.9252005 -5.8578582 1.8993274 nan
9.6857185 -5.6234293 1.8709321 nan
9.6760788 -5.6338277 1.8709321 nan
9.7783222 -5.7647691 1.8848331 nan
9.7684708 -5.7753963 1.8848331 nan
9.7586193 -5.7860236 1.8848331 nan
9.7487669 -5.7966514 1.8848331 nan
9.7389145 -5.8072786 1.8848331 nan
9.729063 -5.8179059 1.8848331 nan
9.7192116 -5.8285336 1.8848331 nan
9.7093601 -5.8391609 1.8848331 nan
9.6995077 -5.8497882 1.8848331 nan
9.6896553 -5.8604159 1.8848331 nan
9.5700455 -5.7482095 1.8709321 nan
9.784174 -6.0099864 1.8993274 nan
9.550766 -5.7690058 1.8709321 nan
9.5411263 -5.7794042 1.8709321 nan
9.5314865 -5.7898026 1.8709321 nan
9.5218477 -5.8002009 1.8709321 nan
9.7338076 -6.0643177 1.8993274 nan
9.7237339 -6.0751839 1.8993274 nan
9.6009884 -5.9560628 1.8848331 nan
9.4832897 -5.8417945 1.8709321 nan
9.47365 -5.8521924 1.8709321 nan
10.079617 -5.9560542 1.8994246 nan
10.06931 -5.9671717 1.8994246 nan
10.059004 -5.9782896 1.8994246 nan
9.9252005 -5.8578582 1.8845103 nan
9.798027 -5.7435141 1.8703417 nan
9.6760788 -5.6338277 1.8567531 nan
9.7783222 -5.7647691 1.8703417 nan
9.7684708 -5.7753963 1.8703417 nan
9.6471615 -5.6650224 1.8567531 nan
9.7487669 -5.7966514 1.8703417 nan
9.7389145 -5.8072786 1.8703417 nan
9.729063 -5.8179059 1.8703417 nan
9.7192116 -5.8285336 1.8703417 nan
9.7093601 -5.8391609 1.8703417 nan
9.6995077 -5.8497882 1.8703417 nan
9.8043213 -5.9882536 1.8845103 nan
9.6798038 -5.8710432 1.8703417 nan
9.784174 -6.0099864 1.8845103 nan
9.550766 -5.7690058 1.8567531 nan
9.5411263 -5.7794042 1.8567531 nan
9.7539539 -6.0425849 1.8845103 nan
9.7438812 -6.0534515 1.8845103 nan
9.7338076 -6.0643177 1.8845103 nan
9.7237339 -6.0751839 1.8845103 nan
9.6009884 -5.9560628 1.8703417 nan
9.4832897 -5.8417945 1.8567531 nan
9.47365 -5.8521924 1.8567531 -3.2881988e+38
10.079617 -5.9560542 1.8842645 nan
10.06931 -5.9671717 1.8842645 nan
9.9352741 -5.846992 1.869693 nan
9.9252005 -5.8578582 1.869693 nan
9.798027 -5.7435141 1.8558502 nan
9.7881746 -5.7541413 1.8558502 nan
9.8949804 -5.8904572 1.869693 nan
9.8849068 -5.9013233 1.869693 nan
9.7586193 -5.7860236 1.8558502 nan
9.8647604 -5.9230556 1.869693 nan
9.7389145 -5.8072786 1.8558502 nan
9.844614 -5.9447885 1.869693 nan
9.8345404 -5.9556546 1.869693 nan
9.8244667 -5.9665208 1.869693 nan
9.6995077 -5.8497882 1.8558502 nan
9.8043213 -5.9882536 1.869693 nan
9.7942467 -5.9991198 1.869693 nan
9.9044075 -6.1450553 1.8842645 nan
9.8941011 -6.1561732 1.8842645 nan
9.8837948 -6.1672912 1.8842645 nan
9.8734884 -6.1784086 1.8842645 nan
9.8631821 -6.1895266 1.8842645 nan
9.8528757 -6.200644 1.8842645 nan
9.8425694 -6.211762 1.8842645 nan
9.832263 -6.2228794 1.8842645 nan
9.8219566 -6.2339973 1.8842645 nan
10.079617 -5.9560542 1.8691045 nan
10.06931 -5.9671717 1.8691045 nan
9.9352741 -5.846992 1.854876 nan
9.9252005 -5.8578582 1.854876 nan
9.798027 -5.7435141 1.8413588 nan
9.7881746 -5.7541413 1.8413588 nan
9.8949804 -5.8904572 1.854876 nan
9.7684708 -5.7753963 1.8413588 nan
9.7586193 -5.7860236 1.8413588 nan
9.8647604 -5.9230556 1.854876 nan
9.7389145 -5.8072786 1.8413588 nan
9.844614 -5.9447885 1.854876 nan
9.8345404 -5.9556546 1.854876 nan
9.7093601 -5.8391609 1.8413588 nan
9.6995077 -5.8497882 1.8413588 nan
9.8043213 -5.9882536 1.854876 nan
9.7942467 -5.9991198 1.854876 nan
9.9044075 -6.1450553 1.8691045 nan
9.8941011 -6.1561732 1.8691045 nan
9.8837948 -6.1672912 1.8691045 nan
9.8734884 -6.1784086 1.8691045 nan
9.8631821 -6.1895266 1.8691045 nan
9.8528757 -6.200644 1.8691045 nan
9.7237339 -6.0751839 1.854876 nan
9.7136612 -6.0860505 1.854876 nan
9.7035875 -6.0969167 1.854876 nan
10.079617 -5.9560542 1.8539445 nan
10.06931 -5.9671717 1.8539445 nan
9.9352741 -5.846992 1.8400588 nan
9.9252005 -5.8578582 1.8400588 nan
9.798027 -5.7435141 1.8268673 nan
9.9050541 -5.8795905 1.8400588 nan
9.8949804 -5.8904572 1.8400588 nan
9.8849068 -5.9013233 1.8400588 nan
9.7586193 -5.7860236 1.8268673 nan
9.8647604 -5.9230556 1.8400588 nan
9.8546867 -5.9339223 1.8400588 nan
9.844614 -5.9447885 1.8400588 nan
9.8345404 -5.9556546 1.8400588 nan
9.8244667 -5.9665208 1.8400588 nan
9.6995077 -5.8497882 1.8268673 nan
9.8043213 -5.9882536 1.8400588 nan
9.7942467 -5.9991198 1.8400588 nan
9.9044075 -6.1450553 1.8539445 nan
9.8734884 -6.1784086 1.8539445 nan
9.8528757 -6.200644 1.8539445 nan
9.8425694 -6.211762 1.8539445 nan
9.832263 -6.2228794 1.8539445 nan
9.8219566 -6.2339973 1.8539445 nan
10.089923 -5.9449363 1.8387845 nan
10.079617 -5.9560542 1.8387845 nan
10.06931 -5.9671717 1.8387845 nan
9.9352741 -5.846992 1.8252417 nan
9.9252005 -5.8578582 1.8252417 nan
9.798027 -5.7435141 1.812376 nan
9.7881746 -5.7541413 1.812376 nan
9.7783222 -5.7647691 1.812376 nan
9.7684708 -5.7753963 1.812376 nan
9.7586193 -5.7860236 1.812376 nan
9.7487669 -5.7966514 1.812376 nan
9.7389145 -5.8072786 1.812376 nan
9.729063 -5.8179059 1.812376 nan
9.7192116 -5.8285336 1.812376 nan
9.7093601 -5.8391609 1.812376 nan
9.6995077 -5.8497882 1.812376 nan
9.8043213 -5.9882536 1.8252417 nan
9.7942467 -5.9991198 1.8252417 nan
9.9044075 -6.1450553 1.8387845 nan
9.8941011 -6.1561732 1.8387845 nan
9.8837948 -6.1672912 1.8387845 nan
9.8734884 -6.1784086 1.8387845 nan
9.8631821 -6.1895266 1.8387845 nan
9.8528757 -6.200644 1.8387845 nan
9.7237339 -6.0751839 1.8252417 nan
9.7136612 -6.0860505 1.8252417 nan
9.7035875 -6.0969167 1.8252417 nan
10.089923 -5.9449363 1.8236246 nan
10.079617 -5.9560542 1.8236246 nan
9.9453468 -5.8361254 1.8104246 nan
9.9352741 -5.846992 1.8104246 nan
9.9252005 -5.8578582 1.8104246 nan
9.798027 -5.7435141 1.7978845 nan
9.9050541 -5.8795905 1.8104246 nan
9.7783222 -5.7647691 1.7978845 nan
9.7684708 -5.7753963 1.7978845 nan
9.7586193 -5.7860236 1.7978845 nan
9.7487669 -5.7966514 1.7978845 nan
9.7389145 -5.8072786 1.7978845 nan
9.729063 -5.8179059 1.7978845 nan
9.7192116 -5.8285336 1.7978845 nan
9.7093601 -5.8391609 1.7978845 nan
9.6995077 -5.8497882 1.7978845 nan
9.8043213 -5.9882536 1.8104246 nan
9.7942467 -5.9991198 1.8104246 nan
9.784174 -6.0099864 1.8104246 nan
9.7741013 -6.0208526 1.8104246 nan
9.8837948 -6.1672912 1.8236246 nan
9.8734884 -6.1784086 1.8236246 nan
9.8631821 -6.1895266 1.8236246 -3.3318845e+38
9.8528757 -6.200644 1.8236246 -3.2263192e+38
9.7237339 -6.0751839 1.8104246 -3.343036e+38
9.7136612 -6.0860505 1.8104246 nan
9.7035875 -6.0969167 1.8104246 nan
10.100229 -5.9338188 1.8084645 nan
10.089923 -5.9449363 1.8084645 nan
10.079617 -5.9560542 1.8084645 -3.2766275e+38
9.9453468 -5.8361254 1.7956073 -3.2617258e+38
9.9352741 -5.846992 1.7956073 -3.2371699e+38
9.9252005 -5.8578582 1.7956073 nan
9.9151268 -5.8687243 1.7956073 nan
9.9050541 -5.8795905 1.7956073 nan
9.7783222 -5.7647691 1.7833931 nan
9.7684708 -5.7753963 1.7833931 nan
9.7586193 -5.7860236 1.7833931 nan
9.7487669 -5.7966514 1.7833931 nan
9.7389145 -5.8072786 1.7833931 nan
9.729063 -5.8179059 1.7833931 nan
9.7192116 -5.8285336 1.7833931 nan
9.7093601 -5.8391609 1.7833931 nan
9.6995077 -5.8497882 1.7833931 nan
9.8043213 -5.9882536 1.7956073 nan
9.7942467 -5.9991198 1.7956073 -2.5453473e+38
9.784174 -6.0099864 1.7956073 -3.0509748e+38
9.7741013 -6.0208526 1.7956073 nan
9.7640276 -6.0317187 1.7956073 -2.659937e+38
9.7539539 -6.0425849 1.7956073 -1.7714275e+38
9.7438812 -6.0534515 1.7956073 -1.7415162e+38
9.7338076 -6.0643177 1.7956073 -1.7047027e+38
9.6108408 -5.945435 1.7833931 -2.3822972e+38
9.7136612 -6.0860505 1.7956073 -3.0621729e+38
9.7035875 -6.0969167 1.7956073 nan
10.100229 -5.9338188 1.7933044 nan
10.089923 -5.9449363 1.7933044 nan
10.079617 -5.9560542 1.7933044 -2.9424919e+38
9.9453468 -5.8361254 1.7807902 -2.8214515e+38
9.9352741 -5.846992 1.7807902 -2.7143436e+38
9.9252005 -5.8578582 1.7807902 -2.782787e+38
9.9151268 -5.8687243 1.7807902 -2.8648796e+38
9.7881746 -5.7541413 1.7689016 -3.1041431e+38
9.7783222 -5.7647691 1.7689016 -3.3442351e+38
9.7684708 -5.7753963 1.7689016 nan
9.7586193 -5.7860236 1.7689016 nan
9.7487669 -5.7966514 1.7689016 nan
9.627882 -5.6858191 1.7574997 -3.3573199e+38
9.6182423 -5.6962175 1.7574997 -3.1969335e+38
9.7192116 -5.8285336 1.7689016 -3.038567e+38
9.7093601 -5.8391609 1.7689016 -3.1033652e+38
9.6995077 -5.8497882 1.7689016 -3.1836268e+38
9.6896553 -5.8604159 1.7689016 -2.8215047e+38
9.6798038 -5.8710432 1.7689016 -2.4740396e+38
9.6699524 -5.8816705 1.7689016 -2.7149656e+38
9.6601 -5.8922982 1.7689016 -2.9528704e+38
9.6502485 -5.9029255 1.7689016 -2.5670762e+38
9.6403961 -5.9135528 1.7689016 -2.1799363e+38
9.6305447 -5.9241805 1.7689016 -2.1275956e+38
9.6206932 -5.9348078 1.7689016 -2.073861e+38
9.6108408 -5.945435 1.7689016 -2.7146997e+38
9.4929295 -5.8313961 1.7574997 -3.3673753e+38
10.110536 -5.9227009 1.7781446 nan
10.100229 -5.9338188 1.7781446 nan
10.089923 -5.9449363 1.7781446 -3.3545558e+38
10.079617 -5.9560542 1.7781446 -2.5955398e+38
9.9453468 -5.8361254 1.7659731 -2.3939168e+38
9.9352741 -5.846992 1.7659731 -2.181765e+38
9.9252005 -5.8578582 1.7659731 -2.0212766e+38
9.9151268 -5.8687243 1.7659731 -1.851127e+38
9.7881746 -5.7541413 1.7544103 -2.2234168e+38
9.7783222 -5.7647691 1.7544103 -2.5837626e+38
9.7684708 -5.7753963 1.7544103 -2.8096281e+38
9.7586193 -5.7860236 1.7544103 -3.0227185e+38
9.7487669 -5.7966514 1.7544103 -2.7680869e+38
9.627882 -5.6858191 1.7433207 -2.5158968e+38
9.6182423 -5.6962175 1.7433207 -2.1404936e+38
9.7192116 -5.8285336 1.7544103 -1.7704903e+38
9.5989628 -5.7170143 1.7433207 -1.9275049e+38
9.6995077 -5.8497882 1.7544103 -2.0760525e+38
9.6896553 -5.8604159 1.7544103 -2.2473942e+38
9.6798038 -5.8710432 1.7544103 -2.4081483e+38
9.6699524 -5.8816705 1.7544103 -2.3820317e+38
9.6601 -5.8922982 1.7544103 -2.3422577e+38
9.5411263 -5.7794042 1.7433207 -2.4623026e+38
9.6403961 -5.9135528 1.7544103 -2.5811528e+38
9.5218477 -5.8002009 1.7433207 -2.5151573e+38
9.512208 -5.8105993 1.7433207 -2.435197e+38
9.5025682 -5.8209977 1.7433207 -3.0484604e+38
9.4929295 -5.8313961 1.7433207 nan
10.110536 -5.9227009 1.7629845 nan
10.100229 -5.9338188 1.7629845 nan
10.089923 -5.9449363 1.7629845 -3.1414071e+38
9.9554195 -5.8252592 1.751156 -2.5949658e+38
9.9453468 -5.8361254 1.751156 -2.5146367e+38
9.9352741 -5.846992 1.751156 -2.434885e+38
9.9252005 -5.8578582 1.751156 -2.3283928e+38
9.9151268 -5.8687243 1.751156 -2.23566e+38
9.9050541 -5.8795905 1.751156 -2.3826554e+38
9.7783222 -5.7647691 1.7399188 -2.5292349e+38
9.7684708 -5.7753963 1.7399188 -2.7027106e+38
9.7586193 -5.7860236 1.7399188 -2.87634e+38
9.7487669 -5.7966514 1.7399188 -2.7553584e+38
9.7389145 -5.8072786 1.7399188 -2.6218085e+38
9.6182423 -5.6962175 1.7291417 -2.4080893e+38
9.7192116 -5.8285336 1.7399188 -2.1951542e+38
9.7093601 -5.8391609 1.7399188 -2.2614088e+38
9.6995077 -5.8497882 1.7399188 -2.3279772e+38
9.6896553 -5.8604159 1.7399188 -2.4083051e+38
9.6798038 -5.8710432 1.7399188 -2.489147e+38
9.6699524 -5.8816705 1.7399188 -2.4888332e+38
9.6601 -5.8922982 1.7399188 -2.4755973e+38
9.5411263 -5.7794042 1.7291417 -2.5422187e+38
9.6403961 -5.9135528 1.7399188 -2.5955432e+38
9.5218477 -5.8002009 1.7291417 -2.5021851e+38
