# .PCD v0.7 - Point Cloud Data file format
VERSION 0.7
FIELDS x y z rgb
SIZE 4 4 4 4
TYPE F F F F
COUNT 1 1 1 1
WIDTH 1190
HEIGHT 1
VIEWPOINT 0 0 0 1 0 0 0
POINTS 1190
DATA ascii
1.9660715 -0.6232965 1.6342893 -3.3702479e+38
1.9660547 -0.62668121 1.6342893 nan
1.9660379 -0.63006592 1.6342893 nan
1.9660211 -0.63345063 1.6342893 nan
1.9570184 -0.63397062 1.6322922 nan
1.9570017 -0.63733828 1.6322922 nan
1.956985 -0.64070582 1.6322922 nan
1.9569683 -0.64407337 1.6322922 nan
1.947966 -0.64450777 1.630295 nan
1.9479493 -0.64785814 1.630295 nan
1.9479327 -0.65120864 1.630295 -3.3834858e+38
1.947916 -0.65455914 1.630295 -3.2631799e+38
1.9389143 -0.6549077 1.6282978 -3.2762639e+38
1.9388977 -0.65824103 1.6282978 -3.3027987e+38
1.9388812 -0.66157436 1.6282978 nan
1.9298797 -0.66185451 1.6263007 nan
1.9298632 -0.66517055 1.6263007 nan
1.920862 -0.66539919 1.6243036 nan
1.9208456 -0.66869819 1.6243036 nan
1.9208292 -0.67199719 1.6243036 nan
1.9208128 -0.67529619 1.6243036 -3.3700361e+38
1.9207965 -0.67859519 1.6243036 -3.2899202e+38
1.9207801 -0.68189418 1.6243036 -3.2897135e+38
1.9207637 -0.6851933 1.6243036 -3.3030577e+38
1.9207474 -0.6884923 1.6243036 -3.2897653e+38
1.9207309 -0.69179118 1.6243036 -3.2763689e+38
1.9207146 -0.69509029 1.6243036 -3.2765243e+38
1.9206491 -0.70828629 1.6243036 -3.3434055e+38
1.9206327 -0.71158528 1.6243036 -3.3967239e+38
1.9206164 -0.71488428 1.6243036 -3.1959833e+38
1.9205999 -0.71818328 1.6243036 -2.9955632e+38
1.9205836 -0.72148228 1.6243036 -3.0489425e+38
1.9295504 -0.72817743 1.6263007 -3.1021639e+38
1.929534 -0.73149359 1.6263007 -3.1426121e+38
1.9295175 -0.73480964 1.6263007 -3.1828015e+38
1.9384841 -0.74157333 1.6282978 -3.2098023e+38
1.9384675 -0.74490654 1.6282978 -3.2498379e+38
1.9474337 -0.75172174 1.630295 -3.3304771e+38
1.9384345 -0.7515732 1.6282978 nan
1.9474005 -0.75842261 1.630295 -3.3568996e+38
1.9473839 -0.76177299 1.630295 -3.3164512e+38
1.9473672 -0.76512349 1.630295 -3.2769374e+38
1.9473506 -0.76847386 1.630295 -3.2371695e+38
1.9473339 -0.77182436 1.630295 nan
1.9562997 -0.77877653 1.6322922 nan
1.956283 -0.78214407 1.6322922 nan
1.9562662 -0.78551161 1.6322922 nan
1.9562495 -0.78887928 1.6322922 nan
1.9652146 -0.79591715 1.6342893 nan
1.9651978 -0.79930186 1.6342893 nan
1.965181 -0.80268657 1.6342893 nan
1.9741459 -0.80979311 1.6362864 nan
1.9651474 -0.80945611 1.6342893 nan
1.9741122 -0.81659687 1.6362864 nan
1.9740952 -0.81999874 1.6362864 nan
1.9830595 -0.82719088 1.6382835 nan
1.9920238 -0.83441734 1.6402807 nan
1.9920068 -0.83785355 1.6402807 nan
1.9919897 -0.84128964 1.6402807 nan
2.0019517 -0.84901357 1.6424997 nan
2.0208941 -0.86065149 1.6467159 nan
2.0308554 -0.86846864 1.648935 nan
2.0625267 -0.53182364 1.6520245 nan
2.0525212 -0.53291297 1.6498245 -3.1177978e+38
2.0425158 -0.53396428 1.6476245 -3.210476e+38
2.0424984 -0.53749377 1.6476245 -3.3033687e+38
2.0324934 -0.53848791 1.6454245 nan
2.0324757 -0.54199839 1.6454245 nan
2.022471 -0.54293537 1.6432245 nan
2.0224538 -0.54642677 1.6432245 nan
2.013448 -0.54756778 1.6412445 nan
2.0134308 -0.55104202 1.6412445 -3.396887e+38
2.0034266 -0.55186665 1.6390445 nan
2.0034094 -0.55532187 1.6390445 nan
2.0033922 -0.55877709 1.6390445 nan
1.9933884 -0.55952549 1.6368445 nan
1.9933714 -0.5629617 1.6368445 nan
1.9933542 -0.56639779 1.6368445 nan
1.9933372 -0.56983393 1.6368445 nan
1.9843324 -0.5707655 1.6348646 nan
1.9843154 -0.57418442 1.6348646 nan
1.9842985 -0.57760346 1.6348646 nan
1.9842815 -0.5810225 1.6348646 nan
1.9842645 -0.58444154 1.6348646 nan
1.9842476 -0.58786047 1.6348646 nan
1.9752434 -0.58867204 1.6328845 nan
1.9752266 -0.5920738 1.6328845 -3.3836436e+38
1.9752097 -0.59547567 1.6328845 -3.3169737e+38
1.9751928 -0.59887755 1.6328845 -3.2767328e+38
1.975176 -0.60227942 1.6328845 -3.2366477e+38
1.9661722 -0.60298812 1.6309046 -3.2231992e+38
1.9661554 -0.60637283 1.6309046 -3.1964072e+38
1.9751253 -0.61248505 1.6328845 -3.2360246e+38
1.9751084 -0.61588693 1.6328845 -3.2763693e+38
1.9750915 -0.61928868 1.6328845 -3.316662e+38
1.9660883 -0.61991167 1.6309046 -3.3434031e+38
1.9750577 -0.62609243 1.6328845 -3.3834884e+38
1.9660547 -0.62668121 1.6309046 nan
1.9660379 -0.63006592 1.6309046 nan
1.9660211 -0.63345063 1.6309046 nan
1.9570184 -0.63397062 1.6289245 nan
1.9570017 -0.63733828 1.6289245 nan
1.956985 -0.64070582 1.6289245 nan
1.9479825 -0.64115739 1.6269445 nan
1.947966 -0.64450777 1.6269445 nan
1.9479493 -0.64785814 1.6269445 -3.3573716e+38
1.9479327 -0.65120864 1.6269445 -3.3161938e+38
1.947916 -0.65455914 1.6269445 -3.2762657e+38
1.9389143 -0.6549077 1.6249645 -3.3427794e+38
1.9388977 -0.65824103 1.6249645 -3.3968846e+38
1.9388812 -0.66157436 1.6249645 nan
1.9298797 -0.66185451 1.6229845 nan
1.9298632 -0.66517055 1.6229845 nan
1.920862 -0.66539919 1.6210046 nan
1.9208456 -0.66869819 1.6210046 nan
1.9208292 -0.67199719 1.6210046 -3.1707065e+38
1.9208128 -0.67529619 1.6210046 -3.2633874e+38
1.9207965 -0.67859519 1.6210046 -3.3431934e+38
1.9207801 -0.68189418 1.6210046 -3.3299017e+38
1.9207637 -0.6851933 1.6210046 -3.3165056e+38
1.9207474 -0.6884923 1.6210046 -3.3032652e+38
1.9207309 -0.69179118 1.6210046 -3.2898689e+38
1.9207146 -0.69509029 1.6210046 -3.303161e+38
1.9206983 -0.69838929 1.6210046 -3.3032133e+38
1.9206818 -0.70168829 1.6210046 -3.3031099e+38
1.9206655 -0.70498729 1.6210046 -3.2899742e+38
1.9206491 -0.70828629 1.6210046 -3.290079e+38
1.9206327 -0.71158528 1.6210046 -3.2901269e+38
1.9206164 -0.71488428 1.6210046 -3.2634864e+38
1.9205999 -0.71818328 1.6210046 -3.2357607e+38
1.9295669 -0.72486126 1.6229845 -3.1815545e+38
1.9295504 -0.72817743 1.6229845 -3.1156645e+38
1.929534 -0.73149359 1.6229845 -3.1427687e+38
1.9295175 -0.73480964 1.6229845 -3.15684e+38
1.9295011 -0.73812592 1.6229845 -3.1839961e+38
1.9384675 -0.74490654 1.6249645 -3.2106868e+38
1.9384511 -0.74823987 1.6249645 -3.2908064e+38
1.9384345 -0.7515732 1.6249645 -3.3570069e+38
1.9384179 -0.75490654 1.6249645 -3.3165058e+38
1.9473839 -0.76177299 1.6269445 -3.2635967e+38
1.9473672 -0.76512349 1.6269445 nan
1.9473506 -0.76847386 1.6269445 nan
1.9473339 -0.77182436 1.6269445 nan
1.9562997 -0.77877653 1.6289245 nan
1.956283 -0.78214407 1.6289245 nan
1.9562662 -0.78551161 1.6289245 nan
1.9562495 -0.78887928 1.6289245 nan
1.9652146 -0.79591715 1.6309046 nan
1.9651978 -0.79930186 1.6309046 nan
1.965181 -0.80268657 1.6309046 nan
1.9651642 -0.8060714 1.6309046 nan
1.9651474 -0.80945611 1.6309046 nan
1.9741122 -0.81659687 1.6328845 nan
1.9740952 -0.81999874 1.6328845 nan
1.9830595 -0.82719088 1.6348646 nan
1.9920238 -0.83441734 1.6368445 nan
1.9920068 -0.83785355 1.6368445 nan
1.9919897 -0.84128964 1.6368445 nan
2.0019517 -0.84901357 1.6390445 nan
2.0119131 -0.8567754 1.6412445 nan
2.0308554 -0.86846864 1.6454245 nan
2.0525389 -0.52936447 1.646276 nan
2.0525212 -0.53291297 1.646276 nan
2.0425158 -0.53396428 1.6440949 -3.3303199e+38
2.0424984 -0.53749377 1.6440949 -3.2112103e+38
2.0324934 -0.53848791 1.641914 nan
2.0324757 -0.54199839 1.641914 nan
2.022471 -0.54293537 1.6397331 nan
2.0224538 -0.54642677 1.6397331 nan
2.013448 -0.54756778 1.6377702 nan
2.0134308 -0.55104202 1.6377702 nan
2.0034266 -0.55186665 1.6355892 nan
2.0034094 -0.55532187 1.6355892 nan
1.9934055 -0.5560894 1.6334083 nan
1.9933884 -0.55952549 1.6334083 nan
1.9933714 -0.5629617 1.6334083 nan
1.9843663 -0.56392741 1.6314454 nan
1.9843494 -0.56734645 1.6314454 nan
1.9843324 -0.5707655 1.6314454 nan
1.9843154 -0.57418442 1.6314454 nan
1.9842985 -0.57760346 1.6314454 nan
1.9842815 -0.5810225 1.6314454 nan
1.9842645 -0.58444154 1.6314454 -3.3838537e+38
1.9842476 -0.58786047 1.6314454 nan
1.9752434 -0.58867204 1.6294826 nan
1.9752266 -0.5920738 1.6294826 -3.3702992e+38
1.9752097 -0.59547567 1.6294826 -3.3170776e+38
1.9751928 -0.59887755 1.6294826 -3.2634922e+38
1.966189 -0.59960341 1.6275197 -3.2233552e+38
1.9661722 -0.60298812 1.6275197 -3.223043e+38
1.9661554 -0.60637283 1.6275197 -3.235972e+38
1.9751253 -0.61248505 1.6294826 -3.2629203e+38
1.9751084 -0.61588693 1.6294826 -3.2899727e+38
1.9750915 -0.61928868 1.6294826 -3.330006e+38
1.9750746 -0.62269068 1.6294826 -3.3701434e+38
1.9750577 -0.62609243 1.6294826 -3.3967288e+38
1.9660547 -0.62668121 1.6275197 nan
1.9660379 -0.63006592 1.6275197 nan
1.9570352 -0.63060308 1.6255569 nan
1.9570184 -0.63397062 1.6255569 nan
1.9570017 -0.63733828 1.6255569 nan
1.956985 -0.64070582 1.6255569 nan
1.9479825 -0.64115739 1.623594 nan
1.947966 -0.64450777 1.623594 nan
1.9479493 -0.64785814 1.623594 -3.1446949e+38
1.9479327 -0.65120864 1.623594 -3.2234077e+38
1.9389309 -0.65157449 1.6216311 -3.302488e+38
1.9389143 -0.6549077 1.6216311 nan
1.9388977 -0.65824103 1.6216311 nan
1.9298961 -0.65853822 1.6196682 nan
1.9298797 -0.66185451 1.6196682 nan
1.9298632 -0.66517055 1.6196682 nan
1.920862 -0.66539919 1.6177055 nan
1.9208456 -0.66869819 1.6177055 -3.3703487e+38
1.9208292 -0.67199719 1.6177055 -3.2771474e+38
1.9208128 -0.67529619 1.6177055 -3.316765e+38
1.9207965 -0.67859519 1.6177055 -3.3566418e+38
1.9207801 -0.68189418 1.6177055 -3.3431938e+38
1.9207637 -0.6851933 1.6177055 -3.3431419e+38
1.9207474 -0.6884923 1.6177055 -3.3431419e+38
1.9207309 -0.69179118 1.6177055 -3.3297977e+38
1.9207146 -0.69509029 1.6177055 -3.3297977e+38
1.9206983 -0.69838929 1.6177055 -3.3164539e+38
1.9206818 -0.70168829 1.6177055 -3.303162e+38
1.9206655 -0.70498729 1.6177055 -3.2899736e+38
1.9206491 -0.70828629 1.6177055 -3.2899736e+38
1.9206327 -0.71158528 1.6177055 -3.2899719e+38
1.9206164 -0.71488428 1.6177055 -3.329951e+38
1.9295833 -0.7215451 1.6196682 -3.3828605e+38
1.9295669 -0.72486126 1.6196682 -3.2488992e+38
1.9295504 -0.72817743 1.6196682 -3.1292172e+38
1.929534 -0.73149359 1.6196682 -3.1299443e+38
1.9385006 -0.73824 1.6216311 -3.1310345e+38
1.9384841 -0.74157333 1.6216311 -3.170859e+38
1.9384675 -0.74490654 1.6216311 -3.2110492e+38
1.9384511 -0.74823987 1.6216311 -3.2639084e+38
1.9384345 -0.7515732 1.6216311 -3.3035784e+38
1.9474005 -0.75842261 1.623594 -3.3432481e+38
1.9473839 -0.76177299 1.623594 -3.3832303e+38
1.9473672 -0.76512349 1.623594 nan
1.9473506 -0.76847386 1.623594 nan
1.9473339 -0.77182436 1.623594 nan
1.9562997 -0.77877653 1.6255569 nan
1.956283 -0.78214407 1.6255569 nan
1.9562662 -0.78551161 1.6255569 nan
1.9562495 -0.78887928 1.6255569 nan
1.9652146 -0.79591715 1.6275197 nan
1.9651978 -0.79930186 1.6275197 nan
1.965181 -0.80268657 1.6275197 nan
1.9651642 -0.8060714 1.6275197 nan
1.9651474 -0.80945611 1.6275197 nan
1.9651306 -0.81284082 1.6275197 nan
1.9740952 -0.81999874 1.6294826 nan
1.9830595 -0.82719088 1.6314454 nan
1.9830426 -0.83060992 1.6314454 nan
1.9920068 -0.83785355 1.6334083 nan
1.9919897 -0.84128964 1.6334083 nan
2.0019517 -0.84901357 1.6355892 nan
2.0119131 -0.8567754 1.6377702 nan
2.040834 -0.87279439 1.6440949 nan
2.0425508 -0.5269053 1.6405654 nan
2.0425334 -0.53043485 1.6405654 nan
2.0425158 -0.53396428 1.6405654 nan
2.0325108 -0.5349775 1.6384035 -3.117956e+38
2.0324934 -0.53848791 1.6384035 nan
2.0224884 -0.53944397 1.6362417 nan
2.022471 -0.54293537 1.6362417 nan
2.0224538 -0.54642677 1.6362417 nan
2.013448 -0.54756778 1.6342959 nan
2.0134308 -0.55104202 1.6342959 nan
2.0034266 -0.55186665 1.632134 nan
1.9934225 -0.55265319 1.6299721 nan
1.9934055 -0.5560894 1.6299721 nan
1.9933884 -0.55952549 1.6299721 nan
1.9843833 -0.56050843 1.6280265 nan
1.9843663 -0.56392741 1.6280265 nan
1.9843494 -0.56734645 1.6280265 nan
1.9843324 -0.5707655 1.6280265 nan
1.9843154 -0.57418442 1.6280265 nan
1.9842985 -0.57760346 1.6280265 nan
1.9842815 -0.5810225 1.6280265 nan
1.9842645 -0.58444154 1.6280265 -3.1976058e+38
1.9842476 -0.58786047 1.6280265 -3.3172358e+38
1.9752434 -0.58867204 1.6260808 nan
1.9752266 -0.5920738 1.6260808 -3.3702467e+38
1.9752097 -0.59547567 1.6260808 -3.3034731e+38
1.9751928 -0.59887755 1.6260808 -3.2632841e+38
1.975176 -0.60227942 1.6260808 -3.2099069e+38
1.9661722 -0.60298812 1.624135 -3.2361278e+38
1.9751421 -0.60908318 1.6260808 -3.2628164e+38
1.9751253 -0.61248505 1.6260808 -3.289661e+38
1.9751084 -0.61588693 1.6260808 -3.3032654e+38
1.9750915 -0.61928868 1.6260808 -3.3432984e+38
1.9750746 -0.62269068 1.6260808 -3.383384e+38
1.9750577 -0.62609243 1.6260808 nan
1.9660547 -0.62668121 1.624135 nan
1.9660379 -0.63006592 1.624135 nan
1.9570352 -0.63060308 1.6221893 nan
1.9570184 -0.63397062 1.6221893 nan
1.9570017 -0.63733828 1.6221893 nan
1.9479992 -0.63780689 1.6202435 nan
1.9479825 -0.64115739 1.6202435 nan
1.947966 -0.64450777 1.6202435 -3.3832836e+38
1.9479493 -0.64785814 1.6202435 -2.9312921e+38
1.9389473 -0.64824116 1.6182978 -3.1301553e+38
1.9389309 -0.65157449 1.6182978 -3.3165086e+38
1.929929 -0.65190601 1.6163521 nan
1.9299126 -0.65522218 1.6163521 nan
1.9298961 -0.65853822 1.6163521 nan
1.9208947 -0.6588012 1.6144063 nan
1.9208784 -0.6621002 1.6144063 nan
1.920862 -0.66539919 1.6144063 -3.2240326e+38
1.9208456 -0.66869819 1.6144063 -3.3032113e+38
1.9208292 -0.67199719 1.6144063 -3.3699327e+38
1.9208128 -0.67529619 1.6144063 -3.3699333e+38
1.9207965 -0.67859519 1.6144063 -3.3564855e+38
1.9207801 -0.68189418 1.6144063 -3.3697262e+38
1.9207637 -0.6851933 1.6144063 -3.3697781e+38
1.9207474 -0.6884923 1.6144063 -3.3698301e+38
1.9207309 -0.69179118 1.6144063 -3.3698303e+38
1.9207146 -0.69509029 1.6144063 -3.3564865e+38
1.9206983 -0.69838929 1.6144063 -3.3297983e+38
1.9206818 -0.70168829 1.6144063 -3.3031101e+38
1.9206655 -0.70498729 1.6144063 -3.2764736e+38
1.9206491 -0.70828629 1.6144063 -3.2764736e+38
1.9296162 -0.71491289 1.6163521 -3.2767324e+38
1.9295998 -0.71822894 1.6163521 -3.3967775e+38
1.9295833 -0.7215451 1.6163521 nan
1.9295669 -0.72486126 1.6163521 -3.3284972e+38
1.9295504 -0.72817743 1.6163521 -3.1429243e+38
1.9385172 -0.73490667 1.6182978 -3.1299952e+38
1.9385006 -0.73824 1.6182978 -3.1037741e+38
1.9384841 -0.74157333 1.6182978 -3.157255e+38
1.9384675 -0.74490654 1.6182978 -3.2105292e+38
1.9384511 -0.74823987 1.6182978 -3.2369075e+38
1.9384345 -0.7515732 1.6182978 -3.2503048e+38
1.9474005 -0.75842261 1.6202435 -3.3697291e+38
1.9473839 -0.76177299 1.6202435 nan
1.9473672 -0.76512349 1.6202435 nan
1.9473506 -0.76847386 1.6202435 nan
1.9473339 -0.77182436 1.6202435 nan
1.9473174 -0.77517474 1.6202435 nan
1.956283 -0.78214407 1.6221893 nan
1.9562662 -0.78551161 1.6221893 nan
1.9562495 -0.78887928 1.6221893 nan
1.9652146 -0.79591715 1.624135 nan
1.9651978 -0.79930186 1.624135 nan
1.965181 -0.80268657 1.624135 nan
1.9651642 -0.8060714 1.624135 nan
1.9561659 -0.80571711 1.6221893 nan
1.9651306 -0.81284082 1.624135 nan
1.9651138 -0.81622553 1.624135 nan
1.9740783 -0.8234005 1.6260808 nan
1.9830426 -0.83060992 1.6280265 nan
1.9830257 -0.83402896 1.6280265 nan
1.9919897 -0.84128964 1.6299721 nan
1.9919727 -0.84472585 1.6299721 nan
2.0119131 -0.8567754 1.6342959 nan
2.0118959 -0.86024976 1.6342959 nan
2.0118787 -0.86372399 1.6342959 nan
2.0525563 -0.52581596 1.6391788 nan
2.0425508 -0.5269053 1.637036 nan
2.0425334 -0.53043485 1.637036 nan
2.0425158 -0.53396428 1.637036 nan
2.0325108 -0.5349775 1.6348931 nan
2.0324934 -0.53848791 1.6348931 nan
2.0224884 -0.53944397 1.6327503 nan
2.022471 -0.54293537 1.6327503 nan
2.0134652 -0.54409355 1.6308217 nan
2.013448 -0.54756778 1.6308217 nan
2.0034437 -0.54841149 1.6286788 nan
1.9934396 -0.5492171 1.6265359 nan
1.9934225 -0.55265319 1.6265359 nan
1.9934055 -0.5560894 1.6265359 nan
1.9933884 -0.55952549 1.6265359 nan
1.9843833 -0.56050843 1.6246073 nan
1.9843663 -0.56392741 1.6246073 nan
1.9843494 -0.56734645 1.6246073 nan
1.9843324 -0.5707655 1.6246073 nan
1.9843154 -0.57418442 1.6246073 nan
1.9842985 -0.57760346 1.6246073 nan
1.9842815 -0.5810225 1.6246073 nan
1.9842645 -0.58444154 1.6246073 -3.3304248e+38
1.9752604 -0.58527005 1.6226788 -3.3571122e+38
1.9752434 -0.58867204 1.6226788 -3.3968318e+38
1.9752266 -0.5920738 1.6226788 -3.3433498e+38
1.9752097 -0.59547567 1.6226788 -3.2765245e+38
1.9751928 -0.59887755 1.6226788 -3.2498874e+38
1.975176 -0.60227942 1.6226788 -3.223199e+38
1.975159 -0.6056813 1.6226788 -3.2363874e+38
1.9751421 -0.60908318 1.6226788 -3.2629726e+38
1.9751253 -0.61248505 1.6226788 -3.2897653e+38
1.9751084 -0.61588693 1.6226788 -3.3299021e+38
1.9750915 -0.61928868 1.6226788 -3.3699871e+38
1.9660883 -0.61991167 1.6207502 nan
1.9660715 -0.6232965 1.6207502 nan
1.9660547 -0.62668121 1.6207502 nan
1.9570519 -0.62723553 1.6188216 nan
1.9570352 -0.63060308 1.6188216 nan
1.9570184 -0.63397062 1.6188216 nan
1.9480158 -0.63445652 1.6168931 nan
1.9479992 -0.63780689 1.6168931 nan
1.9479825 -0.64115739 1.6168931 nan
1.947966 -0.64450777 1.6168931 -3.3835951e+38
1.9389639 -0.64490783 1.6149645 -3.05056e+38
1.9389473 -0.64824116 1.6149645 -3.290235e+38
1.9299455 -0.64858985 1.6130359 nan
1.929929 -0.65190601 1.6130359 nan
1.9299126 -0.65522218 1.6130359 nan
1.9298961 -0.65853822 1.6130359 nan
1.9208947 -0.6588012 1.6111073 nan
1.9208784 -0.6621002 1.6111073 -3.370198e+38
1.920862 -0.66539919 1.6111073 -3.3031101e+38
1.9208456 -0.66869819 1.6111073 -3.343139e+38
1.9208292 -0.67199719 1.6111073 -3.3831722e+38
1.9208128 -0.67529619 1.6111073 -3.3697246e+38
1.9207965 -0.67859519 1.6111073 -3.3562252e+38
1.9207801 -0.68189418 1.6111073 -3.3563816e+38
1.9207637 -0.6851933 1.6111073 -3.3431415e+38
1.9207474 -0.6884923 1.6111073 -3.3433492e+38
1.9207309 -0.69179118 1.6111073 -3.3434536e+38
1.9207146 -0.69509029 1.6111073 -3.330006e+38
1.9206983 -0.69838929 1.6111073 -3.3165579e+38
1.9206818 -0.70168829 1.6111073 -3.303006e+38
1.9206655 -0.70498729 1.6111073 -3.2895582e+38
1.9206491 -0.70828629 1.6111073 -3.2629736e+38
1.9296162 -0.71491289 1.6130359 -3.2366487e+38
1.9295998 -0.71822894 1.6130359 -3.330006e+38
1.9295833 -0.7215451 1.6130359 nan
1.9295669 -0.72486126 1.6130359 -3.3827565e+38
1.9385338 -0.73157346 1.6149645 -3.342879e+38
1.9385172 -0.73490667 1.6149645 -3.2763651e+38
1.9385006 -0.73824 1.6149645 -3.2094887e+38
1.9384841 -0.74157333 1.6149645 -3.2768332e+38
1.9384675 -0.74490654 1.6149645 -3.3565879e+38
1.9384511 -0.74823987 1.6149645 -3.3303157e+38
1.9384345 -0.7515732 1.6149645 -3.3169216e+38
1.9384179 -0.75490654 1.6149645 -3.3699887e+38
1.9473839 -0.76177299 1.6168931 nan
1.9383848 -0.76157308 1.6149645 nan
1.9383683 -0.76490641 1.6149645 nan
1.9473339 -0.77182436 1.6168931 nan
1.9473174 -0.77517474 1.6168931 nan
1.9473007 -0.77852511 1.6168931 nan
1.9562662 -0.78551161 1.6188216 nan
1.9562495 -0.78887928 1.6188216 nan
1.9562328 -0.79224682 1.6188216 nan
1.9562161 -0.79561436 1.6188216 nan
1.9561993 -0.7989819 1.6188216 nan
1.9651642 -0.8060714 1.6207502 nan
1.9561659 -0.80571711 1.6188216 nan
1.9651306 -0.81284082 1.6207502 nan
1.9651138 -0.81622553 1.6207502 nan
1.9740783 -0.8234005 1.6226788 nan
1.9830426 -0.83060992 1.6246073 nan
1.9830257 -0.83402896 1.6246073 nan
1.9830086 -0.83744788 1.6246073 nan
1.9919727 -0.84472585 1.6265359 nan
2.0208941 -0.86065149 1.6327503 nan
2.0208766 -0.86414289 1.6327503 nan
2.0525563 -0.52581596 1.6356302 nan
2.0425508 -0.5269053 1.6335064 nan
2.0425334 -0.53043485 1.6335064 -3.144646e+38
2.0425158 -0.53396428 1.6335064 nan
2.0325108 -0.5349775 1.6313826 nan
2.0324934 -0.53848791 1.6313826 nan
2.0224884 -0.53944397 1.6292588 nan
2.022471 -0.54293537 1.6292588 nan
2.0224538 -0.54642677 1.6292588 nan
2.013448 -0.54756778 1.6273474 nan
2.0134308 -0.55104202 1.6273474 nan
2.0034266 -0.55186665 1.6252235 nan
1.9934225 -0.55265319 1.6230998 nan
1.9934055 -0.5560894 1.6230998 nan
1.9933884 -0.55952549 1.6230998 nan
1.9843833 -0.56050843 1.6211883 nan
1.9843663 -0.56392741 1.6211883 nan
1.9843494 -0.56734645 1.6211883 nan
1.9843324 -0.5707655 1.6211883 nan
1.9843154 -0.57418442 1.6211883 nan
1.975311 -0.57506454 1.6192769 nan
1.9752941 -0.57846642 1.6192769 nan
1.9752773 -0.58186829 1.6192769 nan
1.9752604 -0.58527005 1.6192769 nan
1.9752434 -0.58867204 1.6192769 -3.3567473e+38
1.9752266 -0.5920738 1.6192769 -3.3031616e+38
1.9662226 -0.592834 1.6173655 -3.2499395e+38
1.9751928 -0.59887755 1.6192769 -3.2498349e+38
1.975176 -0.60227942 1.6192769 -3.2365428e+38
1.975159 -0.6056813 1.6192769 -3.2497316e+38
1.9751421 -0.60908318 1.6192769 -3.2498361e+38
1.9751253 -0.61248505 1.6192769 -3.3031097e+38
1.9751084 -0.61588693 1.6192769 -3.3431946e+38
1.9750915 -0.61928868 1.6192769 -3.3832795e+38
1.9660883 -0.61991167 1.6173655 nan
1.9660715 -0.6232965 1.6173655 nan
1.9660547 -0.62668121 1.6173655 nan
1.9570519 -0.62723553 1.6154541 nan
1.9570352 -0.63060308 1.6154541 nan
1.9480325 -0.63110602 1.6135426 nan
1.9480158 -0.63445652 1.6135426 nan
1.9479992 -0.63780689 1.6135426 nan
1.9479825 -0.64115739 1.6135426 nan
1.9389805 -0.64157462 1.6116312 -3.3830755e+38
1.9389639 -0.64490783 1.6116312 -3.1574698e+38
1.9299619 -0.64527369 1.6097198 nan
1.9299455 -0.64858985 1.6097198 nan
1.929929 -0.65190601 1.6097198 nan
1.9299126 -0.65522218 1.6097198 nan
1.9298961 -0.65853822 1.6097198 nan
1.9298797 -0.66185451 1.6097198 -3.1309363e+38
1.9208784 -0.6621002 1.6078084 -3.2502012e+38
1.920862 -0.66539919 1.6078084 -3.3696743e+38
1.9208456 -0.66869819 1.6078084 -3.383069e+38
1.9208292 -0.67199719 1.6078084 -3.3963094e+38
1.9208128 -0.67529619 1.6078084 -3.3828615e+38
1.9207965 -0.67859519 1.6078084 -3.3563814e+38
1.9207801 -0.68189418 1.6078084 -3.3431415e+38
1.9207637 -0.6851933 1.6078084 -3.3167129e+38
1.9207474 -0.6884923 1.6078084 -3.3169208e+38
1.9207309 -0.69179118 1.6078084 -3.3168173e+38
1.9207146 -0.69509029 1.6078084 -3.3167656e+38
1.9206983 -0.69838929 1.6078084 -3.3031095e+38
1.9206818 -0.70168829 1.6078084 -3.3027458e+38
1.9206655 -0.70498729 1.6078084 -3.3027452e+38
1.9296327 -0.71159661 1.6097198 -3.2492641e+38
1.9385999 -0.71824026 1.6116312 -3.1964575e+38
1.9385834 -0.72157359 1.6116312 -3.2500929e+38
1.9385668 -0.7249068 1.6116312 -3.3034721e+38
1.9385502 -0.72824013 1.6116312 nan
1.9385338 -0.73157346 1.6116312 nan
1.9385172 -0.73490667 1.6116312 nan
1.9385006 -0.73824 1.6116312 -3.303577e+38
1.9384841 -0.74157333 1.6116312 -3.3971941e+38
1.9384675 -0.74490654 1.6116312 nan
1.9384511 -0.74823987 1.6116312 nan
1.9384345 -0.7515732 1.6116312 -3.3836428e+38
1.9474005 -0.75842261 1.6135426 -3.3700402e+38
1.9473839 -0.76177299 1.6135426 -3.3569568e+38
1.9473672 -0.76512349 1.6135426 nan
1.9383683 -0.76490641 1.6116312 nan
1.9473339 -0.77182436 1.6135426 nan
1.9473174 -0.77517474 1.6135426 -3.3577385e+38
1.9473007 -0.77852511 1.6135426 nan
1.9562662 -0.78551161 1.6154541 nan
1.9562495 -0.78887928 1.6154541 nan
1.9562328 -0.79224682 1.6154541 nan
1.9562161 -0.79561436 1.6154541 nan
1.9561993 -0.7989819 1.6154541 nan
1.9561826 -0.80234957 1.6154541 nan
1.9561659 -0.80571711 1.6154541 nan
1.9651306 -0.81284082 1.6173655 nan
1.9651138 -0.81622553 1.6173655 nan
1.965097 -0.81961024 1.6173655 nan
1.9740615 -0.82680237 1.6192769 nan
1.9830257 -0.83402896 1.6211883 nan
1.9830086 -0.83744788 1.6211883 nan
1.9919727 -0.84472585 1.6230998 nan
1.9919556 -0.84816194 1.6230998 nan
1.9919386 -0.85159814 1.6230998 nan
2.0525563 -0.52581596 1.6320816 nan
2.0425508 -0.5269053 1.6299769 nan
2.0425334 -0.53043485 1.6299769 -3.2230497e+38
2.0325282 -0.53146708 1.6278721 nan
2.0325108 -0.5349775 1.6278721 nan
2.0225058 -0.53595257 1.6257674 nan
2.0224884 -0.53944397 1.6257674 nan
2.022471 -0.54293537 1.6257674 nan
2.0134652 -0.54409355 1.6238731 nan
2.013448 -0.54756778 1.6238731 nan
2.0034437 -0.54841149 1.6217684 nan
2.0034266 -0.55186665 1.6217684 nan
1.9934225 -0.55265319 1.6196636 nan
1.9934055 -0.5560894 1.6196636 nan
1.9933884 -0.55952549 1.6196636 nan
1.9843833 -0.56050843 1.6177692 nan
1.9843663 -0.56392741 1.6177692 nan
1.9843494 -0.56734645 1.6177692 nan
1.9843324 -0.5707655 1.6177692 nan
1.9843154 -0.57418442 1.6177692 nan
1.975311 -0.57506454 1.615875 nan
1.9752941 -0.57846642 1.615875 nan
1.9752773 -0.58186829 1.615875 nan
1.9752604 -0.58527005 1.615875 -3.3833327e+38
1.9752434 -0.58867204 1.615875 -3.3431433e+38
1.9752266 -0.5920738 1.615875 -3.3031616e+38
1.9662226 -0.592834 1.6139808 -3.2498874e+38
1.9751928 -0.59887755 1.615875 -3.2365939e+38
1.975176 -0.60227942 1.615875 -3.21001e+38
1.975159 -0.6056813 1.615875 -3.2100104e+38
1.9751421 -0.60908318 1.615875 -3.2233554e+38
1.9751253 -0.61248505 1.615875 -3.2500444e+38
1.9751084 -0.61588693 1.615875 -3.2767853e+38
1.9750915 -0.61928868 1.615875 -3.3300068e+38
1.9750746 -0.62269068 1.615875 -3.3699361e+38
1.9660715 -0.6232965 1.6139808 -3.3833848e+38
1.9660547 -0.62668121 1.6139808 -3.3970405e+38
1.9570519 -0.62723553 1.6120864 nan
1.9570352 -0.63060308 1.6120864 nan
1.9570184 -0.63397062 1.6120864 nan
1.9480158 -0.63445652 1.6101921 nan
1.9479992 -0.63780689 1.6101921 nan
1.9479825 -0.64115739 1.6101921 nan
1.9389805 -0.64157462 1.6082978 nan
1.9389639 -0.64490783 1.6082978 -3.3703027e+38
1.9299619 -0.64527369 1.6064036 nan
1.9299455 -0.64858985 1.6064036 nan
1.929929 -0.65190601 1.6064036 nan
1.9299126 -0.65522218 1.6064036 nan
1.9298961 -0.65853822 1.6064036 nan
1.9208947 -0.6588012 1.6045092 -3.2630259e+38
1.9208784 -0.6621002 1.6045092 -3.3163999e+38
1.920862 -0.66539919 1.6045092 -3.3695696e+38
1.9208456 -0.66869819 1.6045092 -3.3696739e+38
1.9208292 -0.67199719 1.6045092 -3.3829141e+38
1.9208128 -0.67529619 1.6045092 -3.3563812e+38
1.9207965 -0.67859519 1.6045092 -3.3299009e+38
1.9207801 -0.68189418 1.6045092 -3.3167129e+38
1.9207637 -0.6851933 1.6045092 -3.3168171e+38
1.9207474 -0.6884923 1.6045092 -3.3168173e+38
1.9207309 -0.69179118 1.6045092 -3.3167656e+38
1.9207146 -0.69509029 1.6045092 -3.3033695e+38
1.9206983 -0.69838929 1.6045092 -3.2897131e+38
1.9206818 -0.70168829 1.6045092 -3.2897642e+38
1.9296492 -0.70828056 1.6064036 -3.3029517e+38
1.9386164 -0.71490705 1.6082978 -3.262918e+38
1.9385999 -0.71824026 1.6082978 -3.2358641e+38
1.9385834 -0.72157359 1.6082978 -3.2632255e+38
1.9385668 -0.7249068 1.6082978 -3.2900764e+38
1.9385502 -0.72824013 1.6082978 -3.3968365e+38
1.9475169 -0.7349695 1.6101921 nan
1.9385172 -0.73490667 1.6082978 nan
1.9385006 -0.73824 1.6082978 -3.357373e+38
1.9384841 -0.74157333 1.6082978 -3.3705089e+38
1.9384675 -0.74490654 1.6082978 -3.3971442e+38
1.9384511 -0.74823987 1.6082978 nan
1.9384345 -0.7515732 1.6082978 nan
1.9474005 -0.75842261 1.6101921 nan
1.9473839 -0.76177299 1.6101921 nan
1.9473672 -0.76512349 1.6101921 nan
1.9383683 -0.76490641 1.6082978 nan
1.9473339 -0.77182436 1.6101921 nan
1.9473174 -0.77517474 1.6101921 nan
1.9473007 -0.77852511 1.6101921 nan
1.9472841 -0.78187561 1.6101921 nan
1.9562495 -0.78887928 1.6120864 nan
1.9562328 -0.79224682 1.6120864 nan
1.9562161 -0.79561436 1.6120864 nan
1.9561993 -0.7989819 1.6120864 nan
1.9561826 -0.80234957 1.6120864 nan
1.9561659 -0.80571711 1.6120864 nan
1.9561492 -0.80908465 1.6120864 nan
1.9651138 -0.81622553 1.6139808 nan
1.965097 -0.81961024 1.6139808 nan
1.9740615 -0.82680237 1.615875 nan
1.9830257 -0.83402896 1.6177692 nan
1.9830086 -0.83744788 1.6177692 nan
1.9919727 -0.84472585 1.6196636 nan
1.9919556 -0.84816194 1.6196636 nan
1.9919386 -0.85159814 1.6196636 nan
2.0725503 -0.5271095 1.6327045 nan
2.0525563 -0.52581596 1.6285331 nan
2.0425508 -0.5269053 1.6264474 nan
2.0425334 -0.53043485 1.6264474 -3.2911226e+38
2.0325282 -0.53146708 1.6243616 nan
2.0325108 -0.5349775 1.6243616 nan
2.0225058 -0.53595257 1.6222759 nan
2.0224884 -0.53944397 1.6222759 nan
2.0134826 -0.54061925 1.6203988 nan
2.0134652 -0.54409355 1.6203988 nan
2.013448 -0.54756778 1.6203988 nan
2.0034437 -0.54841149 1.6183131 nan
2.0034266 -0.55186665 1.6183131 nan
1.9934225 -0.55265319 1.6162274 nan
1.9934055 -0.5560894 1.6162274 nan
1.9933884 -0.55952549 1.6162274 nan
1.9843833 -0.56050843 1.6143502 nan
1.9843663 -0.56392741 1.6143502 nan
1.9843494 -0.56734645 1.6143502 nan
1.9843324 -0.5707655 1.6143502 nan
1.9843154 -0.57418442 1.6143502 nan
1.9842985 -0.57760346 1.6143502 nan
1.9752941 -0.57846642 1.612473 nan
1.9752773 -0.58186829 1.612473 nan
1.9752604 -0.58527005 1.612473 -3.3691046e+38
1.9752434 -0.58867204 1.612473 -3.3296425e+38
1.9752266 -0.5920738 1.612473 -3.289817e+38
1.9662226 -0.592834 1.6105959 -3.2499393e+38
1.9662058 -0.59621871 1.6105959 -3.2233542e+38
1.975176 -0.60227942 1.612473 -3.1834777e+38
1.975159 -0.6056813 1.612473 -3.1834781e+38
1.9751421 -0.60908318 1.612473 -3.1834785e+38
1.9751253 -0.61248505 1.612473 -3.1968231e+38
1.9751084 -0.61588693 1.612473 -3.2102193e+38
1.9750915 -0.61928868 1.612473 -3.2633886e+38
1.9750746 -0.62269068 1.612473 -3.3166632e+38
1.9660715 -0.6232965 1.6105959 -3.3434051e+38
1.9660547 -0.62668121 1.6105959 -3.3570611e+38
1.9570519 -0.62723553 1.6087188 nan
1.9570352 -0.63060308 1.6087188 nan
1.9480325 -0.63110602 1.6068417 nan
1.9480158 -0.63445652 1.6068417 nan
1.9479992 -0.63780689 1.6068417 nan
1.9479825 -0.64115739 1.6068417 nan
1.9389805 -0.64157462 1.6049645 nan
1.9389639 -0.64490783 1.6049645 nan
1.9299619 -0.64527369 1.6030874 nan
1.9299455 -0.64858985 1.6030874 nan
1.929929 -0.65190601 1.6030874 nan
1.9299126 -0.65522218 1.6030874 nan
1.9298961 -0.65853822 1.6030874 nan
1.9298797 -0.66185451 1.6030874 -3.3829165e+38
1.9298632 -0.66517055 1.6030874 -3.3828623e+38
1.920862 -0.66539919 1.6012102 -3.3695701e+38
1.9208456 -0.66869819 1.6012102 -3.3696222e+38
1.9208292 -0.67199719 1.6012102 -3.3563818e+38
1.9208128 -0.67529619 1.6012102 -3.3299013e+38
1.9207965 -0.67859519 1.6012102 -3.2900768e+38
1.9207801 -0.68189418 1.6012102 -3.3034735e+38
1.9207637 -0.6851933 1.6012102 -3.3034735e+38
1.9207474 -0.6884923 1.6012102 -3.3033699e+38
1.9207309 -0.69179118 1.6012102 -3.3034216e+38
1.9207146 -0.69509029 1.6012102 -3.2901291e+38
1.9206983 -0.69838929 1.6012102 -3.2767845e+38
1.9296657 -0.7049644 1.6030874 -3.2901804e+38
1.9296492 -0.70828056 1.6030874 -3.2900756e+38
1.9386164 -0.71490705 1.6049645 -3.2767825e+38
1.9385999 -0.71824026 1.6049645 -3.2632282e+38
1.9385834 -0.72157359 1.6049645 -3.2635373e+38
1.9475502 -0.72826862 1.6068417 -3.2636456e+38
1.9475335 -0.73161912 1.6068417 -3.3703517e+38
1.9385338 -0.73157346 1.6049645 nan
1.9385172 -0.73490667 1.6049645 nan
1.9385006 -0.73824 1.6049645 -3.3968852e+38
1.9384841 -0.74157333 1.6049645 -3.3569562e+38
1.9384675 -0.74490654 1.6049645 -3.303838e+38
1.9384511 -0.74823987 1.6049645 -3.3833832e+38
1.9384345 -0.7515732 1.6049645 nan
1.9384179 -0.75490654 1.6049645 nan
1.9384013 -0.75823987 1.6049645 nan
1.9383848 -0.76157308 1.6049645 nan
1.9383683 -0.76490641 1.6049645 nan
1.9383518 -0.76823974 1.6049645 nan
1.9473174 -0.77517474 1.6068417 nan
1.9473007 -0.77852511 1.6068417 nan
1.9472841 -0.78187561 1.6068417 nan
1.9562495 -0.78887928 1.6087188 nan
1.9562328 -0.79224682 1.6087188 nan
1.9562161 -0.79561436 1.6087188 nan
1.9561993 -0.7989819 1.6087188 nan
1.9561826 -0.80234957 1.6087188 nan
1.9561659 -0.80571711 1.6087188 nan
1.9561492 -0.80908465 1.6087188 nan
1.9651138 -0.81622553 1.6105959 nan
1.965097 -0.81961024 1.6105959 nan
1.9740615 -0.82680237 1.612473 nan
1.9830257 -0.83402896 1.6143502 nan
1.9830086 -0.83744788 1.6143502 nan
1.9919727 -0.84472585 1.6162274 nan
1.9919556 -0.84816194 1.6162274 nan
1.9919386 -0.85159814 1.6162274 nan
2.0935433 -0.52856708 1.6334579 nan
2.0725503 -0.5271095 1.6291178 nan
2.0625446 -0.52825606 1.6270511 nan
2.0525389 -0.52936447 1.6249845 nan
2.0525212 -0.53291297 1.6249845 nan
2.0425158 -0.53396428 1.6229179 nan
2.0325108 -0.5349775 1.6208512 nan
2.0225058 -0.53595257 1.6187845 nan
2.0224884 -0.53944397 1.6187845 nan
2.0134826 -0.54061925 1.6169245 nan
2.0134652 -0.54409355 1.6169245 nan
2.0034609 -0.54495633 1.6148579 nan
2.0034437 -0.54841149 1.6148579 nan
2.0034266 -0.55186665 1.6148579 nan
1.9934225 -0.55265319 1.6127912 nan
1.9934055 -0.5560894 1.6127912 nan
1.9933884 -0.55952549 1.6127912 nan
1.9843833 -0.56050843 1.6109312 nan
1.9843663 -0.56392741 1.6109312 nan
1.9843494 -0.56734645 1.6109312 nan
1.9843324 -0.5707655 1.6109312 nan
1.9843154 -0.57418442 1.6109312 nan
1.975311 -0.57506454 1.6090711 nan
1.9752941 -0.57846642 1.6090711 nan
1.9752773 -0.58186829 1.6090711 nan
1.9752604 -0.58527005 1.6090711 -3.3829666e+38
1.9752434 -0.58867204 1.6090711 -3.3430895e+38
1.9752266 -0.5920738 1.6090711 -3.3032644e+38
1.9662226 -0.592834 1.6072111 -3.2633355e+38
1.9662058 -0.59621871 1.6072111 -3.2367507e+38
1.975176 -0.60227942 1.6090711 -3.2101146e+38
1.975159 -0.6056813 1.6090711 -3.1967708e+38
1.9751421 -0.60908318 1.6090711 -3.1967191e+38
1.9751253 -0.61248505 1.6090711 -3.2234075e+38
1.9751084 -0.61588693 1.6090711 -3.2500436e+38
1.9750915 -0.61928868 1.6090711 -3.3031084e+38
1.9660883 -0.61991167 1.6072111 -3.3563841e+38
1.9660715 -0.6232965 1.6072111 nan
1.9570686 -0.62386787 1.6053512 nan
1.9570519 -0.62723553 1.6053512 nan
1.9570352 -0.63060308 1.6053512 nan
1.9480325 -0.63110602 1.6034912 nan
1.9480158 -0.63445652 1.6034912 nan
1.9479992 -0.63780689 1.6034912 nan
1.938997 -0.63824129 1.6016312 nan
1.9389805 -0.64157462 1.6016312 nan
1.9299784 -0.64195752 1.5997711 nan
1.9299619 -0.64527369 1.5997711 nan
1.9299455 -0.64858985 1.5997711 nan
1.929929 -0.65190601 1.5997711 nan
1.9299126 -0.65522218 1.5997711 nan
1.9298961 -0.65853822 1.5997711 nan
1.9298797 -0.66185451 1.5997711 -3.3695725e+38
1.9298632 -0.66517055 1.5997711 -3.3695709e+38
1.920862 -0.66539919 1.5979111 -3.3562265e+38
1.9208456 -0.66869819 1.5979111 -3.3562782e+38
1.9208292 -0.67199719 1.5979111 -3.3430382e+38
1.9208128 -0.67529619 1.5979111 -3.3165577e+38
1.9207965 -0.67859519 1.5979111 -3.303422e+38
1.9207801 -0.68189418 1.5979111 -3.3034226e+38
1.9207637 -0.6851933 1.5979111 -3.3034224e+38
1.9207474 -0.6884923 1.5979111 -3.3034222e+38
1.9207309 -0.69179118 1.5979111 -3.3034737e+38
1.9296986 -0.69833207 1.5997711 -3.2901808e+38
1.9296821 -0.70164824 1.5997711 -3.290233e+38
1.9296657 -0.7049644 1.5997711 -3.2503561e+38
1.938633 -0.71157372 1.6016312 -3.2239265e+38
1.9386164 -0.71490705 1.6016312 -3.2099065e+38
1.9385999 -0.71824026 1.6016312 -3.2103193e+38
1.9385834 -0.72157359 1.6016312 -3.1967126e+38
1.9385668 -0.7249068 1.6016312 -3.1971304e+38
1.9385502 -0.72824013 1.6016312 -3.2633864e+38
1.9385338 -0.73157346 1.6016312 -3.3434013e+38
1.9385172 -0.73490667 1.6016312 -3.3431433e+38
1.9295175 -0.73480964 1.5997711 -3.3565915e+38
1.9295011 -0.73812592 1.5997711 -3.3302149e+38
1.9294846 -0.74144197 1.5997711 -3.3037857e+38
1.9294682 -0.74475813 1.5997711 -3.3036295e+38
1.9294517 -0.74807429 1.5997711 -3.317078e+38
1.9384179 -0.75490654 1.6016312 nan
1.9384013 -0.75823987 1.6016312 nan
1.9383848 -0.76157308 1.6016312 nan
1.9383683 -0.76490641 1.6016312 nan
1.9383518 -0.76823974 1.6016312 nan
1.9473174 -0.77517474 1.6034912 nan
1.9473007 -0.77852511 1.6034912 nan
1.9472841 -0.78187561 1.6034912 nan
1.9472674 -0.78522611 1.6034912 nan
1.9562328 -0.79224682 1.6053512 nan
1.9562161 -0.79561436 1.6053512 nan
1.9561993 -0.7989819 1.6053512 nan
1.9561826 -0.80234957 1.6053512 nan
1.9561659 -0.80571711 1.6053512 nan
1.9561492 -0.80908465 1.6053512 nan
1.9561324 -0.81245232 1.6053512 nan
1.9561157 -0.81581986 1.6053512 nan
1.9650801 -0.82299495 1.6072111 nan
1.9740446 -0.83020425 1.6090711 nan
1.9830086 -0.83744788 1.6109312 nan
1.9829917 -0.84086692 1.6109312 nan
1.9829748 -0.84428596 1.6109312 nan
1.9829577 -0.84770489 1.6109312 nan
2.0935433 -0.52856708 1.6298312 nan
2.0835371 -0.52977264 1.6277835 nan
2.0835192 -0.53338021 1.6277835 nan
2.0725148 -0.53428268 1.6255312 nan
2.0625091 -0.53539121 1.6234835 nan
2.0525036 -0.53646147 1.6214359 nan
2.0424984 -0.53749377 1.6193883 nan
2.0225058 -0.53595257 1.615293 nan
2.0224884 -0.53944397 1.615293 nan
2.022471 -0.54293537 1.615293 nan
2.0134652 -0.54409355 1.6134503 nan
2.013448 -0.54756778 1.6134503 nan
2.0134308 -0.55104202 1.6134503 nan
2.0034266 -0.55186665 1.6114026 nan
2.0034094 -0.55532187 1.6114026 nan
1.9934055 -0.5560894 1.609355 nan
1.9933884 -0.55952549 1.609355 nan
1.9843833 -0.56050843 1.6075121 nan
1.9843663 -0.56392741 1.6075121 nan
1.9843494 -0.56734645 1.6075121 nan
1.9843324 -0.5707655 1.6075121 nan
1.9843154 -0.57418442 1.6075121 nan
1.9842985 -0.57760346 1.6075121 nan
1.9752941 -0.57846642 1.6056693 nan
1.9752773 -0.58186829 1.6056693 nan
1.9752604 -0.58527005 1.6056693 -3.3832787e+38
1.9752434 -0.58867204 1.6056693 -3.3565901e+38
1.9752266 -0.5920738 1.6056693 -3.3167131e+38
1.9752097 -0.59547567 1.6056693 -3.2635438e+38
1.9751928 -0.59887755 1.6056693 -3.2501996e+38
1.975176 -0.60227942 1.6056693 -3.2235111e+38
1.975159 -0.6056813 1.6056693 -3.2101152e+38
1.9751421 -0.60908318 1.6056693 -3.1967193e+38
1.9751253 -0.61248505 1.6056693 -3.2499405e+38
1.9751084 -0.61588693 1.6056693 -3.2897131e+38
1.9750915 -0.61928868 1.6056693 -3.3426744e+38
1.9660883 -0.61991167 1.6038264 -3.383228e+38
1.9570853 -0.62050033 1.6019835 nan
1.9570686 -0.62386787 1.6019835 nan
1.9480658 -0.62440515 1.6001407 nan
1.9480491 -0.62775564 1.6001407 nan
1.9480325 -0.63110602 1.6001407 nan
1.9480158 -0.63445652 1.6001407 nan
1.9479992 -0.63780689 1.6001407 nan
1.938997 -0.63824129 1.5982978 nan
1.9389805 -0.64157462 1.5982978 nan
1.9389639 -0.64490783 1.5982978 nan
1.9389473 -0.64824116 1.5982978 nan
1.9389309 -0.65157449 1.5982978 nan
1.9389143 -0.6549077 1.5982978 nan
1.9299126 -0.65522218 1.596455 -3.343093e+38
1.9388812 -0.66157436 1.5982978 -3.356281e+38
1.9388646 -0.66490757 1.5982978 -3.3562279e+38
1.9298632 -0.66517055 1.596455 -3.3562267e+38
1.920862 -0.66539919 1.5946121 -3.3429344e+38
1.9208456 -0.66869819 1.5946121 -3.3429861e+38
1.9208292 -0.67199719 1.5946121 -3.3297459e+38
1.9208128 -0.67529619 1.5946121 -3.3165058e+38
1.9207965 -0.67859519 1.5946121 -3.3032658e+38
1.9207801 -0.68189418 1.5946121 -3.3032664e+38
1.9207637 -0.6851933 1.5946121 -3.2900257e+38
1.9297315 -0.69169974 1.596455 -3.2900774e+38
1.929715 -0.69501591 1.596455 -3.2900772e+38
1.9296986 -0.69833207 1.596455 -3.2901287e+38
1.9296821 -0.70164824 1.596455 -3.2901287e+38
1.9386495 -0.70824039 1.5982978 -3.223719e+38
1.938633 -0.71157372 1.5982978 -3.1564257e+38
1.9476001 -0.71821737 1.6001407 -3.1551785e+38
1.9385999 -0.71824026 1.5982978 -3.1426113e+38
1.9385834 -0.72157359 1.5982978 -3.1291095e+38
1.9475502 -0.72826862 1.6001407 -3.1163381e+38
1.9385502 -0.72824013 1.5982978 -3.1691452e+38
1.9385338 -0.73157346 1.5982978 -3.2094901e+38
1.9385172 -0.73490667 1.5982978 -3.2624004e+38
1.9295175 -0.73480964 1.596455 -3.3028995e+38
1.9295011 -0.73812592 1.596455 -3.303522e+38
1.9294846 -0.74144197 1.596455 -3.3033677e+38
1.9294682 -0.74475813 1.596455 -3.2367519e+38
1.9294517 -0.74807429 1.596455 -3.1708108e+38
1.9294351 -0.75139046 1.596455 -3.3307345e+38
1.9384013 -0.75823987 1.5982978 nan
1.9383848 -0.76157308 1.5982978 nan
1.9383683 -0.76490641 1.5982978 nan
1.9383518 -0.76823974 1.5982978 nan
1.9473174 -0.77517474 1.6001407 nan
1.9473007 -0.77852511 1.6001407 nan
1.9472841 -0.78187561 1.6001407 -3.2110537e+38
1.9472674 -0.78522611 1.6001407 nan
1.9472508 -0.78857648 1.6001407 nan
1.9562161 -0.79561436 1.6019835 nan
1.9561993 -0.7989819 1.6019835 nan
1.9561826 -0.80234957 1.6019835 nan
1.9561659 -0.80571711 1.6019835 nan
1.9561492 -0.80908465 1.6019835 nan
1.9651138 -0.81622553 1.6038264 nan
1.965097 -0.81961024 1.6038264 nan
1.9740615 -0.82680237 1.6056693 nan
1.9830257 -0.83402896 1.6075121 nan
1.9830086 -0.83744788 1.6075121 nan
1.9829917 -0.84086692 1.6075121 nan
1.9829748 -0.84428596 1.6075121 nan
1.9829577 -0.84770489 1.6075121 nan
1.9829408 -0.85112393 1.6075121 nan
2.0935433 -0.52856708 1.6262045 nan
2.0935252 -0.53219366 1.6262045 nan
2.0835192 -0.53338021 1.6241759 nan
2.0725148 -0.53428268 1.6219445 nan
2.0724969 -0.53786933 1.6219445 nan
2.0525036 -0.53646147 1.6178874 nan
2.0424984 -0.53749377 1.6158588 nan
2.0324934 -0.53848791 1.6138302 nan
2.0224884 -0.53944397 1.6118016 nan
2.022471 -0.54293537 1.6118016 nan
2.0134652 -0.54409355 1.6099759 nan
2.013448 -0.54756778 1.6099759 nan
2.0134308 -0.55104202 1.6099759 nan
2.0134134 -0.55451632 1.6099759 nan
2.0034094 -0.55532187 1.6079473 nan
1.9934055 -0.5560894 1.6059188 nan
1.9933884 -0.55952549 1.6059188 nan
1.9933714 -0.5629617 1.6059188 nan
1.9843663 -0.56392741 1.6040931 nan
1.9843494 -0.56734645 1.6040931 nan
1.9843324 -0.5707655 1.6040931 nan
1.9843154 -0.57418442 1.6040931 nan
1.9842985 -0.57760346 1.6040931 nan
1.9752941 -0.57846642 1.6022674 nan
1.9752773 -0.58186829 1.6022674 -3.3834359e+38
1.9752604 -0.58527005 1.6022674 -3.3567986e+38
1.9752434 -0.58867204 1.6022674 -3.3301619e+38
1.9752266 -0.5920738 1.6022674 -3.303577e+38
1.9752097 -0.59547567 1.6022674 -3.2769924e+38
1.9751928 -0.59887755 1.6022674 -3.2635444e+38
1.975176 -0.60227942 1.6022674 -3.2500961e+38
1.975159 -0.6056813 1.6022674 -3.2498882e+38
1.9751421 -0.60908318 1.6022674 -3.2364925e+38
1.9751253 -0.61248505 1.6022674 -3.2630773e+38
1.9751084 -0.61588693 1.6022674 -3.2896618e+38
1.9750915 -0.61928868 1.6022674 -3.343298e+38
1.9660883 -0.61991167 1.6004417 -3.3835913e+38
1.9570853 -0.62050033 1.5986159 nan
1.9570686 -0.62386787 1.5986159 nan
1.9480658 -0.62440515 1.5967902 nan
1.9480491 -0.62775564 1.5967902 nan
1.9480325 -0.63110602 1.5967902 nan
1.9480158 -0.63445652 1.5967902 nan
1.9479992 -0.63780689 1.5967902 nan
1.9479825 -0.64115739 1.5967902 nan
1.9389805 -0.64157462 1.5949645 nan
1.9389639 -0.64490783 1.5949645 nan
1.9389473 -0.64824116 1.5949645 nan
1.9389309 -0.65157449 1.5949645 -3.3306331e+38
1.9389143 -0.6549077 1.5949645 -3.3299025e+38
1.9388977 -0.65824103 1.5949645 -3.3296952e+38
1.9388812 -0.66157436 1.5949645 -3.3163514e+38
1.9388646 -0.66490757 1.5949645 -3.3162987e+38
1.9298632 -0.66517055 1.5931388 -3.3030056e+38
1.920862 -0.66539919 1.5913131 -3.3030056e+38
1.9208456 -0.66869819 1.5913131 -3.3030056e+38
1.9298137 -0.67511904 1.5931388 -3.31635e+38
1.9208128 -0.67529619 1.5913131 -3.3031616e+38
1.9207965 -0.67859519 1.5913131 -3.2898695e+38
1.9207801 -0.68189418 1.5913131 -3.2898697e+38
1.9207637 -0.6851933 1.5913131 -3.3031099e+38
1.9297315 -0.69169974 1.5931388 -3.3032133e+38
1.929715 -0.69501591 1.5931388 -3.3032652e+38
1.9296986 -0.69833207 1.5931388 -3.2767324e+38
1.9296821 -0.70164824 1.5931388 -3.2501476e+38
1.9386495 -0.70824039 1.5949645 -3.1830627e+38
1.938633 -0.71157372 1.5949645 -3.1159249e+38
1.9386164 -0.71490705 1.5949645 -3.1290079e+38
1.9385999 -0.71824026 1.5949645 -3.1422994e+38
1.9385834 -0.72157359 1.5949645 -3.1293697e+38
1.9385668 -0.7249068 1.5949645 -3.1294225e+38
1.9385502 -0.72824013 1.5949645 -3.1560596e+38
1.9385338 -0.73157346 1.5949645 -3.1825922e+38
1.929534 -0.73149359 1.5931388 -3.1693518e+38
1.9295175 -0.73480964 1.5931388 -3.1561618e+38
1.9295011 -0.73812592 1.5931388 -3.236329e+38
1.9294846 -0.74144197 1.5931388 -3.3161381e+38
1.9384511 -0.74823987 1.5949645 -3.2903875e+38
1.9294517 -0.74807429 1.5931388 -3.2772007e+38
1.9384179 -0.75490654 1.5949645 -3.3973002e+38
1.9384013 -0.75823987 1.5949645 nan
1.9383848 -0.76157308 1.5949645 nan
1.9473506 -0.76847386 1.5967902 nan
1.9473339 -0.77182436 1.5967902 nan
1.9473174 -0.77517474 1.5967902 nan
1.9473007 -0.77852511 1.5967902 nan
1.9472841 -0.78187561 1.5967902 nan
1.9472674 -0.78522611 1.5967902 nan
1.9562328 -0.79224682 1.5986159 nan
1.9562161 -0.79561436 1.5986159 nan
1.9561993 -0.7989819 1.5986159 nan
1.9561826 -0.80234957 1.5986159 nan
1.9561659 -0.80571711 1.5986159 nan
1.9561492 -0.80908465 1.5986159 nan
1.9651138 -0.81622553 1.6004417 nan
1.965097 -0.81961024 1.6004417 nan
1.9740615 -0.82680237 1.6022674 nan
1.9830257 -0.83402896 1.6040931 nan
1.9830086 -0.83744788 1.6040931 nan
1.9919727 -0.84472585 1.6059188 nan
1.9919556 -0.84816194 1.6059188 nan
1.9919386 -0.85159814 1.6059188 nan
1.9919215 -0.85503423 1.6059188 nan
2.0935433 -0.52856708 1.6225779 nan
2.0935252 -0.53219366 1.6225779 nan
2.0835192 -0.53338021 1.6205683 nan
2.0725148 -0.53428268 1.6183579 nan
2.0724969 -0.53786933 1.6183579 -3.3178099e+38
2.0525036 -0.53646147 1.6143388 nan
2.0424984 -0.53749377 1.6123292 nan
2.0324934 -0.53848791 1.6103197 nan
2.0224884 -0.53944397 1.6083102 nan
2.022471 -0.54293537 1.6083102 nan
2.0134652 -0.54409355 1.6065016 nan
2.013448 -0.54756778 1.6065016 nan
2.0134308 -0.55104202 1.6065016 nan
2.0134134 -0.55451632 1.6065016 nan
2.0034094 -0.55532187 1.6044922 nan
1.9934055 -0.5560894 1.6024826 nan
1.9933884 -0.55952549 1.6024826 nan
1.9933714 -0.5629617 1.6024826 nan
1.9843663 -0.56392741 1.600674 nan
1.9843494 -0.56734645 1.600674 nan
1.9843324 -0.5707655 1.600674 nan
1.9843154 -0.57418442 1.600674 nan
1.9842985 -0.57760346 1.600674 nan
1.9752941 -0.57846642 1.5988655 -3.383385e+38
1.9752773 -0.58186829 1.5988655 -3.3569037e+38
1.9752604 -0.58527005 1.5988655 -3.3302668e+38
1.9752434 -0.58867204 1.5988655 -3.2904932e+38
1.9752266 -0.5920738 1.5988655 -3.2904926e+38
1.9752097 -0.59547567 1.5988655 -3.2769924e+38
1.9751928 -0.59887755 1.5988655 -3.2768884e+38
1.975176 -0.60227942 1.5988655 -3.2765768e+38
1.975159 -0.6056813 1.5988655 -3.276317e+38
1.9751421 -0.60908318 1.5988655 -3.2762134e+38
1.9751253 -0.61248505 1.5988655 -3.289402e+38
1.9751084 -0.61588693 1.5988655 -3.2899206e+38
1.9661051 -0.61652696 1.5970569 -3.3439201e+38
1.9571019 -0.61713278 1.5952483 -3.3835913e+38
1.9570853 -0.62050033 1.5952483 nan
1.9480823 -0.62105477 1.5934398 nan
1.9480658 -0.62440515 1.5934398 nan
1.9480491 -0.62775564 1.5934398 nan
1.9480325 -0.63110602 1.5934398 nan
1.9480158 -0.63445652 1.5934398 nan
1.9390136 -0.63490796 1.5916312 nan
1.938997 -0.63824129 1.5916312 nan
1.9389805 -0.64157462 1.5916312 nan
1.9389639 -0.64490783 1.5916312 nan
1.9389473 -0.64824116 1.5916312 -3.3566471e+38
1.9389309 -0.65157449 1.5916312 -3.1970856e+38
1.9389143 -0.6549077 1.5916312 -3.2634411e+38
1.9388977 -0.65824103 1.5916312 -3.3164026e+38
1.9388812 -0.66157436 1.5916312 -3.2897141e+38
1.9388646 -0.66490757 1.5916312 -3.2630249e+38
1.9298632 -0.66517055 1.5898225 -3.2629724e+38
1.9298468 -0.66848671 1.5898225 -3.249732e+38
1.9298302 -0.67180288 1.5898225 -3.2763168e+38
1.9298137 -0.67511904 1.5898225 -3.2897131e+38
1.9297973 -0.67843521 1.5898225 -3.2898172e+38
1.9297808 -0.68175125 1.5898225 -3.2764728e+38
1.9207801 -0.68189418 1.588014 -3.2897651e+38
1.9297479 -0.68838358 1.5898225 -3.3030569e+38
1.9297315 -0.69169974 1.5898225 -3.3031087e+38
1.9386991 -0.69824052 1.5916312 -3.3031602e+38
1.9296986 -0.69833207 1.5898225 -3.2632829e+38
1.9296821 -0.70164824 1.5898225 -3.2095424e+38
1.9386495 -0.70824039 1.5916312 -3.142458e+38
1.938633 -0.71157372 1.5916312 -3.0760475e+38
1.9386164 -0.71490705 1.5916312 -3.102631e+38
1.9385999 -0.71824026 1.5916312 -3.1294225e+38
1.9295998 -0.71822894 1.5898225 -3.1431814e+38
1.9385668 -0.7249068 1.5916312 -3.1428693e+38
1.9385502 -0.72824013 1.5916312 -3.1430243e+38
1.9385338 -0.73157346 1.5916312 -3.1428715e+38
1.929534 -0.73149359 1.5898225 -3.0762576e+38
1.9295175 -0.73480964 1.5898225 -3.0099502e+38
1.9295011 -0.73812592 1.5898225 -3.1695597e+38
1.9384675 -0.74490654 1.5916312 -3.3168676e+38
1.9384511 -0.74823987 1.5916312 -3.3579411e+38
1.9384345 -0.7515732 1.5916312 -3.384215e+38
1.9384179 -0.75490654 1.5916312 nan
1.9473839 -0.76177299 1.5934398 nan
1.9473672 -0.76512349 1.5934398 nan
1.9473506 -0.76847386 1.5934398 nan
1.9473339 -0.77182436 1.5934398 nan
1.9473174 -0.77517474 1.5934398 nan
1.9473007 -0.77852511 1.5934398 nan
1.9472841 -0.78187561 1.5934398 nan
1.9562495 -0.78887928 1.5952483 nan
1.9562328 -0.79224682 1.5952483 nan
1.9562161 -0.79561436 1.5952483 nan
1.9561993 -0.7989819 1.5952483 nan
1.9561826 -0.80234957 1.5952483 nan
1.9561659 -0.80571711 1.5952483 nan
1.9561492 -0.80908465 1.5952483 nan
1.9651138 -0.81622553 1.5970569 nan
1.965097 -0.81961024 1.5970569 nan
1.9740615 -0.82680237 1.5988655 nan
1.9830257 -0.83402896 1.600674 nan
1.9830086 -0.83744788 1.600674 nan
1.9919727 -0.84472585 1.6024826 nan
1.9919556 -0.84816194 1.6024826 nan
1.9919386 -0.85159814 1.6024826 nan
1.9919215 -0.85503423 1.6024826 nan
2.0935433 -0.52856708 1.6189512 nan
2.0835371 -0.52977264 1.6169608 nan
2.0835192 -0.53338021 1.6169608 nan
2.0725148 -0.53428268 1.6147711 nan
2.0724969 -0.53786933 1.6147711 nan
2.0525036 -0.53646147 1.6107903 nan
2.0424984 -0.53749377 1.6087997 nan
2.0324934 -0.53848791 1.6068093 nan
2.0224884 -0.53944397 1.6048188 nan
2.022471 -0.54293537 1.6048188 nan
2.0134652 -0.54409355 1.6030273 nan
2.013448 -0.54756778 1.6030273 nan
2.0134308 -0.55104202 1.6030273 nan
2.0034266 -0.55186665 1.6010369 nan
2.0034094 -0.55532187 1.6010369 nan
1.9934055 -0.5560894 1.5990465 nan
1.9933884 -0.55952549 1.5990465 nan
1.9933714 -0.5629617 1.5990465 nan
