# .PCD v0.7 - Point Cloud Data file format
VERSION 0.7
FIELDS x y z rgb
SIZE 4 4 4 4
TYPE F F F F
COUNT 1 1 1 1
WIDTH 1024
HEIGHT 1
VIEWPOINT 0 0 0 1 0 0 0
POINTS 1024
DATA ascii
3.63305 -0.047902141 0.92872638 nan
3.6330342 -0.054454505 0.92872638 -2.7401829e+38
3.5990191 -0.061089091 0.93180257 -1.8478916e+38
3.5990038 -0.067576692 0.93180257 -2.0621306e+38
3.6329885 -0.074111596 0.92872638 -2.2620337e+38
3.6329732 -0.080663957 0.92872638 -2.2619292e+38
3.6329575 -0.087216318 0.92872638 -2.2618256e+38
3.6329422 -0.093768686 0.92872638 -2.2618256e+38
3.6329269 -0.10032105 0.92872638 -2.2483775e+38
3.6329117 -0.10687341 0.92872638 -2.2351372e+38
3.6328964 -0.11342578 0.92872638 -2.2217932e+38
3.6328807 -0.11997814 0.92872638 -2.2218453e+38
3.5988669 -0.1259651 0.93180257 -2.2218449e+38
3.5988517 -0.13245271 0.93180257 -2.2218964e+38
3.5988364 -0.1389403 0.93180257 -2.2220004e+38
3.5988212 -0.14542791 0.93180257 -2.2220526e+38
3.5988064 -0.15191552 0.93180257 -2.2088124e+38
3.6327887 -0.15929233 0.92872638 -2.2221049e+38
3.6327734 -0.16584468 0.92872638 -2.222157e+38
3.6327581 -0.17239705 0.92872638 -2.2753261e+38
3.6327429 -0.17894942 0.92872638 -2.315204e+38
3.6327271 -0.18550178 0.92872638 -2.3685299e+38
3.6327119 -0.19205414 0.92872638 -2.4220116e+38
3.6326966 -0.19860649 0.92872638 -2.4886296e+38
3.6326814 -0.20515886 0.92872638 -2.5553487e+38
3.6326661 -0.21171123 0.92872638 -2.488574e+38
3.6326504 -0.2182636 0.92872638 -2.4221237e+38
3.6326351 -0.22481596 0.92872638 -3.3305791e+38
3.6676164 -0.233017 0.9255597 nan
3.8147807 0.2635957 0.90545303 -2.275848e+38
3.8147645 0.25669858 0.90545303 -2.3021721e+38
3.8147483 0.24980146 0.90545303 -2.3417886e+38
3.8147321 0.24290431 0.90545303 -2.3814046e+38
3.8147159 0.23600721 0.90545303 -2.3678515e+38
3.8146996 0.22911009 0.90545303 -2.341215e+38
3.7766762 0.21915346 0.9089635 -2.2749613e+38
3.7766604 0.2123287 0.9089635 -2.208552e+38
3.7766442 0.20550397 0.9089635 -2.2086039e+38
3.7766285 0.19867921 0.9089635 -2.2086556e+38
3.7766123 0.19185445 0.9089635 -2.2087074e+38
3.7395902 0.18240309 0.91238165 -2.195311e+38
3.7035685 0.17316179 0.91570735 -2.1819666e+38
3.7395582 0.16889457 0.91238165 -2.1551738e+38
3.703537 0.1597904 0.91570735 -2.1417772e+38
3.7035213 0.15310471 0.91570735 -2.128433e+38
3.703506 0.146419 0.91570735 -2.1283811e+38
3.7034903 0.1397333 0.91570735 -2.1150888e+38
3.7034745 0.13304761 0.91570735 -2.1283813e+38
3.7034588 0.12636191 0.91570735 -2.1417257e+38
3.7394476 0.12161469 0.91238165 -2.1550182e+38
3.7394319 0.11486043 0.91238165 -2.1550703e+38
3.7394161 0.10810617 0.91238165 -2.1551224e+38
3.7033963 0.09961912 0.91570735 -2.1551226e+38
3.7393842 0.094597623 0.91238165 -2.155175e+38
3.7033648 0.086247742 0.91570735 -2.1418829e+38
3.7393527 0.081089094 0.91238165 -2.1284872e+38
3.7033334 0.072876334 0.91570735 -2.1014353e+38
3.7393208 0.067580551 0.91238165 -1.9409935e+38
3.739305 0.060826302 0.91238165 -1.7691293e+38
3.6330652 -0.04134978 0.92217398 nan
3.63305 -0.047902141 0.92217398 nan
3.6330342 -0.054454505 0.92217398 -2.8315702e+38
3.633019 -0.06100687 0.92217398 -1.7287819e+38
3.6330037 -0.067559235 0.92217398 -1.9828968e+38
3.6329885 -0.074111596 0.92217398 -2.2353976e+38
3.6329732 -0.080663957 0.92217398 -2.2486373e+38
3.6329575 -0.087216318 0.92217398 -2.2618777e+38
3.6329422 -0.093768686 0.92217398 -2.2618258e+38
3.6329269 -0.10032105 0.92217398 -2.2484816e+38
3.6329117 -0.10687341 0.92217398 -2.2352412e+38
3.6328964 -0.11342578 0.92217398 -2.2219487e+38
3.6328807 -0.11997814 0.92217398 -2.2219485e+38
3.6328654 -0.1265305 0.92217398 -2.2219483e+38
3.6328502 -0.13308287 0.92217398 -2.2352404e+38
3.6328349 -0.13963524 0.92217398 -2.2352925e+38
3.6328197 -0.1461876 0.92217398 -2.2353446e+38
3.6328039 -0.15273996 0.92217398 -2.2220526e+38
3.6327887 -0.15929233 0.92217398 -2.2220528e+38
3.6327734 -0.16584468 0.92217398 -2.2088126e+38
3.6327581 -0.17239705 0.92217398 -2.2619819e+38
3.6327429 -0.17894942 0.92217398 -2.315204e+38
3.6327271 -0.18550178 0.92217398 -2.3684261e+38
3.6327119 -0.19205414 0.92217398 -2.4084593e+38
3.6326966 -0.19860649 0.92217398 -2.4749215e+38
3.6326814 -0.20515886 0.92217398 -2.5416407e+38
3.6326661 -0.21171123 0.92217398 -2.3818719e+38
3.6326504 -0.2182636 0.92217398 -2.2237255e+38
3.6676316 -0.22639799 0.91894066 -3.2112594e+38
3.6676164 -0.233017 0.91894066 nan
3.8147645 0.25669858 0.89855587 -2.0492043e+38
3.8147483 0.24980146 0.89855587 -2.1288537e+38
3.8147321 0.24290431 0.89855587 -2.2086581e+38
3.8147159 0.23600721 0.89855587 -2.2352414e+38
3.7766924 0.2259782 0.90213871 -2.2751698e+38
3.7766762 0.21915346 0.90213871 -2.2352406e+38
3.7766604 0.2123287 0.90213871 -2.1953638e+38
3.7766442 0.20550397 0.90213871 -2.1954155e+38
3.7396216 0.19591165 0.90562731 -2.1954153e+38
3.7396059 0.18915734 0.90562731 -2.1820707e+38
3.7395902 0.18240309 0.90562731 -2.1686739e+38
3.7035685 0.17316179 0.90902162 -2.141933e+38
3.7035527 0.16647609 0.90902162 -2.1283807e+38
3.703537 0.1597904 0.90902162 -2.115088e+38
3.7035213 0.15310471 0.90902162 -2.1150363e+38
3.703506 0.146419 0.90902162 -2.1150884e+38
3.7034903 0.1397333 0.90902162 -2.1283811e+38
3.7034745 0.13304761 0.90902162 -2.1284332e+38
3.7034588 0.12636191 0.90902162 -2.1417257e+38
3.7394476 0.12161469 0.90562731 -2.1550699e+38
3.7394319 0.11486043 0.90562731 -2.1551222e+38
3.7394161 0.10810617 0.90562731 -2.1551224e+38
3.7393999 0.10135189 0.90562731 -2.1684149e+38
3.7393842 0.094597623 0.90562731 -2.168467e+38
3.7033648 0.086247742 0.90902162 -2.1685192e+38
3.7393527 0.081089094 0.90562731 -2.035181e+38
3.739337 0.07433483 0.90562731 -1.9151862e+38
3.7393208 0.067580551 0.90562731 -2.2615635e+38
3.6330652 -0.04134978 0.91562164 nan
3.63305 -0.047902141 0.91562164 nan
3.6330342 -0.054454505 0.91562164 -2.8736824e+38
3.633019 -0.06100687 0.91562164 -1.8079142e+38
3.6330037 -0.067559235 0.91562164 -2.0355471e+38
3.6329885 -0.074111596 0.91562164 -2.2619825e+38
3.6329732 -0.080663957 0.91562164 -2.2486377e+38
3.6329575 -0.087216318 0.91562164 -2.2485339e+38
3.6329422 -0.093768686 0.91562164 -2.2352414e+38
3.6329269 -0.10032105 0.91562164 -2.2351895e+38
3.6329117 -0.10687341 0.91562164 -2.2219491e+38
3.6328964 -0.11342578 0.91562164 -2.2220004e+38
3.6328807 -0.11997814 0.91562164 -2.2219996e+38
3.6328654 -0.1265305 0.91562164 -2.2219996e+38
3.6328502 -0.13308287 0.91562164 -2.2219477e+38
3.6328349 -0.13963524 0.91562164 -2.2352402e+38
3.6328197 -0.1461876 0.91562164 -2.222e+38
3.6328039 -0.15273996 0.91562164 -2.2220524e+38
3.6327887 -0.15929233 0.91562164 -2.2353448e+38
3.6327734 -0.16584468 0.91562164 -2.2353972e+38
3.6327581 -0.17239705 0.91562164 -2.2752742e+38
3.6327429 -0.17894942 0.91562164 -2.3151521e+38
3.6327271 -0.18550178 0.91562164 -2.3684259e+38
3.6677094 -0.19330283 0.91232157 -2.4084071e+38
3.6676936 -0.19992185 0.91232157 -2.474973e+38
3.6326814 -0.20515886 0.91562164 -2.5284518e+38
3.6326661 -0.21171123 0.91562164 -2.3684232e+38
3.6326504 -0.2182636 0.91562164 -2.222115e+38
3.6676316 -0.22639799 0.91232157 -3.0636413e+38
3.6676164 -0.233017 0.91232157 nan
3.8147807 0.2635957 0.89165878 -1.7820573e+38
3.8147645 0.25669858 0.89165878 -1.7962852e+38
3.8147483 0.24980146 0.89165878 -1.9158129e+38
3.8147321 0.24290431 0.89165878 -2.022774e+38
3.7767081 0.23280293 0.89531398 -2.1159234e+38
3.7766924 0.2259782 0.89531398 -2.2087094e+38
3.7766762 0.21915346 0.89531398 -2.1954167e+38
3.7766604 0.2123287 0.89531398 -2.1688834e+38
3.7766442 0.20550397 0.89531398 -2.168935e+38
3.7396216 0.19591165 0.89887303 -2.168779e+38
3.7396059 0.18915734 0.89887303 -2.1553825e+38
3.7035842 0.17984746 0.90233588 -2.1419859e+38
3.7035685 0.17316179 0.90233588 -2.1152454e+38
3.7035527 0.16647609 0.90233588 -2.0885562e+38
3.703537 0.1597904 0.90233588 -2.1017959e+38
3.7035213 0.15310471 0.90233588 -2.1017961e+38
3.703506 0.146419 0.90233588 -2.1150888e+38
3.7034903 0.1397333 0.90233588 -2.1284332e+38
3.7394791 0.13512324 0.89887303 -2.1417257e+38
3.7034588 0.12636191 0.90233588 -2.1417778e+38
3.7394476 0.12161469 0.89887303 -2.1550703e+38
3.7394319 0.11486043 0.89887303 -2.1551224e+38
3.7394161 0.10810617 0.89887303 -2.1684151e+38
3.7033963 0.09961912 0.90233588 -2.1684675e+38
3.7033806 0.092933431 0.90233588 -2.1817082e+38
3.7033648 0.086247742 0.90233588 -2.1816025e+38
3.7033491 0.079562038 0.90233588 -1.9550087e+38
3.7033334 0.072876334 0.90233588 -1.7299271e+38
3.7393208 0.067580551 0.89887303 -2.597253e+38
3.6330652 -0.04134978 0.90906924 nan
3.63305 -0.047902141 0.90906924 nan
3.6330342 -0.054454505 0.90906924 -2.925349e+38
3.633019 -0.06100687 0.90906924 -1.8753641e+38
3.6330037 -0.067559235 0.90906924 -2.0760997e+38
3.6329885 -0.074111596 0.90906924 -2.2752754e+38
3.6329732 -0.080663957 0.90906924 -2.2485862e+38
3.6329575 -0.087216318 0.90906924 -2.2219495e+38
3.6329422 -0.093768686 0.90906924 -2.2219493e+38
3.6329269 -0.10032105 0.90906924 -2.2086571e+38
3.6329117 -0.10687341 0.90906924 -2.2086568e+38
3.6328964 -0.11342578 0.90906924 -2.2086562e+38
3.6328807 -0.11997814 0.90906924 -2.2086556e+38
3.6328654 -0.1265305 0.90906924 -2.2086556e+38
3.6328502 -0.13308287 0.90906924 -2.2219477e+38
3.6328349 -0.13963524 0.90906924 -2.2219479e+38
3.6328197 -0.1461876 0.90906924 -2.2218962e+38
3.6328039 -0.15273996 0.90906924 -2.2220002e+38
3.6327887 -0.15929233 0.90906924 -2.2486369e+38
3.6327734 -0.16584468 0.90906924 -2.2619815e+38
3.6327581 -0.17239705 0.90906924 -2.2885665e+38
3.6327429 -0.17894942 0.90906924 -2.3152038e+38
3.6327271 -0.18550178 0.90906924 -2.3684256e+38
3.6677094 -0.19330283 0.90570259 -2.4084069e+38
3.6676936 -0.19992185 0.90570259 -2.4615247e+38
3.6676784 -0.20654088 0.90570259 -2.514692e+38
3.6676626 -0.21315992 0.90570259 -2.3677484e+38
3.6326504 -0.2182636 0.90906924 -2.2094963e+38
3.6676316 -0.22639799 0.90570259 -2.9173715e+38
3.6676164 -0.233017 0.90570259 nan
3.6676006 -0.23963603 0.90570259 nan
3.8147807 0.2635957 0.88476157 -2.7010381e+38
3.7767563 0.25327718 0.88848925 -2.7274695e+38
3.8147483 0.24980146 0.88476157 -2.6084126e+38
3.7767243 0.23962769 0.88848925 -2.4886788e+38
3.7767081 0.23280293 0.88848925 -2.328549e+38
3.7766924 0.2259782 0.88848925 -2.1819181e+38
3.7766762 0.21915346 0.88848925 -2.1821252e+38
3.7396536 0.20942017 0.89211875 -2.1954686e+38
3.7766442 0.20550397 0.88848925 -2.1821236e+38
3.7396216 0.19591165 0.89211875 -2.1819676e+38
3.7035999 0.18653318 0.89565015 -2.168623e+38
3.7035842 0.17984746 0.89565015 -2.155175e+38
3.6685624 0.17074382 0.8990835 -2.1285383e+38
3.6685472 0.16412479 0.8990835 -2.1017969e+38
3.6685314 0.15750575 0.8990835 -2.1017959e+38
3.6685162 0.15088671 0.8990835 -2.1150367e+38
3.6685004 0.14426771 0.8990835 -2.115089e+38
3.7034903 0.1397333 0.89565015 -2.1284334e+38
3.7034745 0.13304761 0.89565015 -2.1417776e+38
3.7034588 0.12636191 0.89565015 -2.1550703e+38
3.7394476 0.12161469 0.89211875 -2.1551224e+38
3.7034273 0.11299053 0.89565015 -2.1684151e+38
3.7034116 0.10630482 0.89565015 -2.1684153e+38
3.7033963 0.09961912 0.89565015 -2.1818123e+38
3.7033806 0.092933431 0.89565015 -2.1950532e+38
3.7033648 0.086247742 0.89565015 -2.2217378e+38
3.7033491 0.079562038 0.89565015 -2.1010647e+38
3.7033334 0.072876334 0.89565015 -1.9942172e+38
3.7033176 0.066190645 0.89565015 -2.9032943e+38
3.6330652 -0.04134978 0.90251684 -3.0640598e+38
3.63305 -0.047902141 0.90251684 -3.2784911e+38
3.6330342 -0.054454505 0.90251684 -2.6616355e+38
3.633019 -0.06100687 0.90251684 -2.0611465e+38
3.6330037 -0.067559235 0.90251684 -2.1553348e+38
3.6329885 -0.074111596 0.90251684 -2.2485874e+38
3.6329732 -0.080663957 0.90251684 -2.2220019e+38
3.6329575 -0.087216318 0.90251684 -2.2086575e+38
3.6329422 -0.093768686 0.90251684 -2.195365e+38
3.6329269 -0.10032105 0.90251684 -2.1820206e+38
3.6329117 -0.10687341 0.90251684 -2.1820723e+38
3.6328964 -0.11342578 0.90251684 -2.1953122e+38
3.6328807 -0.11997814 0.90251684 -2.1953636e+38
3.6328654 -0.1265305 0.90251684 -2.2086037e+38
3.6328502 -0.13308287 0.90251684 -2.2219477e+38
3.6328349 -0.13963524 0.90251684 -2.2352921e+38
3.6328197 -0.1461876 0.90251684 -2.2352921e+38
3.6328039 -0.15273996 0.90251684 -2.2486365e+38
3.6327887 -0.15929233 0.90251684 -2.2619288e+38
3.6327734 -0.16584468 0.90251684 -2.2752217e+38
3.6327581 -0.17239705 0.90251684 -2.2886182e+38
3.6327429 -0.17894942 0.90251684 -2.3153074e+38
3.6677246 -0.1866838 0.8990835 -2.3418928e+38
3.6677094 -0.19330283 0.8990835 -2.3818741e+38
3.6676936 -0.19992185 0.8990835 -2.4350438e+38
3.6676784 -0.20654088 0.8990835 -2.4883152e+38
3.6676626 -0.21315992 0.8990835 -2.3414235e+38
3.6326504 -0.2182636 0.90251684 -2.2079372e+38
3.6676316 -0.22639799 0.8990835 -2.7829399e+38
3.6676164 -0.233017 0.8990835 -3.3576831e+38
3.6676006 -0.23963603 0.8990835 nan
3.7767725 0.26010191 0.88166445 nan
3.7767563 0.25327718 0.88166445 nan
3.8147483 0.24980146 0.87786448 -3.3016901e+38
3.7767243 0.23962769 0.88166445 -2.9409808e+38
3.7767081 0.23280293 0.88166445 -2.554258e+38
3.7766924 0.2259782 0.88166445 -2.1554891e+38
3.7766762 0.21915346 0.88166445 -2.1823327e+38
3.7396536 0.20942017 0.88536447 -2.2087607e+38
3.7396374 0.2026659 0.88536447 -2.208708e+38
3.7036157 0.19321886 0.88896447 -2.1953116e+38
3.7035999 0.18653318 0.88896447 -2.181967e+38
3.7035842 0.17984746 0.88896447 -2.1552265e+38
3.6685624 0.17074382 0.89246446 -2.1418302e+38
3.6685472 0.16412479 0.89246446 -2.1151409e+38
3.6685314 0.15750575 0.89246446 -2.1151403e+38
3.6685162 0.15088671 0.89246446 -2.1150886e+38
3.739511 0.14863177 0.88536447 -2.1283811e+38
3.7034903 0.1397333 0.88896447 -2.128433e+38
3.7394791 0.13512324 0.88536447 -2.1417774e+38
3.7394633 0.12836896 0.88536447 -2.1550699e+38
3.7394476 0.12161469 0.88536447 -2.1684141e+38
3.7394319 0.11486043 0.88536447 -2.1684147e+38
3.7394161 0.10810617 0.88536447 -2.1816557e+38
3.7033963 0.09961912 0.88896447 -2.1816567e+38
3.7033806 0.092933431 0.88896447 -2.2215346e+38
3.6683607 0.084696412 0.89246446 -2.2476482e+38
3.7033491 0.079562038 0.88896447 -2.2465543e+38
3.6683297 0.071458369 0.89246446 -2.2494734e+38
3.6683145 0.064839333 0.89246446 -3.1982731e+38
3.63305 -0.047902141 0.8959645 -2.5688513e+38
3.6330342 -0.054454505 0.8959645 -2.4080942e+38
3.633019 -0.06100687 0.8959645 -2.2349824e+38
3.6330037 -0.067559235 0.8959645 -2.235397e+38
3.6329885 -0.074111596 0.8959645 -2.2220015e+38
3.6329732 -0.080663957 0.8959645 -2.2087617e+38
3.6329575 -0.087216318 0.8959645 -2.182125e+38
3.6329422 -0.093768686 0.8959645 -2.1688327e+38
3.6329269 -0.10032105 0.8959645 -2.1555401e+38
3.6329117 -0.10687341 0.8959645 -2.1688319e+38
3.6328964 -0.11342578 0.8959645 -2.1687796e+38
3.6328807 -0.11997814 0.8959645 -2.1820715e+38
3.6328654 -0.1265305 0.8959645 -2.1953636e+38
3.6328502 -0.13308287 0.8959645 -2.221896e+38
3.6328349 -0.13963524 0.8959645 -2.2352921e+38
3.6328197 -0.1461876 0.8959645 -2.2486365e+38
3.6328039 -0.15273996 0.8959645 -2.2619288e+38
3.6327887 -0.15929233 0.8959645 -2.2752732e+38
3.6327734 -0.16584468 0.8959645 -2.2885659e+38
3.6327581 -0.17239705 0.8959645 -2.3019107e+38
3.6327429 -0.17894942 0.8959645 -2.3019634e+38
3.6327271 -0.18550178 0.8959645 -2.3285488e+38
3.6327119 -0.19205414 0.8959645 -2.3552376e+38
3.6676936 -0.19992185 0.89246446 -2.4083554e+38
3.6326814 -0.20515886 0.8959645 -2.4482828e+38
3.6326661 -0.21171123 0.8959645 -2.3283395e+38
3.6326504 -0.2182636 0.8959645 -2.1956812e+38
3.6326351 -0.22481596 0.8959645 -2.6488178e+38
3.6676164 -0.233017 0.89246446 -3.0904841e+38
3.6676006 -0.23963603 0.89246446 nan
3.7767725 0.26010191 0.87483966 nan
3.7767563 0.25327718 0.87483966 nan
3.8147483 0.24980146 0.87096733 -2.9819505e+38
3.7767243 0.23962769 0.87483966 -2.5287133e+38
3.7767081 0.23280293 0.87483966 -2.3683216e+38
3.7396851 0.22292867 0.87861013 -2.2218465e+38
3.7766762 0.21915346 0.87483966 -2.2220017e+38
3.7766604 0.2123287 0.87483966 -2.2220008e+38
3.7766442 0.20550397 0.87483966 -2.2087078e+38
3.7036157 0.19321886 0.88227874 -2.2086037e+38
3.7035999 0.18653318 0.88227874 -2.1819149e+38
3.6685781 0.17736286 0.88584542 -2.1552263e+38
3.6685624 0.17074382 0.88584542 -2.1418298e+38
3.6685472 0.16412479 0.88584542 -2.1284332e+38
3.6685314 0.15750575 0.88584542 -2.1284326e+38
3.6685162 0.15088671 0.88584542 -2.1150884e+38
3.6685004 0.14426771 0.88584542 -2.1150884e+38
3.7034903 0.1397333 0.88227874 -2.1284328e+38
3.7034745 0.13304761 0.88227874 -2.1417253e+38
3.7034588 0.12636191 0.88227874 -2.1550695e+38
3.7394476 0.12161469 0.87861013 -2.1550693e+38
3.7394319 0.11486043 0.87861013 -2.155122e+38
3.7394161 0.10810617 0.87861013 -2.1683113e+38
3.7033963 0.09961912 0.88227874 -2.1948453e+38
3.7033806 0.092933431 0.88227874 -2.1149373e+38
3.6683607 0.084696412 0.88584542 -2.048213e+38
3.6683455 0.078077406 0.88584542 -2.2884055e+38
3.63305 -0.047902141 0.88941205 -2.4336873e+38
3.6330342 -0.054454505 0.88941205 -2.5280348e+38
3.633019 -0.06100687 0.88941205 -2.620664e+38
3.6330037 -0.067559235 0.88941205 -2.3810898e+38
3.6329885 -0.074111596 0.88941205 -2.1554348e+38
3.6329732 -0.080663957 0.88941205 -2.1688331e+38
3.6329575 -0.087216318 0.88941205 -2.1954177e+38
3.6329422 -0.093768686 0.88941205 -2.1821252e+38
3.6329269 -0.10032105 0.88941205 -2.1821246e+38
3.6329117 -0.10687341 0.88941205 -2.1954163e+38
3.6328964 -0.11342578 0.88941205 -2.2086564e+38
3.6328807 -0.11997814 0.88941205 -2.208708e+38
3.6328654 -0.1265305 0.88941205 -2.222e+38
3.6328502 -0.13308287 0.88941205 -2.2352402e+38
3.6328349 -0.13963524 0.88941205 -2.261825e+38
3.5988212 -0.14542791 0.89287686 -2.2618771e+38
3.6328039 -0.15273996 0.88941205 -2.261929e+38
3.6327887 -0.15929233 0.88941205 -2.2619809e+38
3.6327734 -0.16584468 0.88941205 -2.2753257e+38
3.6327581 -0.17239705 0.88941205 -2.2753783e+38
3.6327429 -0.17894942 0.88941205 -2.275431e+38
3.6327271 -0.18550178 0.88941205 -2.3020683e+38
3.6327119 -0.19205414 0.88941205 -2.3287571e+38
3.6676936 -0.19992185 0.88584542 -2.3685822e+38
3.6326814 -0.20515886 0.88941205 -2.408614e+38
3.6326661 -0.21171123 0.88941205 -2.3020671e+38
3.6326504 -0.2182636 0.88941205 -2.1956789e+38
3.6326351 -0.22481596 0.88941205 -2.4627208e+38
3.6326199 -0.23136832 0.88941205 -2.7304468e+38
3.6676006 -0.23963603 0.88584542 nan
3.7767882 0.26692665 0.86801493 -3.3552819e+38
3.7767725 0.26010191 0.86801493 -3.2757357e+38
3.7767563 0.25327718 0.86801493 -3.1951985e+38
3.7767406 0.24645242 0.86801493 -2.6474067e+38
3.7767243 0.23962769 0.86801493 -2.1023196e+38
3.7767081 0.23280293 0.86801493 -2.1949506e+38
3.7396851 0.22292867 0.87185585 -2.275015e+38
3.7396693 0.21617442 0.87185585 -2.2485856e+38
3.7396536 0.20942017 0.87185585 -2.2220524e+38
3.7396374 0.2026659 0.87185585 -2.2219998e+38
3.7036157 0.19321886 0.87559307 -2.2086033e+38
3.6685934 0.1839819 0.87922633 -2.1819145e+38
3.6685781 0.17736286 0.87922633 -2.155174e+38
3.6685624 0.17074382 0.87922633 -2.1550699e+38
3.6685472 0.16412479 0.87922633 -2.1417774e+38
3.6685314 0.15750575 0.87922633 -2.1284847e+38
3.6685162 0.15088671 0.87922633 -2.1151405e+38
3.6685004 0.14426771 0.87922633 -2.1150884e+38
3.7034903 0.1397333 0.87559307 -2.1151405e+38
3.7394791 0.13512324 0.87185585 -2.1283811e+38
3.7394633 0.12836896 0.87185585 -2.1417251e+38
3.7394476 0.12161469 0.87185585 -2.1417251e+38
3.7394319 0.11486043 0.87185585 -2.1417778e+38
3.7394161 0.10810617 0.87185585 -2.1682592e+38
3.7393999 0.10135189 0.87185585 -2.194793e+38
3.7033806 0.092933431 0.87559307 -2.021683e+38
3.7033648 0.086247742 0.87559307 -1.8491418e+38
3.7033491 0.079562038 0.87559307 -2.3296359e+38
3.63305 -0.047902141 0.88285971 -2.2888281e+38
3.6330342 -0.054454505 0.88285971 -2.6495942e+38
3.633019 -0.06100687 0.88285971 -2.9938901e+38
3.6330037 -0.067559235 0.88285971 -2.5393512e+38
3.6329885 -0.074111596 0.88285971 -2.088402e+38
3.6329732 -0.080663957 0.88285971 -2.1423518e+38
3.6329575 -0.087216318 0.88285971 -2.1954688e+38
3.6329422 -0.093768686 0.88285971 -2.1954686e+38
3.6329269 -0.10032105 0.88285971 -2.1954682e+38
3.6329117 -0.10687341 0.88285971 -2.2220004e+38
3.6328964 -0.11342578 0.88285971 -2.2352923e+38
3.6328807 -0.11997814 0.88285971 -2.2485844e+38
3.6328654 -0.1265305 0.88285971 -2.2485842e+38
3.6328502 -0.13308287 0.88285971 -2.2617724e+38
3.6328349 -0.13963524 0.88285971 -2.2751688e+38
3.6328197 -0.1461876 0.88285971 -2.2751692e+38
3.6328039 -0.15273996 0.88285971 -2.261929e+38
3.6327887 -0.15929233 0.88285971 -2.2619294e+38
3.6327734 -0.16584468 0.88285971 -2.2487414e+38
3.6327581 -0.17239705 0.88285971 -2.2487937e+38
3.6327429 -0.17894942 0.88285971 -2.2488462e+38
3.6327271 -0.18550178 0.88285971 -2.2754833e+38
3.6677094 -0.19330283 0.87922633 -2.3021204e+38
3.6676936 -0.19992185 0.87922633 -2.3286017e+38
3.6326814 -0.20515886 0.88285971 -2.3553938e+38
3.6326661 -0.21171123 0.88285971 -2.2756401e+38
3.6326504 -0.2182636 0.88285971 -2.1827505e+38
3.6326351 -0.22481596 0.88285971 -2.2759531e+38
3.6326199 -0.23136832 0.88285971 -2.3712948e+38
3.6676006 -0.23963603 0.87922633 -3.2390945e+38
3.6325893 -0.24447304 0.88285971 nan
3.7767882 0.26692665 0.8611902 -2.7563474e+38
3.7767725 0.26010191 0.8611902 -2.7692235e+38
3.7767563 0.25327718 0.8611902 -2.7962707e+38
3.7767406 0.24645242 0.8611902 -2.5016549e+38
3.7767243 0.23962769 0.8611902 -2.2079808e+38
3.7767081 0.23280293 0.8611902 -2.2482751e+38
3.7396851 0.22292867 0.86510158 -2.2884627e+38
3.7396693 0.21617442 0.86510158 -2.261929e+38
3.7396536 0.20942017 0.86510158 -2.2486884e+38
3.7396374 0.2026659 0.86510158 -2.2219477e+38
3.7036157 0.19321886 0.86890733 -2.195207e+38
3.6685934 0.1839819 0.87260735 -2.168518e+38
3.6685781 0.17736286 0.87260735 -2.1551218e+38
3.6685624 0.17074382 0.87260735 -2.1418294e+38
3.6685472 0.16412479 0.87260735 -2.1418294e+38
3.6685314 0.15750575 0.87260735 -2.1284849e+38
3.6685162 0.15088671 0.87260735 -2.1284328e+38
3.703506 0.146419 0.86890733 -2.1284326e+38
3.7034903 0.1397333 0.86890733 -2.1284328e+38
3.7394791 0.13512324 0.86510158 -2.1284328e+38
3.7394633 0.12836896 0.86510158 -2.1417251e+38
3.7394476 0.12161469 0.86510158 -2.1417251e+38
3.7394319 0.11486043 0.86510158 -2.1551218e+38
3.7394161 0.10810617 0.86510158 -2.1417263e+38
3.7393999 0.10135189 0.86510158 -2.1417273e+38
3.7033806 0.092933431 0.86890733 -2.1544495e+38
3.7033648 0.086247742 0.86890733 -2.1668082e+38
3.63305 -0.047902141 0.87630731 -2.9006941e+38
3.6330342 -0.054454505 0.87630731 -3.1688833e+38
3.633019 -0.06100687 0.87630731 nan
3.6330037 -0.067559235 0.87630731 -2.7140203e+38
3.6329885 -0.074111596 0.87630731 -1.9817521e+38
3.6329732 -0.080663957 0.87630731 -2.115403e+38
3.6329575 -0.087216318 0.87630731 -2.2619813e+38
3.6329422 -0.093768686 0.87630731 -2.2486886e+38
3.6329269 -0.10032105 0.87630731 -2.2486367e+38
3.6329117 -0.10687341 0.87630731 -2.2486365e+38
3.6328964 -0.11342578 0.87630731 -2.2486361e+38
3.6328807 -0.11997814 0.87630731 -2.261928e+38
3.5988669 -0.1259651 0.87990165 -2.2752201e+38
3.6328502 -0.13308287 0.87630731 -2.2751679e+38
3.6328349 -0.13963524 0.87630731 -2.2885128e+38
3.6328197 -0.1461876 0.87630731 -2.2885132e+38
3.5988064 -0.15191552 0.87990165 -2.2884618e+38
3.6327887 -0.15929233 0.87630731 -2.2752738e+38
3.6327734 -0.16584468 0.87630731 -2.2620339e+38
3.6327581 -0.17239705 0.87630731 -2.2488456e+38
3.6327429 -0.17894942 0.87630731 -2.248898e+38
3.6327271 -0.18550178 0.87630731 -2.2755346e+38
3.6327119 -0.19205414 0.87630731 -2.3154125e+38
3.6326966 -0.19860649 0.87630731 -2.3420498e+38
3.6326814 -0.20515886 0.87630731 -2.3820832e+38
3.6326661 -0.21171123 0.87630731 -2.3422589e+38
3.6326504 -0.2182636 0.87630731 -2.3159334e+38
3.6326351 -0.22481596 0.87630731 -2.2095426e+38
3.6326199 -0.23136832 0.87630731 -2.1035792e+38
3.6676006 -0.23963603 0.87260735 -3.0778729e+38
3.6325893 -0.24447304 0.87630731 nan
3.6325736 -0.25102541 0.87630731 nan
3.7397957 0.27020857 0.8583473 -2.0486303e+38
3.7767882 0.26692665 0.85436541 -2.1424559e+38
3.7767725 0.26010191 0.85436541 -2.2618274e+38
3.7767563 0.25327718 0.85436541 -2.3820792e+38
3.7767406 0.24645242 0.85436541 -2.3416813e+38
3.7767243 0.23962769 0.85436541 -2.301546e+38
3.7397008 0.22968298 0.8583473 -2.3017549e+38
3.7396851 0.22292867 0.8583473 -2.288514e+38
3.7036624 0.21327594 0.8622216 -2.275273e+38
3.7036467 0.20659027 0.8622216 -2.2618243e+38
3.7036309 0.19990453 0.8622216 -2.2217913e+38
3.6686091 0.1906009 0.86598825 -2.168518e+38
3.6685934 0.1839819 0.86598825 -2.1551216e+38
3.6685781 0.17736286 0.86598825 -2.1418291e+38
3.6685624 0.17074382 0.86598825 -2.1418291e+38
3.6685472 0.16412479 0.86598825 -2.1284328e+38
3.6685314 0.15750575 0.86598825 -2.1284326e+38
3.6685162 0.15088671 0.86598825 -2.1284326e+38
3.703506 0.146419 0.8622216 -2.1417251e+38
3.7034903 0.1397333 0.8622216 -2.1417253e+38
3.7394791 0.13512324 0.8583473 -2.1417774e+38
3.7394633 0.12836896 0.8583473 -2.128433e+38
3.7394476 0.12161469 0.8583473 -2.1416734e+38
3.7394319 0.11486043 0.8583473 -2.1550695e+38
3.7394161 0.10810617 0.8583473 -2.1151407e+38
3.7393999 0.10135189 0.8583473 -2.0750572e+38
3.7033806 0.092933431 0.8622216 -2.2741828e+38
3.6330342 -0.054454505 0.86975491 nan
3.633019 -0.06100687 0.86975491 nan
3.6330037 -0.067559235 0.86975491 -2.8867183e+38
3.6329885 -0.074111596 0.86975491 -1.8759341e+38
3.6329732 -0.080663957 0.86975491 -2.1020586e+38
3.6329575 -0.087216318 0.86975491 -2.3150464e+38
3.6329422 -0.093768686 0.86975491 -2.315202e+38
3.6329269 -0.10032105 0.86975491 -2.3018576e+38
3.5989127 -0.1065023 0.87341398 -2.2885651e+38
3.6328964 -0.11342578 0.86975491 -2.2619282e+38
3.6328807 -0.11997814 0.86975491 -2.2751683e+38
3.5988669 -0.1259651 0.87341398 -2.2885123e+38
3.6328502 -0.13308287 0.86975491 -2.3018046e+38
3.6328349 -0.13963524 0.86975491 -2.301805e+38
3.5988212 -0.14542791 0.87341398 -2.3151498e+38
3.5988064 -0.15191552 0.87341398 -2.3150985e+38
3.6327887 -0.15929233 0.86975491 -2.3018586e+38
3.6327734 -0.16584468 0.86975491 -2.2753259e+38
3.6327581 -0.17239705 0.86975491 -2.2621377e+38
3.6327429 -0.17894942 0.86975491 -2.2356574e+38
3.6327271 -0.18550178 0.86975491 -2.2755866e+38
3.6327119 -0.19205414 0.86975491 -2.3154642e+38
3.6326966 -0.19860649 0.86975491 -2.3553938e+38
3.6326814 -0.20515886 0.86975491 -2.3952714e+38
3.6326661 -0.21171123 0.86975491 -2.4218568e+38
3.6326504 -0.2182636 0.86975491 -2.4486476e+38
3.6326351 -0.22481596 0.86975491 -2.1427163e+38
3.6326199 -0.23136832 0.86975491 -1.8380952e+38
3.5986085 -0.23625433 0.87341398 -2.9182597e+38
3.6325893 -0.24447304 0.86975491 nan
3.598578 -0.24922952 0.87341398 nan
3.7768202 0.28057614 0.84754062 -1.980759e+38
3.7397957 0.27020857 0.85159302 -2.1011684e+38
3.7767882 0.26692665 0.84754062 -2.2207492e+38
3.7767725 0.26010191 0.84754062 -2.3012321e+38
3.7767563 0.25327718 0.84754062 -2.3810387e+38
3.7397327 0.24319148 0.85159302 -2.3414744e+38
3.7397165 0.23643723 0.85159302 -2.3015979e+38
3.7397008 0.22968298 0.85159302 -2.2751174e+38
3.7036781 0.21996167 0.85553586 -2.2618769e+38
3.7036624 0.21327594 0.85553586 -2.2485323e+38
3.6686401 0.20383897 0.85936922 -2.2351355e+38
3.7036309 0.19990453 0.85553586 -2.1951542e+38
3.6686091 0.1906009 0.85936922 -2.1551734e+38
3.7035999 0.18653318 0.85553586 -2.1418289e+38
3.7035842 0.17984746 0.85553586 -2.1151925e+38
3.6685624 0.17074382 0.85936922 -2.1150886e+38
3.6685472 0.16412479 0.85936922 -2.1149844e+38
3.6685314 0.15750575 0.85936922 -2.1150878e+38
3.7035213 0.15310471 0.85553586 -2.1283807e+38
3.703506 0.146419 0.85553586 -2.1283811e+38
3.7394953 0.1418775 0.85159302 -2.1283815e+38
3.7394791 0.13512324 0.85159302 -2.1284336e+38
3.7394633 0.12836896 0.85159302 -2.1284334e+38
3.7394476 0.12161469 0.85159302 -2.1550176e+38
3.7394319 0.11486043 0.85159302 -2.1683612e+38
3.7394161 0.10810617 0.85159302 -2.181549e+38
3.7393999 0.10135189 0.85159302 -2.1812904e+38
3.633019 -0.06100687 0.86320257 nan
3.6330037 -0.067559235 0.86320257 -3.0215645e+38
3.6329885 -0.074111596 0.86320257 -2.1947421e+38
3.6329732 -0.080663957 0.86320257 -2.2748061e+38
3.6329575 -0.087216318 0.86320257 -2.3683192e+38
3.6329422 -0.093768686 0.86320257 -2.3284421e+38
3.6329269 -0.10032105 0.86320257 -2.3018574e+38
3.5989127 -0.1065023 0.86692637 -2.2885647e+38
3.5988975 -0.1129899 0.86692637 -2.2752724e+38
3.5988822 -0.11947751 0.86692637 -2.2885125e+38
3.5988669 -0.1259651 0.86692637 -2.3018568e+38
3.5988517 -0.13245271 0.86692637 -2.3018046e+38
3.6328349 -0.13963524 0.86320257 -2.3017533e+38
3.6328197 -0.1461876 0.86320257 -2.3150981e+38
3.6328039 -0.15273996 0.86320257 -2.3150468e+38
3.6327887 -0.15929233 0.86320257 -2.3018588e+38
3.5987759 -0.16489072 0.86692637 -2.2886182e+38
3.6327581 -0.17239705 0.86320257 -2.2754296e+38
3.6327429 -0.17894942 0.86320257 -2.2622418e+38
3.6327271 -0.18550178 0.86320257 -2.302119e+38
3.6327119 -0.19205414 0.86320257 -2.3287563e+38
3.6326966 -0.19860649 0.86320257 -2.3686337e+38
3.6326814 -0.20515886 0.86320257 -2.4085116e+38
3.6326661 -0.21171123 0.86320257 -2.4484931e+38
3.6326504 -0.2182636 0.86320257 -2.4886277e+38
3.6326351 -0.22481596 0.86320257 -2.3019626e+38
3.6326199 -0.23136832 0.86320257 -2.1152065e+38
3.6326046 -0.23792067 0.86320257 -2.9967132e+38
3.6325893 -0.24447304 0.86320257 nan
3.6325736 -0.25102541 0.86320257 nan
3.5985627 -0.25571713 0.86692637 nan
3.7398119 0.27696282 0.84483874 -2.0083833e+38
3.7397957 0.27020857 0.84483874 -2.1545983e+38
3.7397799 0.26345432 0.84483874 -2.2878349e+38
3.7767725 0.26010191 0.84071589 -2.3413176e+38
3.7397485 0.24994576 0.84483874 -2.381247e+38
3.7397327 0.24319148 0.84483874 -2.3415784e+38
3.7397165 0.23643723 0.84483874 -2.2884095e+38
3.7036939 0.22664735 0.84885013 -2.2618771e+38
3.7036781 0.21996167 0.84885013 -2.2352402e+38
3.7036624 0.21327594 0.84885013 -2.2218439e+38
3.6686401 0.20383897 0.85275018 -2.1952068e+38
3.6686244 0.19721997 0.85275018 -2.168518e+38
3.6686091 0.1906009 0.85275018 -2.1418291e+38
3.6685934 0.1839819 0.85275018 -2.1151405e+38
3.6685781 0.17736286 0.85275018 -2.0884521e+38
3.6685624 0.17074382 0.85275018 -2.1016923e+38
3.6685472 0.16412479 0.85275018 -2.1016921e+38
3.6685314 0.15750575 0.85275018 -2.1150363e+38
3.7035213 0.15310471 0.84885013 -2.1150886e+38
3.703506 0.146419 0.84885013 -2.115089e+38
3.7394953 0.1418775 0.84483874 -2.115089e+38
3.7394791 0.13512324 0.84483874 -2.1284332e+38
3.7394633 0.12836896 0.84483874 -2.1284332e+38
3.7394476 0.12161469 0.84483874 -2.1550178e+38
3.7394319 0.11486043 0.84483874 -2.1816025e+38
3.7394161 0.10810617 0.84483874 -2.2347201e+38
3.7393999 0.10135189 0.84483874 -2.2883063e+38
3.6330037 -0.067559235 0.85665017 -3.1686659e+38
3.6329885 -0.074111596 0.85665017 -2.5020224e+38
3.6329732 -0.080663957 0.85665017 -2.4607394e+38
3.6329575 -0.087216318 0.85665017 -2.4080388e+38
3.5989432 -0.093527101 0.8604387 -2.3550265e+38
3.598928 -0.1000147 0.8604387 -2.288617e+38
3.5989127 -0.1065023 0.8604387 -2.288617e+38
3.5988975 -0.1129899 0.8604387 -2.2752726e+38
3.5988822 -0.11947751 0.8604387 -2.288513e+38
3.5988669 -0.1259651 0.8604387 -2.3018052e+38
3.5988517 -0.13245271 0.8604387 -2.3018052e+38
3.5988364 -0.1389403 0.8604387 -2.3017537e+38
3.5988212 -0.14542791 0.8604387 -2.3150464e+38
3.6328039 -0.15273996 0.85665017 -2.3150987e+38
3.6327887 -0.15929233 0.85665017 -2.3018588e+38
3.5987759 -0.16489072 0.8604387 -2.2886703e+38
3.6327581 -0.17239705 0.85665017 -2.2887223e+38
3.6327429 -0.17894942 0.85665017 -2.2887746e+38
3.6327271 -0.18550178 0.85665017 -2.3153594e+38
3.6327119 -0.19205414 0.85665017 -2.3419445e+38
3.6326966 -0.19860649 0.85665017 -2.3817701e+38
3.6326814 -0.20515886 0.85665017 -2.4084593e+38
3.6326661 -0.21171123 0.85665017 -2.4749217e+38
3.6326504 -0.2182636 0.85665017 -2.5281928e+38
3.6326351 -0.22481596 0.85665017 -2.4613142e+38
3.6326199 -0.23136832 0.85665017 -2.3823479e+38
3.6326046 -0.23792067 0.85665017 -3.0901703e+38
3.6675854 -0.24625507 0.85275018 nan
3.6325736 -0.25102541 0.85665017 nan
3.6325583 -0.25757778 0.85665017 nan
3.7398276 0.28371713 0.83808446 -2.2617166e+38
3.7398119 0.27696282 0.83808446 -2.2485282e+38
3.7397957 0.27020857 0.83808446 -2.2885089e+38
3.7397799 0.26345432 0.83808446 -2.3415762e+38
3.7397642 0.25670004 0.83808446 -2.3416302e+38
3.7397485 0.24994576 0.83808446 -2.3547669e+38
3.7397327 0.24319148 0.83808446 -2.3149422e+38
3.7037096 0.23333302 0.84216446 -2.2750653e+38
3.7036939 0.22664735 0.84216446 -2.2485327e+38
3.7036781 0.21996167 0.84216446 -2.221896e+38
3.6686554 0.21045801 0.84613109 -2.2085516e+38
3.6686401 0.20383897 0.84613109 -2.1818628e+38
3.6686244 0.19721997 0.84613109 -2.1551738e+38
3.6686091 0.1906009 0.84613109 -2.1417774e+38
3.6685934 0.1839819 0.84613109 -2.1017444e+38
3.6685781 0.17736286 0.84613109 -2.0749e+38
3.6685624 0.17074382 0.84613109 -2.088296e+38
3.6685472 0.16412479 0.84613109 -2.1015884e+38
3.6685314 0.15750575 0.84613109 -2.1016923e+38
3.6685162 0.15088671 0.84613109 -2.1150369e+38
3.703506 0.146419 0.84216446 -2.1017448e+38
3.7034903 0.1397333 0.84216446 -2.1016927e+38
3.7394791 0.13512324 0.83808446 -2.1150886e+38
3.7394633 0.12836896 0.83808446 -2.1283811e+38
3.7034431 0.11967622 0.84216446 -2.1417255e+38
3.7394319 0.11486043 0.83808446 -2.1683632e+38
3.7764206 0.10995753 0.83389115 -2.2215855e+38
3.7764044 0.1031328 0.83389115 -2.288361e+38
3.8143926 0.098064706 0.82958448 -2.4353574e+38
3.6329885 -0.074111596 0.85009778 -2.5960034e+38
3.6329732 -0.080663957 0.85009778 -2.4612039e+38
3.6329575 -0.087216318 0.85009778 -2.3417316e+38
3.5989432 -0.093527101 0.8539511 -2.3151494e+38
3.598928 -0.1000147 0.8539511 -2.3019093e+38
3.5989127 -0.1065023 0.8539511 -2.2886172e+38
3.5988975 -0.1129899 0.8539511 -2.2885653e+38
3.5988822 -0.11947751 0.8539511 -2.2885132e+38
3.5988669 -0.1259651 0.8539511 -2.3018056e+38
3.6328502 -0.13308287 0.85009778 -2.3018058e+38
3.6328349 -0.13963524 0.85009778 -2.3017541e+38
3.5988212 -0.14542791 0.8539511 -2.3018062e+38
3.5988064 -0.15191552 0.8539511 -2.3018586e+38
3.6327887 -0.15929233 0.85009778 -2.3019107e+38
3.6327734 -0.16584468 0.85009778 -2.3020148e+38
3.6327581 -0.17239705 0.85009778 -2.302015e+38
3.6327429 -0.17894942 0.85009778 -2.3020152e+38
3.6327271 -0.18550178 0.85009778 -2.3153594e+38
3.6327119 -0.19205414 0.85009778 -2.3286003e+38
3.6326966 -0.19860649 0.85009778 -2.3551853e+38
3.6326814 -0.20515886 0.85009778 -2.3951149e+38
3.6326661 -0.21171123 0.85009778 -2.4350964e+38
3.6326504 -0.2182636 0.85009778 -2.4752312e+38
3.6326351 -0.22481596 0.85009778 -2.4080932e+38
3.6676164 -0.233017 0.84613109 -2.3412746e+38
3.6676006 -0.23963603 0.84613109 -2.9559969e+38
3.6675854 -0.24625507 0.84613109 nan
3.6675696 -0.25287411 0.84613109 nan
3.6325583 -0.25757778 0.85009778 nan
3.7398276 0.28371713 0.83133018 -2.4352458e+38
3.7398119 0.27696282 0.83133018 -2.4886227e+38
3.7397957 0.27020857 0.83133018 -2.435973e+38
3.7397799 0.26345432 0.83133018 -2.382182e+38
3.7397642 0.25670004 0.83133018 -2.3554429e+38
3.7397485 0.24994576 0.83133018 -2.3284425e+38
3.7397327 0.24319148 0.83133018 -2.301702e+38
3.7037096 0.23333302 0.83547878 -2.261773e+38
3.7036939 0.22664735 0.83547878 -2.2351883e+38
3.7036781 0.21996167 0.83547878 -2.2086035e+38
3.7036624 0.21327594 0.83547878 -2.1952072e+38
3.6686401 0.20383897 0.83951211 -2.1685184e+38
3.7036309 0.19990453 0.83547878 -2.1551738e+38
3.6686091 0.1906009 0.83951211 -2.128433e+38
3.6685934 0.1839819 0.83951211 -2.1016925e+38
3.6685781 0.17736286 0.83951211 -2.0617635e+38
3.6685624 0.17074382 0.83951211 -2.0882962e+38
3.7035527 0.16647609 0.83547878 -2.1016923e+38
3.6685314 0.15750575 0.83951211 -2.1017442e+38
3.7035213 0.15310471 0.83547878 -2.1016404e+38
3.703506 0.146419 0.83547878 -2.0883483e+38
3.7034903 0.1397333 0.83547878 -2.0751079e+38
3.7394791 0.13512324 0.83133018 -2.1017444e+38
3.7394633 0.12836896 0.83133018 -2.1150886e+38
3.7394476 0.12161469 0.83133018 -2.1283292e+38
3.7764363 0.11678228 0.82706636 -2.1417259e+38
3.7764206 0.10995753 0.82706636 -2.20824e+38
3.8144088 0.10496181 0.82268733 -2.2750152e+38
3.8143926 0.098064706 0.82268733 -2.3284983e+38
3.6329732 -0.080663957 0.84354544 -2.4728379e+38
3.6329575 -0.087216318 0.84354544 -2.2612009e+38
3.6329422 -0.093768686 0.84354544 -2.2884614e+38
3.6329269 -0.10032105 0.84354544 -2.3019097e+38
3.6329117 -0.10687341 0.84354544 -2.3019099e+38
3.5988975 -0.1129899 0.84746349 -2.3018578e+38
3.5988822 -0.11947751 0.84746349 -2.3018056e+38
3.5988669 -0.1259651 0.84746349 -2.2885134e+38
3.5988517 -0.13245271 0.84746349 -2.2885136e+38
3.5988364 -0.1389403 0.84746349 -2.288514e+38
3.5988212 -0.14542791 0.84746349 -2.2885661e+38
3.5988064 -0.15191552 0.84746349 -2.288618e+38
3.5987911 -0.15840311 0.84746349 -2.3019624e+38
3.5987759 -0.16489072 0.84746349 -2.3020143e+38
3.6327581 -0.17239705 0.84354544 -2.3152547e+38
3.6327429 -0.17894942 0.84354544 -2.315307e+38
3.6327271 -0.18550178 0.84354544 -2.3153592e+38
3.6327119 -0.19205414 0.84354544 -2.3153076e+38
3.6326966 -0.19860649 0.84354544 -2.3418928e+38
3.6326814 -0.20515886 0.84354544 -2.368582e+38
3.6326661 -0.21171123 0.84354544 -2.3951674e+38
3.6326504 -0.2182636 0.84354544 -2.4083548e+38
3.6326351 -0.22481596 0.84354544 -2.3544578e+38
3.6676164 -0.233017 0.83951211 -2.2888316e+38
3.6676006 -0.23963603 0.83951211 -2.8353772e+38
3.6675854 -0.24625507 0.83951211 -3.3699858e+38
3.6675696 -0.25287411 0.83951211 nan
3.6675544 -0.25949314 0.83951211 nan
3.7398276 0.28371713 0.8245759 -2.4087676e+38
3.7398119 0.27696282 0.8245759 -2.449164e+38
3.7397957 0.27020857 0.8245759 -2.3958913e+38
3.7397799 0.26345432 0.8245759 -2.3426187e+38
3.7397642 0.25670004 0.8245759 -2.3288074e+38
3.7397485 0.24994576 0.8245759 -2.3018588e+38
3.7037253 0.24001876 0.82879305 -2.2751176e+38
3.7037096 0.23333302 0.82879305 -2.2484288e+38
3.7036939 0.22664735 0.82879305 -2.2219477e+38
3.7036781 0.21996167 0.82879305 -2.2086552e+38
3.6686554 0.21045801 0.83289301 -2.1819145e+38
3.6686401 0.20383897 0.83289301 -2.1684662e+38
3.7036309 0.19990453 0.82879305 -2.1418294e+38
3.6686091 0.1906009 0.83289301 -2.128433e+38
3.6685934 0.1839819 0.83289301 -2.0884519e+38
3.6685781 0.17736286 0.83289301 -2.0619195e+38
3.6685624 0.17074382 0.83289301 -2.0751079e+38
3.6685472 0.16412479 0.83289301 -2.0751597e+38
3.6685314 0.15750575 0.83289301 -2.0750556e+38
3.6685162 0.15088671 0.83289301 -2.0748998e+38
3.703506 0.146419 0.82879305 -2.0750037e+38
3.7034903 0.1397333 0.82879305 -2.0883481e+38
3.7034745 0.13304761 0.82879305 -2.1017442e+38
3.7394633 0.12836896 0.8245759 -2.1283809e+38
3.7394476 0.12161469 0.8245759 -2.1417251e+38
3.7764363 0.11678228 0.82024157 -2.1683618e+38
3.7764206 0.10995753 0.82024157 -2.2215828e+38
3.8144088 0.10496181 0.81579018 -2.2749099e+38
3.667942 -0.094017379 0.83289301 -2.4077287e+38
3.6329269 -0.10032105 0.83699304 -2.2622407e+38
3.6329117 -0.10687341 0.83699304 -2.2887217e+38
3.6328964 -0.11342578 0.83699304 -2.3150983e+38
3.6328807 -0.11997814 0.83699304 -2.3018056e+38
3.6328654 -0.1265305 0.83699304 -2.301702e+38
3.5988517 -0.13245271 0.84097588 -2.2885136e+38
3.5988364 -0.1389403 0.84097588 -2.2885659e+38
3.5988212 -0.14542791 0.84097588 -2.2753259e+38
3.5988064 -0.15191552 0.84097588 -2.2620854e+38
3.5987911 -0.15840311 0.84097588 -2.2754813e+38
3.5987759 -0.16489072 0.84097588 -2.2888255e+38
3.6327581 -0.17239705 0.83699304 -2.2887734e+38
3.6327429 -0.17894942 0.83699304 -2.3020663e+38
3.6327271 -0.18550178 0.83699304 -2.315307e+38
3.6327119 -0.19205414 0.83699304 -2.3285997e+38
3.6326966 -0.19860649 0.83699304 -2.3419443e+38
3.6326814 -0.20515886 0.83699304 -2.3686335e+38
3.6326661 -0.21171123 0.83699304 -2.3952189e+38
3.6326504 -0.2182636 0.83699304 -2.4085627e+38
3.6676316 -0.22639799 0.83289301 -2.4084065e+38
3.6676164 -0.233017 0.83289301 -2.4084092e+38
3.6676006 -0.23963603 0.83289301 -2.7285688e+38
3.6675854 -0.24625507 0.83289301 -3.0628603e+38
3.6675696 -0.25287411 0.83289301 nan
3.6325583 -0.25757778 0.83699304 nan
3.7398434 0.29047137 0.81782162 -2.3686307e+38
3.7398276 0.28371713 0.81782162 -2.3822868e+38
3.7398119 0.27696282 0.81782162 -2.3957874e+38
3.7397957 0.27020857 0.81782162 -2.3558074e+38
3.7397799 0.26345432 0.81782162 -2.3023267e+38
3.7397642 0.25670004 0.81782162 -2.288619e+38
3.7397485 0.24994576 0.81782162 -2.2751704e+38
3.7037253 0.24001876 0.82210732 -2.2484292e+38
3.7037096 0.23333302 0.82210732 -2.2218962e+38
3.7036939 0.22664735 0.82210732 -2.2087593e+38
3.6686711 0.21707705 0.82627398 -2.1952589e+38
3.6686554 0.21045801 0.82627398 -2.1818626e+38
3.6686401 0.20383897 0.82627398 -2.1551738e+38
3.6686244 0.19721997 0.82627398 -2.1418291e+38
3.6686091 0.1906009 0.82627398 -2.1150365e+38
3.6685934 0.1839819 0.82627398 -2.0882958e+38
3.6685781 0.17736286 0.82627398 -2.0617633e+38
3.6685624 0.17074382 0.82627398 -2.0617633e+38
3.6685472 0.16412479 0.82627398 -2.0484708e+38
3.6685314 0.15750575 0.82627398 -2.0483666e+38
3.6685162 0.15088671 0.82627398 -2.0483149e+38
3.703506 0.146419 0.82210732 -2.0748996e+38
3.7034903 0.1397333 0.82210732 -2.0883479e+38
3.7034745 0.13304761 0.82210732 -2.1150884e+38
3.7394633 0.12836896 0.81782162 -2.1283809e+38
3.7394476 0.12161469 0.81782162 -2.1550176e+38
3.7764363 0.11678228 0.81341684 -2.1817062e+38
3.7764206 0.10995753 0.81341684 -2.2348755e+38
3.6329269 -0.10032105 0.83044064 -2.2217392e+38
3.6329117 -0.10687341 0.83044064 -2.2755334e+38
3.6328964 -0.11342578 0.83044064 -2.3152541e+38
3.6328807 -0.11997814 0.83044064 -2.315202e+38
3.6328654 -0.1265305 0.83044064 -2.3018056e+38
3.6328502 -0.13308287 0.83044064 -2.3018056e+38
3.5988364 -0.1389403 0.83448827 -2.2885655e+38
3.5988212 -0.14542791 0.83448827 -2.2620333e+38
3.5988064 -0.15191552 0.83448827 -2.222312e+38
3.5987911 -0.15840311 0.83448827 -2.2490523e+38
3.5987759 -0.16489072 0.83448827 -2.2622407e+38
3.6327581 -0.17239705 0.83044064 -2.2754813e+38
3.6327429 -0.17894942 0.83044064 -2.2887221e+38
3.6327271 -0.18550178 0.83044064 -2.3152553e+38
3.6327119 -0.19205414 0.83044064 -2.3285999e+38
3.6326966 -0.19860649 0.83044064 -2.3552368e+38
3.6326814 -0.20515886 0.83044064 -2.3685818e+38
3.6326661 -0.21171123 0.83044064 -2.3951672e+38
3.6326504 -0.2182636 0.83044064 -2.4087716e+38
3.6676316 -0.22639799 0.82627398 -2.4622012e+38
3.6676164 -0.233017 0.82627398 -2.5150604e+38
3.6676006 -0.23963603 0.82627398 -2.6342252e+38
3.6675854 -0.24625507 0.82627398 -2.7572419e+38
3.6325736 -0.25102541 0.83044064 nan
3.6325583 -0.25757778 0.83044064 nan
3.7768683 0.30105036 0.80659211 -2.3554423e+38
3.7768521 0.29422563 0.80659211 -2.3691501e+38
3.7768364 0.28740087 0.80659211 -2.3559617e+38
3.7398119 0.27696282 0.81106734 -2.3559627e+38
3.7397957 0.27020857 0.81106734 -2.3289636e+38
3.7397799 0.26345432 0.81106734 -2.3152038e+38
3.7397642 0.25670004 0.81106734 -2.2885152e+38
3.7397485 0.24994576 0.81106734 -2.2750665e+38
3.7037253 0.24001876 0.81542158 -2.235137e+38
3.7037096 0.23333302 0.81542158 -2.208552e+38
3.6686864 0.22369605 0.81965494 -2.1952074e+38
3.6686711 0.21707705 0.81965494 -2.1818108e+38
3.6686554 0.21045801 0.81965494 -2.1684662e+38
3.6686401 0.20383897 0.81965494 -2.1417774e+38
3.6686244 0.19721997 0.81965494 -2.1283807e+38
3.6686091 0.1906009 0.81965494 -2.101588e+38
3.6685934 0.1839819 0.81965494 -2.0883473e+38
3.6685781 0.17736286 0.81965494 -2.061711e+38
3.6685624 0.17074382 0.81965494 -2.061711e+38
3.7035527 0.16647609 0.81542158 -2.0616587e+38
3.703537 0.1597904 0.81542158 -2.0616583e+38
3.7035213 0.15310471 0.81542158 -2.0616067e+38
3.703506 0.146419 0.81542158 -2.0750033e+38
3.7034903 0.1397333 0.81542158 -2.1016921e+38
3.7034745 0.13304761 0.81542158 -2.1283288e+38
3.7034588 0.12636191 0.81542158 -2.1416734e+38
3.7394476 0.12161469 0.81106734 -2.1816543e+38
3.7764363 0.11678228 0.80659211 -2.2083431e+38
3.7764206 0.10995753 0.80659211 -2.2217394e+38
3.6329269 -0.10032105 0.8238883 -1.9948344e+38
3.6329117 -0.10687341 0.8238883 -2.1686242e+38
3.6328964 -0.11342578 0.8238883 -2.3285466e+38
3.6328807 -0.11997814 0.8238883 -2.315202e+38
3.6328654 -0.1265305 0.8238883 -2.3018576e+38
3.6328502 -0.13308287 0.8238883 -2.2885651e+38
3.5988364 -0.1389403 0.82800066 -2.275273e+38
3.5988212 -0.14542791 0.82800066 -2.2620846e+38
3.5988064 -0.15191552 0.82800066 -2.2356558e+38
3.5987911 -0.15840311 0.82800066 -2.2622403e+38
3.5987759 -0.16489072 0.82800066 -2.2887734e+38
3.5987606 -0.17137831 0.82800066 -2.2887219e+38
3.6327429 -0.17894942 0.8238883 -2.3019626e+38
3.6327271 -0.18550178 0.8238883 -2.3285476e+38
3.6327119 -0.19205414 0.8238883 -2.3418922e+38
3.6326966 -0.19860649 0.8238883 -2.3552368e+38
3.6326814 -0.20515886 0.8238883 -2.3685818e+38
3.6326661 -0.21171123 0.8238883 -2.395323e+38
3.6326504 -0.2182636 0.8238883 -2.4222209e+38
3.6676316 -0.22639799 0.81965494 -2.4221708e+38
3.6676164 -0.233017 0.81965494 -2.4356714e+38
3.6676006 -0.23963603 0.81965494 -2.4754969e+38
3.6675854 -0.24625507 0.81965494 -2.516683e+38
3.6675696 -0.25287411 0.81965494 nan
3.6325583 -0.25757778 0.8238883 nan
3.7768841 0.30787513 0.79976732 -2.3554437e+38
3.7768683 0.30105036 0.79976732 -2.3561185e+38
3.7398434 0.29047137 0.80431306 -2.3560662e+38
3.7398276 0.28371713 0.80431306 -2.3430852e+38
3.7398119 0.27696282 0.80431306 -2.315878e+38
3.7397957 0.27020857 0.80431306 -2.3154113e+38
3.7397799 0.26345432 0.80431306 -2.3152034e+38
3.7397642 0.25670004 0.80431306 -2.2884631e+38
3.7037406 0.24670443 0.80873585 -2.261774e+38
3.7037253 0.24001876 0.80873585 -2.2350852e+38
3.6687021 0.23031509 0.81303585 -2.1952078e+38
3.6686864 0.22369605 0.81303585 -2.1817591e+38
3.6686711 0.21707705 0.81303585 -2.1684145e+38
3.6686554 0.21045801 0.81303585 -2.155018e+38
3.6686401 0.20383897 0.81303585 -2.1283811e+38
3.6686244 0.19721997 0.81303585 -2.1149326e+38
3.6686091 0.1906009 0.81303585 -2.0883998e+38
3.6685934 0.1839819 0.81303585 -2.0751075e+38
3.6685781 0.17736286 0.81303585 -2.0617631e+38
3.6685624 0.17074382 0.81303585 -2.0750035e+38
3.6685472 0.16412479 0.81303585 -2.0750552e+38
3.6685314 0.15750575 0.81303585 -2.075055e+38
3.6685162 0.15088671 0.81303585 -2.0617629e+38
3.6685004 0.14426771 0.81303585 -2.0884517e+38
3.7034903 0.1397333 0.80873585 -2.1150365e+38
3.7034745 0.13304761 0.80873585 -2.1415693e+38
3.7394633 0.12836896 0.80431306 -2.1550178e+38
3.7394476 0.12161469 0.80431306 -2.1949989e+38
3.7764363 0.11678228 0.79976732 -2.234928e+38
3.7764206 0.10995753 0.79976732 -2.2083958e+38
3.6329269 -0.10032105 0.81733584 -1.7695435e+38
3.6329117 -0.10687341 0.81733584 -2.0623375e+38
3.6328964 -0.11342578 0.81733584 -2.3417869e+38
3.6328807 -0.11997814 0.81733584 -2.3152541e+38
3.6328654 -0.1265305 0.81733584 -2.2886174e+38
3.6328502 -0.13308287 0.81733584 -2.275273e+38
3.6328349 -0.13963524 0.81733584 -2.2619807e+38
3.5988212 -0.14542791 0.82151306 -2.2620324e+38
3.5988064 -0.15191552 0.82151306 -2.2487923e+38
3.5987911 -0.15840311 0.82151306 -2.2753771e+38
3.5987759 -0.16489072 0.82151306 -2.3020139e+38
3.6327581 -0.17239705 0.81733584 -2.3152549e+38
3.6327429 -0.17894942 0.81733584 -2.3152553e+38
3.6327271 -0.18550178 0.81733584 -2.3417884e+38
3.6327119 -0.19205414 0.81733584 -2.3551328e+38
3.6326966 -0.19860649 0.81733584 -2.3684254e+38
3.6326814 -0.20515886 0.81733584 -2.3685299e+38
3.6676626 -0.21315992 0.81303585 -2.3952189e+38
3.6676474 -0.21977895 0.81303585 -2.4219087e+38
3.6676316 -0.22639799 0.81303585 -2.3819295e+38
3.6676164 -0.233017 0.81303585 -2.3422074e+38
3.6676006 -0.23963603 0.81303585 -2.3153624e+38
3.6675854 -0.24625507 0.81303585 -2.2774692e+38
3.6675696 -0.25287411 0.81303585 -3.2652106e+38
3.6675544 -0.25949314 0.81303585 nan
3.6675386 -0.26611215 0.81303585 nan
3.7768841 0.30787513 0.79294252 -2.3555488e+38
3.7768683 0.30105036 0.79294252 -2.3557041e+38
3.7398434 0.29047137 0.79755878 -2.3691516e+38
3.7398276 0.28371713 0.79755878 -2.3290664e+38
3.7398119 0.27696282 0.79755878 -2.3021703e+38
3.7397957 0.27020857 0.79755878 -2.2887223e+38
3.7397799 0.26345432 0.79755878 -2.2886184e+38
3.7397642 0.25670004 0.79755878 -2.2485858e+38
3.7037406 0.24670443 0.80205017 -2.2218453e+38
3.7037253 0.24001876 0.80205017 -2.1953122e+38
3.6687021 0.23031509 0.80641687 -2.1819674e+38
3.6686864 0.22369605 0.80641687 -2.1685705e+38
3.6686711 0.21707705 0.80641687 -2.1683624e+38
3.6686554 0.21045801 0.80641687 -2.1550695e+38
3.6686401 0.20383897 0.80641687 -2.1284328e+38
3.6686244 0.19721997 0.80641687 -2.1150884e+38
3.6686091 0.1906009 0.80641687 -2.1017963e+38
3.6685934 0.1839819 0.80641687 -2.0884521e+38
