# .PCD v0.7 - Point Cloud Data file format
VERSION 0.7
FIELDS x y z rgb
SIZE 4 4 4 4
TYPE F F F F
COUNT 1 1 1 1
WIDTH 1083
HEIGHT 1
VIEWPOINT 0 0 0 1 0 0 0
POINTS 1083
DATA ascii
6.9045734 -1.2938274 2.0783646 -2.5550376e+38
6.9045415 -1.3066273 2.0783646 -2.5282431e+38
6.9045095 -1.3194273 2.0783646 -2.2222069e+38
6.9044776 -1.3322272 2.0783646 -1.9027294e+38
6.9044456 -1.3450272 2.0783646 -1.9292145e+38
7.322371 -0.97569638 2.116796 -2.5679662e+38
7.038394 -0.96566081 2.0819044 -2.7285124e+38
7.0383615 -0.97871417 2.0819044 -2.6487073e+38
7.0383291 -0.99176741 2.0819044 -2.5688497e+38
7.0382962 -1.0048207 2.0819044 -2.4756999e+38
7.1772161 -1.0371518 2.0989816 -2.3957917e+38
7.1771832 -1.0504699 2.0989816 -2.6751383e+38
7.1771498 -1.0637879 2.0989816 -2.9551075e+38
7.1771164 -1.077106 2.0989816 -2.7821525e+38
7.177083 -1.0904241 2.0989816 -2.6220207e+38
7.1770496 -1.1037421 2.0989816 -2.5685905e+38
7.0380678 -1.0961938 2.0819044 -2.528766e+38
7.0380354 -1.109247 2.0819044 -2.5022338e+38
7.0380025 -1.1223004 2.0819044 -2.4889415e+38
7.0379701 -1.1353537 2.0819044 -2.4888894e+38
6.9049897 -1.1274278 2.0655646 -2.4887851e+38
6.9049578 -1.1402279 2.0655646 -2.4887845e+38
6.9049258 -1.1530278 2.0655646 -2.5020772e+38
6.9048934 -1.1658278 2.0655646 -2.5021295e+38
6.9048615 -1.1786277 2.0655646 -2.5021301e+38
6.9048295 -1.1914276 2.0655646 -2.5551958e+38
6.9047976 -1.2042277 2.0655646 -2.6083661e+38
6.9047656 -1.2170277 2.0655646 -2.5692174e+38
6.9047337 -1.2298275 2.0655646 -2.5424757e+38
6.9047017 -1.2426275 2.0655646 -2.5422664e+38
6.9046698 -1.2554275 2.0655646 -2.5421623e+38
6.9046378 -1.2682275 2.0655646 -2.5420581e+38
6.9046059 -1.2810274 2.0655646 -2.5552974e+38
6.9045734 -1.2938274 2.0655646 -2.4485945e+38
6.9045415 -1.3066273 2.0655646 -2.3420958e+38
6.9045095 -1.3194273 2.0655646 -2.6345733e+38
6.9044776 -1.3322272 2.0655646 -2.9390057e+38
7.322371 -0.97569638 2.1032016 -2.4621468e+38
7.1773829 -0.97056156 2.0856636 -2.5951227e+38
7.038394 -0.96566081 2.0688512 -2.7150648e+38
7.0383615 -0.97871417 2.0688512 -2.6619997e+38
7.0383291 -0.99176741 2.0688512 -2.5954347e+38
7.0382962 -1.0048207 2.0688512 -2.5820386e+38
7.1772161 -1.0371518 2.0856636 -2.555351e+38
7.1771832 -1.0504699 2.0856636 -2.5951765e+38
7.1771498 -1.0637879 2.0856636 -2.6352614e+38
7.1771164 -1.077106 2.0856636 -2.6348982e+38
7.177083 -1.0904241 2.0856636 -2.6218128e+38
7.1770496 -1.1037421 2.0856636 -2.5818832e+38
7.0380678 -1.0961938 2.0688512 -2.5288181e+38
7.0380354 -1.109247 2.0688512 -2.5155782e+38
7.0380025 -1.1223004 2.0688512 -2.5022338e+38
7.0379701 -1.1353537 2.0688512 -2.5021816e+38
7.0379372 -1.1484069 2.0688512 -2.4889411e+38
7.0379047 -1.1614603 2.0688512 -2.5155252e+38
7.0378723 -1.1745136 2.0688512 -2.528766e+38
6.9048934 -1.1658278 2.0527644 -2.5155263e+38
6.9048615 -1.1786277 2.0527644 -2.4888898e+38
6.9048295 -1.1914276 2.0527644 -2.5287149e+38
6.9047976 -1.2042277 2.0527644 -2.5554041e+38
6.9047656 -1.2170277 2.0527644 -2.5423203e+38
6.9047337 -1.2298275 2.0527644 -2.5156311e+38
6.9047017 -1.2426275 2.0527644 -2.5287668e+38
6.9046698 -1.2554275 2.0527644 -2.5288703e+38
6.9046059 -1.2810274 2.0527644 -2.541849e+38
6.9045734 -1.2938274 2.0527644 -2.3418399e+38
6.9045415 -1.3066273 2.0527644 -2.1429767e+38
7.0374479 -1.3442063 2.0688512 -3.0614961e+38
7.0374155 -1.3572596 2.0688512 nan
6.9044456 -1.3450272 2.0527644 nan
7.322371 -0.97569638 2.0896075 -2.4344197e+38
7.038394 -0.96566081 2.0557978 -2.7151173e+38
7.0383615 -0.97871417 2.0557978 -2.6487077e+38
7.0383291 -0.99176741 2.0557978 -2.5821945e+38
7.0382962 -1.0048207 2.0557978 -2.5555063e+38
7.1772161 -1.0371518 2.0723455 -2.5287664e+38
7.1771832 -1.0504699 2.0723455 -2.5552993e+38
7.1771498 -1.0637879 2.0723455 -2.5951244e+38
7.1771164 -1.077106 2.0723455 -2.5951244e+38
7.177083 -1.0904241 2.0723455 -2.5951761e+38
7.1770496 -1.1037421 2.0723455 -2.568643e+38
7.1770167 -1.1170601 2.0723455 -2.5421106e+38
7.1769834 -1.1303782 2.0723455 -2.5288705e+38
7.0380025 -1.1223004 2.0557978 -2.5022857e+38
7.0379701 -1.1353537 2.0557978 -2.5023374e+38
7.0379372 -1.1484069 2.0557978 -2.5023374e+38
6.9049578 -1.1402279 2.0399647 -2.5155776e+38
6.9049258 -1.1530278 2.0399647 -2.5420589e+38
6.9048934 -1.1658278 2.0399647 -2.5155267e+38
6.9048615 -1.1786277 2.0399647 -2.5022861e+38
6.9048295 -1.1914276 2.0399647 -2.5288705e+38
6.9047976 -1.2042277 2.0399647 -2.5421631e+38
6.9047017 -1.2426275 2.0399647 -2.5421633e+38
6.9046059 -1.2810274 2.0399647 -2.3025875e+38
6.9045734 -1.2938274 2.0399647 -2.7148535e+38
6.9045415 -1.3066273 2.0399647 -3.12604e+38
6.9045095 -1.3194273 2.0399647 nan
7.0374155 -1.3572596 2.0557978 nan
7.0373826 -1.3703129 2.0557978 nan
7.322371 -0.97569638 2.0760131 -2.3957402e+38
7.038394 -0.96566081 2.0427446 -2.715222e+38
7.0383615 -0.97871417 2.0427446 -2.6488638e+38
7.0383291 -0.99176741 2.0427446 -2.5689021e+38
7.1772494 -1.0238338 2.0590274 -2.5289212e+38
7.1772161 -1.0371518 2.0590274 -2.4889407e+38
7.1771832 -1.0504699 2.0590274 -2.528766e+38
7.1771498 -1.0637879 2.0590274 -2.5552986e+38
7.3220649 -1.0980446 2.0760131 -2.5685911e+38
7.322031 -1.1116388 2.0760131 -2.5685911e+38
7.1770496 -1.1037421 2.0590274 -2.5685911e+38
7.1770167 -1.1170601 2.0590274 -2.5554027e+38
7.0380354 -1.109247 2.0427446 -2.5288701e+38
7.0380025 -1.1223004 2.0427446 -2.5023893e+38
7.0379701 -1.1353537 2.0427446 -2.5157855e+38
6.9049897 -1.1274278 2.0271645 -2.5156816e+38
6.9049578 -1.1402279 2.0271645 -2.528922e+38
6.9049258 -1.1530278 2.0271645 -2.5421625e+38
6.9048934 -1.1658278 2.0271645 -2.5288705e+38
6.9048615 -1.1786277 2.0271645 -2.5156299e+38
6.9048295 -1.1914276 2.0271645 -2.5289741e+38
6.9047656 -1.2170277 2.0271645 -2.5554554e+38
6.9045734 -1.2938274 2.0271645 -3.0888615e+38
6.9045415 -1.3066273 2.0271645 nan
6.9045095 -1.3194273 2.0271645 nan
6.9044776 -1.3322272 2.0271645 nan
7.0373826 -1.3703129 2.0427446 nan
7.322371 -0.97569638 2.0624189 -2.4354124e+38
7.038394 -0.96566081 2.0296912 -2.7154307e+38
7.0383615 -0.97871417 2.0296912 -2.6487602e+38
7.0383291 -0.99176741 2.0296912 -2.5953828e+38
7.0382962 -1.0048207 2.0296912 -2.5555051e+38
7.1772161 -1.0371518 2.0457094 -2.528765e+38
7.1771832 -1.0504699 2.0457094 -2.5420575e+38
7.1771498 -1.0637879 2.0457094 -2.55535e+38
7.1771164 -1.077106 2.0457094 -2.5685905e+38
7.177083 -1.0904241 2.0457094 -2.5685907e+38
7.1770496 -1.1037421 2.0457094 -2.5686428e+38
7.1770167 -1.1170601 2.0457094 -2.5554544e+38
7.0380354 -1.109247 2.0296912 -2.5289216e+38
7.0380025 -1.1223004 2.0296912 -2.5157333e+38
6.9050217 -1.1146278 2.0143645 -2.5157333e+38
7.0379372 -1.1484069 2.0296912 -2.5156297e+38
6.9049578 -1.1402279 2.0143645 -2.5289222e+38
6.9049258 -1.1530278 2.0143645 -2.5421625e+38
6.9048934 -1.1658278 2.0143645 -2.5288701e+38
6.9048615 -1.1786277 2.0143645 -2.528922e+38
6.9048295 -1.1914276 2.0143645 -2.5289737e+38
6.9047976 -1.2042277 2.0143645 -2.5422662e+38
6.9047656 -1.2170277 2.0143645 -2.5422664e+38
6.9047337 -1.2298275 2.0143645 -2.5556108e+38
6.9047017 -1.2426275 2.0143645 -2.515682e+38
6.9046698 -1.2554275 2.0143645 -2.4890435e+38
6.9045734 -1.2938274 2.0143645 -3.3020641e+38
6.9045415 -1.3066273 2.0143645 nan
6.9045095 -1.3194273 2.0143645 nan
6.9044776 -1.3322272 2.0143645 nan
6.9044456 -1.3450272 2.0143645 nan
7.0373502 -1.3833662 2.0296912 nan
7.322371 -0.97569638 2.0488245 -2.4622549e+38
7.1773829 -0.97056156 2.0323911 -2.5828205e+38
7.038394 -0.96566081 2.0166378 -2.7020863e+38
7.0383615 -0.97871417 2.0166378 -2.6620007e+38
7.0383291 -0.99176741 2.0166378 -2.6220712e+38
7.0382962 -1.0048207 2.0166378 -2.5954341e+38
7.1772161 -1.0371518 2.0323911 -2.5554534e+38
7.0382309 -1.0309273 2.0166378 -2.5553498e+38
7.3220987 -1.0844504 2.0488245 -2.555298e+38
7.1771164 -1.077106 2.0323911 -2.5685386e+38
7.177083 -1.0904241 2.0323911 -2.5685907e+38
7.1770496 -1.1037421 2.0323911 -2.5685911e+38
7.0380678 -1.0961938 2.0166378 -2.5554027e+38
7.0380354 -1.109247 2.0166378 -2.5421623e+38
7.0380025 -1.1223004 2.0166378 -2.5156818e+38
6.9050217 -1.1146278 2.0015645 -2.5156822e+38
6.9049897 -1.1274278 2.0015645 -2.5156303e+38
6.9049578 -1.1402279 2.0015645 -2.5288707e+38
6.9049258 -1.1530278 2.0015645 -2.5421625e+38
6.9048934 -1.1658278 2.0015645 -2.5421623e+38
6.9048615 -1.1786277 2.0015645 -2.5289218e+38
6.9046059 -1.2810274 2.0015645 -2.7556231e+38
6.9045734 -1.2938274 2.0015645 nan
6.9045415 -1.3066273 2.0015645 nan
6.9045095 -1.3194273 2.0015645 nan
6.9044776 -1.3322272 2.0015645 nan
7.0373826 -1.3703129 2.0166378 nan
7.0373502 -1.3833662 2.0166378 nan
7.322371 -0.97569638 2.0352302 -2.4746631e+38
7.1773829 -0.97056156 2.019073 -2.5821972e+38
7.038394 -0.96566081 2.0035846 -2.7019305e+38
7.0383615 -0.97871417 2.0035846 -2.6620527e+38
7.0383291 -0.99176741 2.0035846 -2.6221233e+38
7.0382962 -1.0048207 2.0035846 -2.6087266e+38
7.0382638 -1.0178739 2.0035846 -2.5953304e+38
7.1771832 -1.0504699 2.019073 -2.5819341e+38
7.3220987 -1.0844504 2.0352302 -2.5818824e+38
7.3220649 -1.0980446 2.0352302 -2.5819345e+38
7.177083 -1.0904241 2.019073 -2.5819349e+38
7.1770496 -1.1037421 2.019073 -2.568643e+38
7.0380678 -1.0961938 2.0035846 -2.5554548e+38
7.0380354 -1.109247 2.0035846 -2.5422147e+38
7.0380025 -1.1223004 2.0035846 -2.5289228e+38
6.9050217 -1.1146278 1.9887645 -2.5289232e+38
6.9049897 -1.1274278 1.9887645 -2.5288711e+38
6.9049578 -1.1402279 1.9887645 -2.5288709e+38
6.9049258 -1.1530278 1.9887645 -2.5421627e+38
6.9048934 -1.1658278 1.9887645 -2.5422143e+38
6.9046059 -1.2810274 1.9887645 nan
6.9045734 -1.2938274 1.9887645 nan
6.9045415 -1.3066273 1.9887645 nan
6.9045095 -1.3194273 1.9887645 nan
6.9044776 -1.3322272 1.9887645 nan
7.0373826 -1.3703129 2.0035846 nan
7.1762843 -1.4100574 2.019073 nan
7.3211813 -1.4514949 2.0352302 nan
7.322371 -0.97569638 2.021636 -2.4754949e+38
7.1773829 -0.97056156 2.0057549 -2.5959052e+38
7.038394 -0.96566081 1.9905312 -2.7020865e+38
7.1773162 -0.99719769 2.0057549 -2.6621565e+38
7.0383291 -0.99176741 1.9905312 -2.6221233e+38
7.0382962 -1.0048207 1.9905312 -2.6352592e+38
7.0382638 -1.0178739 1.9905312 -2.6351032e+38
7.0382309 -1.0309273 1.9905312 -2.621655e+38
7.3220987 -1.0844504 2.021636 -2.5951747e+38
7.3220649 -1.0980446 2.021636 -2.5952789e+38
7.177083 -1.0904241 2.0057549 -2.5819351e+38
7.0381007 -1.0831404 1.9905312 -2.5686433e+38
7.0380678 -1.0961938 1.9905312 -2.555455e+38
7.0380354 -1.109247 1.9905312 -2.542267e+38
7.0380025 -1.1223004 1.9905312 -2.5288711e+38
6.9050217 -1.1146278 1.9759645 -2.5289232e+38
6.9049897 -1.1274278 1.9759645 -2.5288711e+38
6.9049578 -1.1402279 1.9759645 -2.5421631e+38
6.9049258 -1.1530278 1.9759645 -2.5422147e+38
6.9048934 -1.1658278 1.9759645 -2.5422662e+38
6.9047017 -1.2426275 1.9759645 -2.4622533e+38
6.9046698 -1.2554275 1.9759645 -2.3562286e+38
6.9046378 -1.2682275 1.9759645 -3.2215269e+38
6.9046059 -1.2810274 1.9759645 nan
6.9045734 -1.2938274 1.9759645 nan
6.9045415 -1.3066273 1.9759645 nan
6.9045095 -1.3194273 1.9759645 nan
6.9044776 -1.3322272 1.9759645 nan
6.9044456 -1.3450272 1.9759645 nan
7.0373502 -1.3833662 1.9905312 nan
7.3211813 -1.4514949 2.021636 nan
7.3211474 -1.4650892 2.021636 nan
7.322371 -0.97569638 2.0080416 -2.4088268e+38
7.1773829 -0.97056156 1.9924369 -2.5558211e+38
7.038394 -0.96566081 1.9774778 -2.7021905e+38
7.0383615 -0.97871417 1.9774778 -2.6621565e+38
7.0383291 -0.99176741 1.9774778 -2.6353637e+38
6.9053416 -0.98662829 1.9631646 -2.6218629e+38
6.9053097 -0.99942821 1.9631646 -2.621655e+38
7.0382309 -1.0309273 1.9774778 -2.6084144e+38
7.1771498 -1.0637879 1.9924369 -2.5952266e+38
7.1771164 -1.077106 1.9924369 -2.5818828e+38
7.0381331 -1.0700872 1.9774778 -2.5818313e+38
7.0381007 -1.0831404 1.9774778 -2.5685913e+38
7.0380678 -1.0961938 1.9774778 -2.5686439e+38
7.0380354 -1.109247 1.9774778 -2.555352e+38
7.0380025 -1.1223004 1.9774778 -2.5552481e+38
7.0379701 -1.1353537 1.9774778 -2.5421114e+38
7.0379372 -1.1484069 1.9774778 -2.5288709e+38
7.0379047 -1.1614603 1.9774778 -2.5422149e+38
6.9049258 -1.1530278 1.9631646 -2.5555587e+38
6.9048934 -1.1658278 1.9631646 -2.542266e+38
6.9048615 -1.1786277 1.9631646 -2.542266e+38
6.9048295 -1.1914276 1.9631646 -2.542266e+38
6.9047976 -1.2042277 1.9631646 -2.5422145e+38
6.9047656 -1.2170277 1.9631646 -2.5555069e+38
6.9047337 -1.2298275 1.9631646 -2.5820911e+38
6.9047017 -1.2426275 1.9631646 -2.5420062e+38
7.037611 -1.2789398 1.9774778 -2.5018738e+38
7.0375786 -1.2919933 1.9774778 -2.9148729e+38
6.9046059 -1.2810274 1.9631646 -3.3150451e+38
7.0375133 -1.3180997 1.9774778 nan
7.0374808 -1.331153 1.9774778 nan
6.9045095 -1.3194273 1.9631646 nan
6.9044776 -1.3322272 1.9631646 nan
6.9044456 -1.3450272 1.9631646 nan
6.9044137 -1.3578272 1.9631646 nan
7.0373173 -1.3964195 1.9774778 -3.2476981e+38
7.1762176 -1.4366934 1.9924369 -2.9560549e+38
7.3211136 -1.4786835 2.0080416 nan
7.038394 -0.96566081 1.9644246 -2.7022427e+38
7.1773162 -0.99719769 1.9791188 -2.675449e+38
7.1772828 -1.0105157 1.9791188 -2.6353119e+38
7.1772494 -1.0238338 1.9791188 -2.6217073e+38
7.1772161 -1.0371518 1.9791188 -2.608415e+38
7.1771832 -1.0504699 1.9791188 -2.6083112e+38
7.1771498 -1.0637879 1.9791188 -2.595123e+38
7.1771164 -1.077106 1.9791188 -2.5818309e+38
7.177083 -1.0904241 1.9791188 -2.568539e+38
7.0381007 -1.0831404 1.9644246 -2.5685913e+38
7.0380678 -1.0961938 1.9644246 -2.5685398e+38
7.0380354 -1.109247 1.9644246 -2.5684883e+38
7.0380025 -1.1223004 1.9644246 -2.5685921e+38
7.0379701 -1.1353537 1.9644246 -2.5420595e+38
7.0379372 -1.1484069 1.9644246 -2.5155786e+38
7.0379047 -1.1614603 1.9644246 -2.5422668e+38
7.0378723 -1.1745136 1.9644246 -2.5555067e+38
6.9048934 -1.1658278 1.9503646 -2.5555063e+38
6.9048615 -1.1786277 1.9503646 -2.5555063e+38
7.0377741 -1.2136735 1.9644246 -2.5555063e+38
7.0377417 -1.2267267 1.9644246 -2.5554544e+38
7.0377088 -1.2397799 1.9644246 -2.5820392e+38
7.0376763 -1.2528334 1.9644246 -2.5952793e+38
7.0376439 -1.2658865 1.9644246 -2.6217598e+38
7.037611 -1.2789398 1.9644246 -2.6480347e+38
7.0375786 -1.2919933 1.9644246 -2.5944001e+38
7.0375457 -1.3050464 1.9644246 -2.5423224e+38
7.0375133 -1.3180997 1.9644246 -2.6622654e+38
7.0374808 -1.331153 1.9644246 -2.7689168e+38
6.9045095 -1.3194273 1.9503646 -2.8343935e+38
6.9044776 -1.3322272 1.9503646 -2.888391e+38
6.9044456 -1.3450272 1.9503646 -3.0207921e+38
6.9044137 -1.3578272 1.9503646 -3.1536597e+38
7.0373173 -1.3964195 1.9644246 -2.5922656e+38
7.0372849 -1.4094728 1.9644246 -2.038416e+38
7.0372524 -1.4225261 1.9644246 -3.2668743e+38
7.0372195 -1.4355794 1.9644246 nan
7.1773829 -0.97056156 1.9658008 -2.5560288e+38
7.3223028 -1.0028847 1.9808531 -2.7021907e+38
7.322269 -1.016479 1.9808531 -2.6753973e+38
7.3222346 -1.0300733 1.9808531 -2.6485006e+38
7.3222008 -1.0436676 1.9808531 -2.6484478e+38
7.3221669 -1.0572617 1.9808531 -2.6351038e+38
7.1771832 -1.0504699 1.9658008 -2.6216558e+38
7.1771498 -1.0637879 1.9658008 -2.6083116e+38
7.3220649 -1.0980446 1.9808531 -2.5950712e+38
7.177083 -1.0904241 1.9658008 -2.5818313e+38
7.0381007 -1.0831404 1.9513712 -2.5685913e+38
7.0380678 -1.0961938 1.9513712 -2.5684877e+38
7.0380354 -1.109247 1.9513712 -2.5552475e+38
7.0380025 -1.1223004 1.9513712 -2.5553516e+38
7.0379701 -1.1353537 1.9513712 -2.5420593e+38
7.0379372 -1.1484069 1.9513712 -2.542111e+38
7.0379047 -1.1614603 1.9513712 -2.555455e+38
7.0378723 -1.1745136 1.9513712 -2.5687471e+38
6.9048934 -1.1658278 1.9375646 -2.582039e+38
7.037807 -1.2006201 1.9513712 -2.5820909e+38
7.0377741 -1.2136735 1.9513712 -2.5820388e+38
7.0377417 -1.2267267 1.9513712 -2.5819868e+38
7.0377088 -1.2397799 1.9513712 -2.5953308e+38
7.0376763 -1.2528334 1.9513712 -2.5952791e+38
7.0376439 -1.2658865 1.9513712 -2.6217598e+38
7.037611 -1.2789398 1.9513712 -2.634844e+38
7.0375786 -1.2919933 1.9513712 -2.6346359e+38
7.0375457 -1.3050464 1.9513712 -2.6211364e+38
7.0375133 -1.3180997 1.9513712 -2.6879614e+38
7.0374808 -1.331153 1.9513712 -2.7539553e+38
7.0374479 -1.3442063 1.9513712 -2.7806954e+38
6.9044776 -1.3322272 1.9375646 -2.8068129e+38
6.9044456 -1.3450272 1.9375646 -2.7544226e+38
6.9044137 -1.3578272 1.9375646 -2.7149559e+38
7.0373173 -1.3964195 1.9513712 -2.4878393e+38
6.9043498 -1.383427 1.9375646 -2.2626671e+38
7.0372524 -1.4225261 1.9513712 -3.3714995e+38
7.0372195 -1.4355794 1.9513712 nan
7.1773829 -0.97056156 1.9524827 -2.5827178e+38
7.3223028 -1.0028847 1.9672588 -2.7021392e+38
7.3222346 -1.0300733 1.9672588 -2.6618967e+38
7.3222008 -1.0436676 1.9672588 -2.661792e+38
7.3221669 -1.0572617 1.9672588 -2.6616361e+38
7.1771832 -1.0504699 1.9524827 -2.6481361e+38
7.3220987 -1.0844504 1.9672588 -2.6215517e+38
7.3220649 -1.0980446 1.9672588 -2.6083637e+38
7.177083 -1.0904241 1.9524827 -2.5818313e+38
6.9051495 -1.063428 1.9247645 -2.568643e+38
7.0380678 -1.0961938 1.9383178 -2.555299e+38
7.0380354 -1.109247 1.9383178 -2.5552995e+38
7.0380025 -1.1223004 1.9383178 -2.5420072e+38
7.0379701 -1.1353537 1.9383178 -2.5553516e+38
7.0379372 -1.1484069 1.9383178 -2.5554033e+38
7.0379047 -1.1614603 1.9383178 -2.5686435e+38
7.0378723 -1.1745136 1.9383178 -2.5819873e+38
6.9048934 -1.1658278 1.9247645 -2.5952274e+38
6.9048615 -1.1786277 1.9247645 -2.6085714e+38
6.9048295 -1.1914276 1.9247645 -2.6085714e+38
6.9047976 -1.2042277 1.9247645 -2.6085714e+38
6.9047656 -1.2170277 1.9247645 -2.6086233e+38
7.0376763 -1.2528334 1.9383178 -2.5952791e+38
7.0376439 -1.2658865 1.9383178 -2.6085716e+38
7.037611 -1.2789398 1.9383178 -2.6217598e+38
7.0375786 -1.2919933 1.9383178 -2.6615846e+38
7.0375457 -1.3050464 1.9383178 -2.7012537e+38
7.0375133 -1.3180997 1.9383178 -2.7144423e+38
7.1764174 -1.3567851 1.9524827 -2.7276827e+38
7.0374479 -1.3442063 1.9383178 -2.7275788e+38
6.9044776 -1.3322272 1.9247645 -2.7143387e+38
6.9044456 -1.3450272 1.9247645 -2.5017663e+38
6.9044137 -1.3578272 1.9247645 -2.2758977e+38
6.9043818 -1.3706272 1.9247645 -2.3815054e+38
6.9043498 -1.383427 1.9247645 -2.4905067e+38
6.9043179 -1.396227 1.9247645 nan
6.9042859 -1.4090271 1.9247645 nan
7.1773829 -0.97056156 1.9391645 -2.4491724e+38
7.3223028 -1.0028847 1.9536645 -2.5956456e+38
7.3222346 -1.0300733 1.9536645 -2.5157337e+38
7.3222008 -1.0436676 1.9536645 -2.6350515e+38
7.1772161 -1.0371518 1.9391645 -2.7546818e+38
7.1771832 -1.0504699 1.9391645 -2.6745124e+38
7.1771498 -1.0637879 1.9391645 -2.5947074e+38
7.1771164 -1.077106 1.9391645 -2.5949676e+38
7.177083 -1.0904241 1.9391645 -2.5950716e+38
6.9051495 -1.063428 1.9119645 -2.5818313e+38
7.0380678 -1.0961938 1.9252646 -2.5685913e+38
7.0380354 -1.109247 1.9252646 -2.541955e+38
7.0380025 -1.1223004 1.9252646 -2.528663e+38
7.0379701 -1.1353537 1.9252646 -2.5420593e+38
7.0379372 -1.1484069 1.9252646 -2.5554552e+38
7.0379047 -1.1614603 1.9252646 -2.5686433e+38
7.0378723 -1.1745136 1.9252646 -2.5819353e+38
6.9048934 -1.1658278 1.9119645 -2.5818832e+38
6.9048615 -1.1786277 1.9119645 -2.5952272e+38
6.9048295 -1.1914276 1.9119645 -2.5952789e+38
6.9047976 -1.2042277 1.9119645 -2.5952791e+38
6.9047656 -1.2170277 1.9119645 -2.5819868e+38
7.0376763 -1.2528334 1.9252646 -2.5553506e+38
7.0376439 -1.2658865 1.9252646 -2.5554025e+38
7.037611 -1.2789398 1.9252646 -2.5553506e+38
7.0375786 -1.2919933 1.9252646 -2.5952274e+38
7.0375457 -1.3050464 1.9252646 -2.6351042e+38
7.0375133 -1.3180997 1.9252646 -2.6482408e+38
7.1764174 -1.3567851 1.9391645 -2.6615852e+38
7.0374479 -1.3442063 1.9252646 -2.6482412e+38
6.9044776 -1.3322272 1.9119645 -2.6483971e+38
6.9044456 -1.3450272 1.9119645 -2.5021303e+38
6.9044137 -1.3578272 1.9119645 -2.3692576e+38
6.9043818 -1.3706272 1.9119645 -2.4621977e+38
6.9043179 -1.396227 1.9119645 nan
6.9042859 -1.4090271 1.9119645 nan
7.322269 -1.016479 1.9400703 -2.4214923e+38
7.3222346 -1.0300733 1.9400703 -2.3553944e+38
7.1772494 -1.0238338 1.9258465 -2.5946035e+38
7.1772161 -1.0371518 1.9258465 -2.834383e+38
7.0382309 -1.0309273 1.9122112 -2.7005769e+38
7.1771498 -1.0637879 1.9258465 -2.5678632e+38
7.1771164 -1.077106 1.9258465 -2.5816244e+38
7.0381331 -1.0700872 1.9122112 -2.5950201e+38
6.9051495 -1.063428 1.8991646 -2.5816236e+38
7.0380678 -1.0961938 1.9122112 -2.5684347e+38
7.0380354 -1.109247 1.9122112 -2.5417461e+38
7.0380025 -1.1223004 1.9122112 -2.5153178e+38
7.0379701 -1.1353537 1.9122112 -2.5420066e+38
7.0379372 -1.1484069 1.9122112 -2.5552467e+38
7.0379047 -1.1614603 1.9122112 -2.5684352e+38
7.0378723 -1.1745136 1.9122112 -2.5818313e+38
6.9048934 -1.1658278 1.8991646 -2.5817794e+38
6.9048615 -1.1786277 1.8991646 -2.5686428e+38
6.9048295 -1.1914276 1.8991646 -2.5819349e+38
7.0377417 -1.2267267 1.9122112 -2.581987e+38
7.0377088 -1.2397799 1.9122112 -2.5553506e+38
7.0376763 -1.2528334 1.9122112 -2.5155259e+38
7.0376439 -1.2658865 1.9122112 -2.5023376e+38
7.037611 -1.2789398 1.9122112 -2.4889934e+38
7.0375786 -1.2919933 1.9122112 -2.5288705e+38
7.0375457 -1.3050464 1.9122112 -2.5554031e+38
7.0375133 -1.3180997 1.9122112 -2.5685915e+38
7.0374808 -1.331153 1.9122112 -2.5818838e+38
7.0374479 -1.3442063 1.9122112 -2.581884e+38
7.0374155 -1.3572596 1.9122112 -2.5686958e+38
7.0373826 -1.3703129 1.9122112 -2.5155788e+38
6.9044137 -1.3578272 1.8991646 -2.4622006e+38
6.9043818 -1.3706272 1.8991646 -2.5419528e+38
6.9043498 -1.383427 1.8991646 -2.6109193e+38
6.9043179 -1.396227 1.8991646 nan
6.9042859 -1.4090271 1.8991646 nan
7.3223028 -1.0028847 1.926476 -3.2459745e+38
7.322269 -1.016479 1.926476 -3.3404747e+38
7.3222346 -1.0300733 1.926476 nan
7.1772494 -1.0238338 1.9125283 nan
7.1772161 -1.0371518 1.9125283 nan
7.1771832 -1.0504699 1.9125283 -2.9539599e+38
7.1771498 -1.0637879 1.9125283 -2.4875903e+38
7.1771164 -1.077106 1.9125283 -2.5553003e+38
7.0381331 -1.0700872 1.8991579 -2.6218128e+38
6.9051495 -1.063428 1.8863645 -2.5954351e+38
7.0380678 -1.0961938 1.8991579 -2.5817783e+38
7.0380354 -1.109247 1.8991579 -2.5554005e+38
7.0380025 -1.1223004 1.8991579 -2.5152127e+38
7.0379701 -1.1353537 1.8991579 -2.5020768e+38
7.0379372 -1.1484069 1.8991579 -2.4886809e+38
7.0379047 -1.1614603 1.8991579 -2.5021291e+38
7.0378723 -1.1745136 1.8991579 -2.5153697e+38
6.9048934 -1.1658278 1.8863645 -2.528766e+38
7.037807 -1.2006201 1.8991579 -2.5421102e+38
7.0377741 -1.2136735 1.8991579 -2.5421102e+38
7.0377417 -1.2267267 1.8991579 -2.5554027e+38
7.0377088 -1.2397799 1.8991579 -2.5421623e+38
7.0376763 -1.2528334 1.8991579 -2.5288703e+38
7.0376439 -1.2658865 1.8991579 -2.5156301e+38
7.037611 -1.2789398 1.8991579 -2.5022863e+38
7.0375786 -1.2919933 1.8991579 -2.5288711e+38
7.0375457 -1.3050464 1.8991579 -2.5554037e+38
7.0375133 -1.3180997 1.8991579 -2.5553516e+38
7.0374808 -1.331153 1.8991579 -2.5552999e+38
7.0374479 -1.3442063 1.8991579 -2.5686441e+38
7.0374155 -1.3572596 1.8991579 -2.5688e+38
7.0373826 -1.3703129 1.8991579 -2.4754425e+38
7.0373502 -1.3833662 1.8991579 -2.3820323e+38
6.9043818 -1.3706272 1.8863645 -2.728721e+38
6.9043498 -1.383427 1.8863645 -3.0754238e+38
6.9043179 -1.396227 1.8863645 nan
7.3222008 -1.0436676 1.9128816 nan
7.3221669 -1.0572617 1.9128816 nan
7.1771832 -1.0504699 1.8992102 -3.1937982e+38
7.1771498 -1.0637879 1.8992102 -2.4093476e+38
7.1771164 -1.077106 1.8992102 -2.5301742e+38
7.177083 -1.0904241 1.8992102 -2.6362528e+38
7.0381007 -1.0831404 1.8861046 -2.6230644e+38
7.0380678 -1.0961938 1.8861046 -2.5962715e+38
7.0380354 -1.109247 1.8861046 -2.5561864e+38
7.0380025 -1.1223004 1.8861046 -2.5160998e+38
7.0379701 -1.1353537 1.8861046 -2.4756498e+38
6.9049897 -1.1274278 1.8735645 -2.4225848e+38
6.9049578 -1.1402279 1.8735645 -2.4359811e+38
6.9049258 -1.1530278 1.8735645 -2.4491174e+38
6.9048934 -1.1658278 1.8735645 -2.4757537e+38
7.037807 -1.2006201 1.8861046 -2.5022863e+38
7.0377741 -1.2136735 1.8861046 -2.5155267e+38
6.9047976 -1.2042277 1.8735645 -2.5155788e+38
7.0377088 -1.2397799 1.8861046 -2.5289234e+38
6.9047337 -1.2298275 1.8735645 -2.5289753e+38
7.0376439 -1.2658865 1.8861046 -2.515683e+38
6.9046698 -1.2554275 1.8735645 -2.5024427e+38
6.9046378 -1.2682275 1.8735645 -2.5289236e+38
7.0375457 -1.3050464 1.8861046 -2.5421638e+38
6.9045734 -1.2938274 1.8735645 -2.542008e+38
6.9045415 -1.3066273 1.8735645 -2.5287157e+38
6.9045095 -1.3194273 1.8735645 -2.5553005e+38
7.0374155 -1.3572596 1.8861046 -2.5685919e+38
7.0373826 -1.3703129 1.8861046 -2.4352531e+38
6.9044137 -1.3578272 1.8735645 -2.3026421e+38
6.9043818 -1.3706272 1.8735645 -2.9286777e+38
6.9043498 -1.383427 1.8735645 nan
7.3221669 -1.0572617 1.8992875 nan
7.1771832 -1.0504699 1.8858922 -3.3009731e+38
7.1771498 -1.0637879 1.8858922 -2.422749e+38
7.1771164 -1.077106 1.8858922 -2.5437306e+38
7.177083 -1.0904241 1.8858922 -2.6768621e+38
7.0381007 -1.0831404 1.8730512 -2.7837204e+38
7.0380678 -1.0961938 1.8730512 -2.8897988e+38
7.0380354 -1.109247 1.8730512 -2.9032985e+38
7.0380025 -1.1223004 1.8730512 -2.9293073e+38
7.0379701 -1.1353537 1.8730512 -2.9024584e+38
6.9049897 -1.1274278 1.8607645 -2.8615953e+38
6.9049578 -1.1402279 1.8607645 -2.7686534e+38
6.9049258 -1.1530278 1.8607645 -2.6617953e+38
6.9048934 -1.1658278 1.8607645 -2.6086256e+38
6.9048615 -1.1786277 1.8607645 -2.5554564e+38
6.9048295 -1.1914276 1.8607645 -2.542268e+38
6.9047976 -1.2042277 1.8607645 -2.5422684e+38
6.9047656 -1.2170277 1.8607645 -2.5422688e+38
6.9047337 -1.2298275 1.8607645 -2.5423205e+38
6.9047017 -1.2426275 1.8607645 -2.5291838e+38
6.9046698 -1.2554275 1.8607645 -2.5292877e+38
6.9046378 -1.2682275 1.8607645 -2.5557682e+38
7.0375457 -1.3050464 1.8730512 -2.5688008e+38
6.9045734 -1.2938274 1.8607645 -2.5821448e+38
6.9045415 -1.3066273 1.8607645 -2.5952296e+38
6.9045095 -1.3194273 1.8607645 -2.5822489e+38
7.0374155 -1.3572596 1.8730512 -2.5820917e+38
7.0373826 -1.3703129 1.8730512 -2.5418498e+38
7.0373502 -1.3833662 1.8730512 -2.5147476e+38
7.0373173 -1.3964195 1.8730512 -3.2356477e+38
7.0372849 -1.4094728 1.8730512 nan
7.3222008 -1.0436676 1.8856931 nan
7.3221669 -1.0572617 1.8856931 nan
7.1771832 -1.0504699 1.8725741 nan
7.1771498 -1.0637879 1.8725741 -2.4236338e+38
7.1771164 -1.077106 1.8725741 -2.5717203e+38
7.177083 -1.0904241 1.8725741 -2.7180406e+38
7.0381007 -1.0831404 1.8599979 -2.9450495e+38
7.0380678 -1.0961938 1.8599979 -3.1706548e+38
7.0380354 -1.109247 1.8599979 -3.2644279e+38
6.9050536 -1.101828 1.8479645 -3.3434522e+38
6.9050217 -1.1146278 1.8479645 -3.3300536e+38
6.9049897 -1.1274278 1.8479645 -3.3021684e+38
6.9049578 -1.1402279 1.8479645 -3.0886585e+38
6.9049258 -1.1530278 1.8479645 -2.8751492e+38
6.9048934 -1.1658278 1.8479645 -2.7414457e+38
6.9048615 -1.1786277 1.8479645 -2.6086787e+38
6.9048295 -1.1914276 1.8479645 -2.5823018e+38
6.9047976 -1.2042277 1.8479645 -2.5556136e+38
6.9047656 -1.2170277 1.8479645 -2.5555102e+38
6.9047337 -1.2298275 1.8479645 -2.5424773e+38
6.9047017 -1.2426275 1.8479645 -2.556029e+38
6.9046698 -1.2554275 1.8479645 -2.5560292e+38
6.9046378 -1.2682275 1.8479645 -2.5826659e+38
7.0375457 -1.3050464 1.8599979 -2.5959063e+38
6.9045734 -1.2938274 1.8479645 -2.622491e+38
6.9045415 -1.3066273 1.8479645 -2.6491277e+38
6.9045095 -1.3194273 1.8479645 -2.622907e+38
7.0374155 -1.3572596 1.8599979 -2.5825614e+38
7.0373826 -1.3703129 1.8599979 -2.6619502e+38
7.0373502 -1.3833662 1.8599979 -2.7295548e+38
7.0373173 -1.3964195 1.8599979 nan
7.0382638 -1.0178739 1.8469446 nan
7.0382309 -1.0309273 1.8469446 -3.3414751e+38
7.1771498 -1.0637879 1.859256 -2.4767013e+38
7.1771164 -1.077106 1.859256 -2.6243732e+38
7.177083 -1.0904241 1.859256 -2.7715252e+38
7.0381007 -1.0831404 1.8469446 -2.9981711e+38
7.0380678 -1.0961938 1.8469446 -3.2376922e+38
7.0380354 -1.109247 1.8469446 -3.3443941e+38
6.9050536 -1.101828 1.8351645 nan
6.9050217 -1.1146278 1.8351645 nan
6.9049897 -1.1274278 1.8351645 nan
6.9049578 -1.1402279 1.8351645 -3.3024811e+38
6.9049258 -1.1530278 1.8351645 -3.1815493e+38
6.9048934 -1.1658278 1.8351645 -2.9283175e+38
6.9048615 -1.1786277 1.8351645 -2.6884336e+38
6.9048295 -1.1914276 1.8351645 -2.6485568e+38
6.9047976 -1.2042277 1.8351645 -2.5954398e+38
6.9047656 -1.2170277 1.8351645 -2.5822513e+38
6.9047337 -1.2298275 1.8351645 -2.582459e+38
7.0376439 -1.2658865 1.8469446 -2.5825627e+38
6.9046698 -1.2554275 1.8351645 -2.5826669e+38
6.9046378 -1.2682275 1.8351645 -2.6094596e+38
7.1764841 -1.3301491 1.859256 -2.6362003e+38
6.9045734 -1.2938274 1.8351645 -2.6627853e+38
6.9045415 -1.3066273 1.8351645 -2.6893183e+38
6.9045095 -1.3194273 1.8351645 -2.716111e+38
7.0374155 -1.3572596 1.8469446 -2.7424347e+38
7.0373826 -1.3703129 1.8469446 -2.9020445e+38
7.0373502 -1.3833662 1.8469446 -3.061604e+38
7.1771832 -1.0504699 1.8459378 -3.2611494e+38
7.1771498 -1.0637879 1.8459378 -2.5302845e+38
7.1771164 -1.077106 1.8459378 -2.6774373e+38
7.177083 -1.0904241 1.8459378 -2.8112981e+38
7.0381007 -1.0831404 1.8338912 -3.0516009e+38
7.0380678 -1.0961938 1.8338912 -3.2911217e+38
6.9050856 -1.089028 1.8223646 nan
6.9050536 -1.101828 1.8223646 nan
6.9050217 -1.1146278 1.8223646 nan
6.9049897 -1.1274278 1.8223646 nan
6.9049578 -1.1402279 1.8223646 nan
6.9049258 -1.1530278 1.8223646 nan
6.9048934 -1.1658278 1.8223646 -3.1283797e+38
6.9048615 -1.1786277 1.8223646 -2.7687598e+38
7.0377741 -1.2136735 1.8338912 -2.7015182e+38
7.1766834 -1.2502407 1.8459378 -2.6352649e+38
7.0377088 -1.2397799 1.8338912 -2.6221807e+38
7.1766171 -1.2768768 1.8459378 -2.6090444e+38
7.0376439 -1.2658865 1.8338912 -2.6090965e+38
7.037611 -1.2789398 1.8338912 -2.5961685e+38
7.0375786 -1.2919933 1.8338912 -2.6363575e+38
7.0375457 -1.3050464 1.8338912 -2.6630982e+38
7.0375133 -1.3180997 1.8338912 -2.7031312e+38
6.9045415 -1.3066273 1.8223646 -2.7298199e+38
6.9045095 -1.3194273 1.8223646 -2.8098331e+38
7.0374155 -1.3572596 1.8338912 -2.8895349e+38
7.0373826 -1.3703129 1.8338912 -3.142244e+38
7.0373502 -1.3833662 1.8338912 -3.3822827e+38
7.1771498 -1.0637879 1.8326198 -2.7292524e+38
7.1771164 -1.077106 1.8326198 -2.810255e+38
7.177083 -1.0904241 1.8326198 -2.8908439e+38
7.0381007 -1.0831404 1.8208379 -3.1045633e+38
7.0380678 -1.0961938 1.8208379 -3.331259e+38
6.9050856 -1.089028 1.8095646 -3.3977721e+38
6.9050536 -1.101828 1.8095646 nan
6.9050217 -1.1146278 1.8095646 nan
6.9049897 -1.1274278 1.8095646 nan
6.9049578 -1.1402279 1.8095646 nan
6.9049258 -1.1530278 1.8095646 nan
6.9048934 -1.1658278 1.8095646 -3.1690904e+38
7.037807 -1.2006201 1.8208379 -2.8092095e+38
7.0377741 -1.2136735 1.8208379 -2.675349e+38
7.0377417 -1.2267267 1.8208379 -2.5421674e+38
7.0377088 -1.2397799 1.8208379 -2.5822525e+38
7.1766171 -1.2768768 1.8326198 -2.6223377e+38
7.0376439 -1.2658865 1.8208379 -2.6225977e+38
7.037611 -1.2789398 1.8208379 -2.6363064e+38
7.0375786 -1.2919933 1.8208379 -2.6632554e+38
7.0375457 -1.3050464 1.8208379 -2.7033404e+38
6.9045734 -1.2938274 1.8095646 -2.7433214e+38
6.9045415 -1.3066273 1.8095646 -2.7966461e+38
6.9045095 -1.3194273 1.8095646 -2.8899515e+38
7.0374155 -1.3572596 1.8208379 -2.9832064e+38
6.9044456 -1.3450272 1.8095646 -3.2358648e+38
6.9044137 -1.3578272 1.8095646 nan
7.1771498 -1.0637879 1.8193016 -2.9164355e+38
7.1771164 -1.077106 1.8193016 -2.9434376e+38
7.0381331 -1.0700872 1.8077846 -2.9705966e+38
7.0381007 -1.0831404 1.8077846 -3.1711785e+38
7.0380678 -1.0961938 1.8077846 -3.3576345e+38
6.9050856 -1.089028 1.7967645 -3.357791e+38
6.9050536 -1.101828 1.7967645 -3.3445509e+38
6.9050217 -1.1146278 1.7967645 -3.3711359e+38
6.9049897 -1.1274278 1.7967645 -3.3844786e+38
6.9049578 -1.1402279 1.7967645 nan
6.9049258 -1.1530278 1.7967645 nan
6.9048934 -1.1658278 1.7967645 -3.2092814e+38
7.037807 -1.2006201 1.8077846 -2.8494506e+38
7.0377741 -1.2136735 1.8077846 -2.6484004e+38
7.0377417 -1.2267267 1.8077846 -2.4358807e+38
7.0377088 -1.2397799 1.8077846 -2.5423755e+38
7.1766171 -1.2768768 1.8193016 -2.6356821e+38
7.0376439 -1.2658865 1.8077846 -2.6492352e+38
7.037611 -1.2789398 1.8077846 -2.6630999e+38
7.0375786 -1.2919933 1.8077846 -2.7034971e+38
7.0375457 -1.3050464 1.8077846 -2.730134e+38
7.0375133 -1.3180997 1.8077846 -2.7967516e+38
7.0374808 -1.331153 1.8077846 -2.8501799e+38
7.0374479 -1.3442063 1.8077846 -2.9568293e+38
7.0374155 -1.3572596 1.8077846 -3.0630118e+38
7.0373826 -1.3703129 1.8077846 -3.3287537e+38
6.9044137 -1.3578272 1.7967645 nan
7.177083 -1.0904241 1.8059835 -2.8769267e+38
7.0381007 -1.0831404 1.7947311 -3.02439e+38
7.0380678 -1.0961938 1.7947311 -3.1847817e+38
7.0380354 -1.109247 1.7947311 -3.2513483e+38
6.9050536 -1.101828 1.7839645 -3.317758e+38
6.9050217 -1.1146278 1.7839645 -3.3578428e+38
7.0379372 -1.1484069 1.7947311 -3.3978222e+38
6.9049578 -1.1402279 1.7839645 nan
7.0378723 -1.1745136 1.7947311 nan
6.9048934 -1.1658278 1.7839645 -3.2898683e+38
7.037807 -1.2006201 1.7947311 -3.0632185e+38
7.0377741 -1.2136735 1.7947311 -2.7290361e+38
7.1766834 -1.2502407 1.8059835 -2.4092957e+38
7.1766505 -1.2635586 1.8059835 -2.5158946e+38
7.1766171 -1.2768768 1.8059835 -2.6357863e+38
7.1765838 -1.2901949 1.8059835 -2.662736e+38
7.1765504 -1.3035128 1.8059835 -2.6766008e+38
7.176517 -1.316831 1.8059835 -2.7299791e+38
7.1764841 -1.3301491 1.8059835 -2.7834084e+38
7.0375133 -1.3180997 1.7947311 -2.8501818e+38
7.0374808 -1.331153 1.7947311 -2.9169541e+38
7.0374479 -1.3442063 1.7947311 -2.9301419e+38
7.1763506 -1.3834212 1.8059835 -2.9433293e+38
7.1763177 -1.3967392 1.8059835 -3.2759467e+38
6.9051814 -1.0506281 1.7711645 -2.7839844e+38
6.9051495 -1.063428 1.7711645 -2.8912601e+38
7.0380678 -1.0961938 1.7816778 -2.9983265e+38
6.9050856 -1.089028 1.7711645 -3.1450101e+38
6.9050536 -1.101828 1.7711645 -3.2912773e+38
6.9050217 -1.1146278 1.7711645 -3.3578947e+38
6.9049897 -1.1274278 1.7711645 nan
6.9049578 -1.1402279 1.7711645 nan
7.0378723 -1.1745136 1.7816778 nan
6.9048934 -1.1658278 1.7711645 -3.3701426e+38
7.037807 -1.2006201 1.7816778 -3.2625513e+38
7.1767168 -1.2369226 1.7926655 -2.8218742e+38
7.1766834 -1.2502407 1.7926655 -2.3695231e+38
7.1766505 -1.2635586 1.7926655 -2.5027593e+38
7.1766171 -1.2768768 1.7926655 -2.6358912e+38
7.1765838 -1.2901949 1.7926655 -2.6627885e+38
7.1765504 -1.3035128 1.7926655 -2.6897895e+38
7.176517 -1.316831 1.7926655 -2.7564598e+38
7.1764841 -1.3301491 1.7926655 -2.8233889e+38
7.1764507 -1.343467 1.7926655 -2.9035064e+38
7.0374808 -1.331153 1.7816778 -2.9833112e+38
7.0374479 -1.3442063 1.7816778 -2.9034529e+38
7.0374155 -1.3572596 1.7816778 -2.810197e+38
7.3212495 -1.4243064 1.8041275 -3.2355995e+38
6.9051495 -1.063428 1.7583644 -2.9308258e+38
7.0380678 -1.0961938 1.7686245 -3.0647362e+38
6.9050856 -1.089028 1.7583644 -3.198179e+38
6.9050536 -1.101828 1.7583644 -3.3444982e+38
6.9050217 -1.1146278 1.7583644 -3.3977194e+38
6.9049897 -1.1274278 1.7583644 nan
6.9049578 -1.1402279 1.7583644 nan
6.9049258 -1.1530278 1.7583644 nan
7.0378394 -1.1875668 1.7686245 nan
7.037807 -1.2006201 1.7686245 -3.3562208e+38
7.1767168 -1.2369226 1.7793474 -2.8486661e+38
7.1766834 -1.2502407 1.7793474 -2.342264e+38
7.1766505 -1.2635586 1.7793474 -2.4892605e+38
7.1766171 -1.2768768 1.7793474 -2.6357882e+38
7.1765838 -1.2901949 1.7793474 -2.6761333e+38
7.1765504 -1.3035128 1.7793474 -2.7031341e+38
7.176517 -1.316831 1.7793474 -2.7700115e+38
7.1764841 -1.3301491 1.7793474 -2.8234925e+38
7.0375133 -1.3180997 1.7686245 -2.9034024e+38
7.0374808 -1.331153 1.7686245 -2.9699666e+38
7.176384 -1.3701032 1.7793474 -2.8632639e+38
7.1763506 -1.3834212 1.7793474 -2.769851e+38
7.3212495 -1.4243064 1.7905331 -3.2888175e+38
6.9051495 -1.063428 1.7455645 -2.9576682e+38
7.0380678 -1.0961938 1.7555711 -3.1179049e+38
6.9050856 -1.089028 1.7455645 -3.2518169e+38
6.9050536 -1.101828 1.7455645 -3.3844277e+38
6.9050217 -1.1146278 1.7455645 nan
6.9049897 -1.1274278 1.7455645 nan
6.9049578 -1.1402279 1.7455645 nan
6.9049258 -1.1530278 1.7455645 nan
6.9048934 -1.1658278 1.7455645 nan
7.037807 -1.2006201 1.7555711 nan
7.1767168 -1.2369226 1.7660294 -2.8743695e+38
7.1766834 -1.2502407 1.7660294 -2.3161999e+38
7.3215895 -1.2883641 1.7769388 -2.4761248e+38
7.3215551 -1.3019582 1.7769388 -2.6359443e+38
7.1765838 -1.2901949 1.7660294 -2.6761853e+38
7.1765504 -1.3035128 1.7660294 -2.7166339e+38
7.176517 -1.316831 1.7660294 -2.770323e+38
7.1764841 -1.3301491 1.7660294 -2.8235443e+38
7.0375133 -1.3180997 1.7555711 -2.8900059e+38
7.0374808 -1.331153 1.7555711 -2.9563622e+38
7.0374479 -1.3442063 1.7555711 -2.8363149e+38
7.0374155 -1.3572596 1.7555711 -2.7167837e+38
7.1763177 -1.3967392 1.7660294 -3.3426589e+38
6.9051495 -1.063428 1.7327645 -2.9039261e+38
7.0380678 -1.0961938 1.7425178 -3.0378914e+38
6.9050856 -1.089028 1.7327645 -3.1978701e+38
6.9050536 -1.101828 1.7327645 -3.3575322e+38
6.9050217 -1.1146278 1.7327645 nan
6.9049897 -1.1274278 1.7327645 nan
6.9049578 -1.1402279 1.7327645 nan
6.9049258 -1.1530278 1.7327645 nan
6.9048934 -1.1658278 1.7327645 nan
7.037807 -1.2006201 1.7425178 -3.3697222e+38
7.0377741 -1.2136735 1.7425178 -2.915442e+38
7.1766834 -1.2502407 1.7527112 -2.4625198e+38
7.1766505 -1.2635586 1.7527112 -2.5692233e+38
7.1766171 -1.2768768 1.7527112 -2.6891658e+38
7.1765838 -1.2901949 1.7527112 -2.7162179e+38
7.1765504 -1.3035128 1.7527112 -2.7433742e+38
7.176517 -1.316831 1.7527112 -2.8100958e+38
7.0375457 -1.3050464 1.7425178 -2.8767132e+38
7.0375133 -1.3180997 1.7425178 -2.9297784e+38
7.0374808 -1.331153 1.7425178 -2.9961344e+38
7.0374479 -1.3442063 1.7425178 -2.9557367e+38
7.0374155 -1.3572596 1.7425178 -2.9151277e+38
7.1770496 -1.1037421 1.7393931 -2.8372578e+38
7.1770167 -1.1170601 1.7393931 -2.957566e+38
7.0380354 -1.109247 1.7294645 -3.1442319e+38
6.9050536 -1.101828 1.7199645 -3.3174465e+38
6.9050217 -1.1146278 1.7199645 -3.3707193e+38
6.9049897 -1.1274278 1.7199645 nan
6.9049578 -1.1402279 1.7199645 nan
6.9049258 -1.1530278 1.7199645 nan
6.9048934 -1.1658278 1.7199645 -3.3971975e+38
6.9048615 -1.1786277 1.7199645 -3.2897099e+38
7.0377741 -1.2136735 1.7294645 -2.941767e+38
7.1766834 -1.2502407 1.7393931 -2.5957022e+38
7.1766505 -1.2635586 1.7393931 -2.6623733e+38
7.1766171 -1.2768768 1.7393931 -2.7290946e+38
7.1765838 -1.2901949 1.7393931 -2.7428026e+38
7.1765504 -1.3035128 1.7393931 -2.7566143e+38
7.176517 -1.316831 1.7393931 -2.83668e+38
7.0375457 -1.3050464 1.7294645 -2.9164336e+38
7.0375133 -1.3180997 1.7294645 -2.9695508e+38
7.0374808 -1.331153 1.7294645 -3.0224589e+38
7.176384 -1.3701032 1.7393931 -3.0620747e+38
7.1763506 -1.3834212 1.7393931 -3.1022588e+38
6.9051175 -1.076228 1.7071645 -2.943754e+38
6.9050856 -1.089028 1.7071645 -3.1042494e+38
6.9050536 -1.101828 1.7071645 -3.2776206e+38
6.9050217 -1.1146278 1.7071645 -3.3176014e+38
6.9049897 -1.1274278 1.7071645 -3.3709781e+38
6.9049578 -1.1402279 1.7071645 nan
6.9049258 -1.1530278 1.7071645 nan
6.9048934 -1.1658278 1.7071645 nan
6.9048615 -1.1786277 1.7071645 nan
7.0377741 -1.2136735 1.7164111 -3.0220918e+38
7.1766834 -1.2502407 1.7260749 -2.5686506e+38
7.1766505 -1.2635586 1.7260749 -2.6489253e+38
7.1766171 -1.2768768 1.7260749 -2.7289909e+38
7.1765838 -1.2901949 1.7260749 -2.7295625e+38
7.1765504 -1.3035128 1.7260749 -2.743374e+38
7.176517 -1.316831 1.7260749 -2.7966987e+38
7.0375457 -1.3050464 1.7164111 -2.8498678e+38
7.0375133 -1.3180997 1.7164111 -2.8363157e+38
7.0374808 -1.331153 1.7164111 -2.8360031e+38
7.176384 -1.3701032 1.7260749 -3.0090612e+38
7.3210454 -1.5058719 1.736156 nan
6.9051175 -1.076228 1.6943645 -2.9172198e+38
6.9050856 -1.089028 1.6943645 -3.0779755e+38
6.9050536 -1.101828 1.6943645 -3.2244506e+38
6.9050217 -1.1146278 1.6943645 -3.277724e+38
6.9049897 -1.1274278 1.6943645 -3.3177566e+38
6.9049578 -1.1402279 1.6943645 -3.3577892e+38
6.9049258 -1.1530278 1.6943645 -3.3845815e+38
6.9048934 -1.1658278 1.6943645 nan
6.9048615 -1.1786277 1.6943645 nan
7.0377741 -1.2136735 1.7033578 -3.1013259e+38
7.0377417 -1.2267267 1.7033578 -2.5424286e+38
7.0377088 -1.2397799 1.7033578 -2.6356841e+38
7.0376763 -1.2528334 1.7033578 -2.7157499e+38
7.0376439 -1.2658865 1.7033578 -2.7295621e+38
7.037611 -1.2789398 1.7033578 -2.7300296e+38
7.0375786 -1.2919933 1.7033578 -2.7569257e+38
7.0375457 -1.3050464 1.7033578 -2.7832504e+38
7.0375133 -1.3180997 1.7033578 -2.7164771e+38
7.0374808 -1.331153 1.7033578 -2.6366705e+38
7.176384 -1.3701032 1.7127569 -2.9556842e+38
6.9050856 -1.089028 1.6815646 -3.0108383e+38
6.9050536 -1.101828 1.6815646 -3.2246056e+38
6.9050217 -1.1146278 1.6815646 -3.277879e+38
6.9049897 -1.1274278 1.6815646 -3.3309444e+38
6.9049578 -1.1402279 1.6815646 nan
6.9049258 -1.1530278 1.6815646 nan
6.9048934 -1.1658278 1.6815646 nan
6.9048615 -1.1786277 1.6815646 nan
7.0377741 -1.2136735 1.6903045 -3.1020522e+38
7.0377417 -1.2267267 1.6903045 -2.5818895e+38
7.0377088 -1.2397799 1.6903045 -2.662008e+38
7.0376763 -1.2528334 1.6903045 -2.7422301e+38
7.0376439 -1.2658865 1.6903045 -2.7428539e+38
7.037611 -1.2789398 1.6903045 -2.7300813e+38
7.0375786 -1.2919933 1.6903045 -2.7566661e+38
7.0375457 -1.3050464 1.6903045 -2.7830944e+38
7.0375133 -1.3180997 1.6903045 -2.7032363e+38
7.0374808 -1.331153 1.6903045 -2.6234299e+38
7.0374479 -1.3442063 1.6903045 -3.0889702e+38
6.9050856 -1.089028 1.6687645 -2.9577219e+38
6.9050536 -1.101828 1.6687645 -3.2243997e+38
6.9050217 -1.1146278 1.6687645 -3.2914335e+38
6.9049897 -1.1274278 1.6687645 -3.3444986e+38
6.9049578 -1.1402279 1.6687645 nan
6.9049258 -1.1530278 1.6687645 nan
6.9048934 -1.1658278 1.6687645 nan
7.037807 -1.2006201 1.6772512 nan
7.0377741 -1.2136735 1.6772512 -3.1017944e+38
7.0377417 -1.2267267 1.6772512 -2.6223387e+38
7.0377088 -1.2397799 1.6772512 -2.7014701e+38
7.1766171 -1.2768768 1.6861207 -2.7689193e+38
7.0376439 -1.2658865 1.6772512 -2.7563032e+38
7.037611 -1.2789398 1.6772512 -2.7299261e+38
7.0375786 -1.2919933 1.6772512 -2.7566145e+38
7.0375457 -1.3050464 1.6772512 -2.7698022e+38
7.0375133 -1.3180997 1.6772512 -2.6898921e+38
7.0374808 -1.331153 1.6772512 -2.610396e+38
7.3213172 -1.397118 1.6953731 -3.2097927e+38
6.9050856 -1.089028 1.6559645 -2.8912094e+38
6.9050536 -1.101828 1.6559645 -3.1313554e+38
6.9050217 -1.1146278 1.6559645 -3.1315134e+38
6.9049897 -1.1274278 1.6559645 -3.1451166e+38
6.9049578 -1.1402279 1.6559645 -3.2914349e+38
6.9049258 -1.1530278 1.6559645 nan
6.9048934 -1.1658278 1.6559645 nan
7.037807 -1.2006201 1.6641978 nan
7.0377741 -1.2136735 1.6641978 -3.1426596e+38
7.0377417 -1.2267267 1.6641978 -2.7555223e+38
7.0377088 -1.2397799 1.6641978 -2.7952436e+38
7.0376763 -1.2528334 1.6641978 -2.835693e+38
7.0376439 -1.2658865 1.6641978 -2.7961811e+38
7.037611 -1.2789398 1.6641978 -2.7698038e+38
7.0375786 -1.2919933 1.6641978 -2.7831476e+38
6.9046059 -1.2810274 1.6559645 -2.809783e+38
7.0375133 -1.3180997 1.6641978 -2.7694898e+38
6.9045415 -1.3066273 1.6559645 -2.7426426e+38
6.9045095 -1.3194273 1.6559645 -3.3426095e+38
6.9050856 -1.089028 1.6431645 -2.8380916e+38
6.9050536 -1.101828 1.6431645 -3.0243405e+38
6.9050217 -1.1146278 1.6431645 -2.9846209e+38
6.9049897 -1.1274278 1.6431645 -2.9322827e+38
6.9049578 -1.1402279 1.6431645 -3.1186347e+38
6.9049258 -1.1530278 1.6431645 -3.3047775e+38
7.0378394 -1.1875668 1.6511445 -3.3979784e+38
7.037807 -1.2006201 1.6511445 nan
7.0377741 -1.2136735 1.6511445 -3.1823815e+38
7.0377417 -1.2267267 1.6511445 -2.8891207e+38
7.0377088 -1.2397799 1.6511445 -2.8883423e+38
7.0376763 -1.2528334 1.6511445 -2.8889141e+38
7.0376439 -1.2658865 1.6511445 -2.8494015e+38
7.037611 -1.2789398 1.6511445 -2.7962839e+38
7.0375786 -1.2919933 1.6511445 -2.82292e+38
6.9046059 -1.2810274 1.6431645 -2.8493479e+38
7.0375133 -1.3180997 1.6511445 -2.862276e+38
7.0374808 -1.331153 1.6511445 -2.8630528e+38
7.176384 -1.3701032 1.6594845 nan
6.9050856 -1.089028 1.6303645 -2.9038772e+38
6.9050536 -1.101828 1.6303645 -2.8110393e+38
6.9050217 -1.1146278 1.6303645 -2.9848778e+38
6.9049897 -1.1274278 1.6303645 -3.1585614e+38
6.9049578 -1.1402279 1.6303645 -3.2914854e+38
6.9049258 -1.1530278 1.6303645 nan
6.9048934 -1.1658278 1.6303645 nan
6.9048615 -1.1786277 1.6303645 nan
7.0377741 -1.2136735 1.6380912 -3.2758955e+38
7.0377417 -1.2267267 1.6380912 -2.9295176e+38
7.0377088 -1.2397799 1.6380912 -2.8890179e+38
7.0376763 -1.2528334 1.6380912 -2.8625891e+38
7.0376439 -1.2658865 1.6380912 -2.8227642e+38
7.037611 -1.2789398 1.6380912 -2.7829389e+38
7.0375786 -1.2919933 1.6380912 -2.7696462e+38
6.9046059 -1.2810274 1.6303645 -2.7561458e+38
7.1764507 -1.343467 1.6461664 -2.9553217e+38
7.1764174 -1.3567851 1.6461664 -3.1549124e+38
7.176384 -1.3701032 1.6461664 nan
7.0380354 -1.109247 1.6250379 -2.9695569e+38
7.0380025 -1.1223004 1.6250379 -2.5849655e+38
6.9050217 -1.1146278 1.6175644 -2.98519e+38
6.9049897 -1.1274278 1.6175644 -3.3844788e+38
6.9049578 -1.1402279 1.6175644 nan
6.9049258 -1.1530278 1.6175644 nan
6.9048934 -1.1658278 1.6175644 nan
6.9048615 -1.1786277 1.6175644 nan
7.0377741 -1.2136735 1.6250379 -3.3688391e+38
7.0377417 -1.2267267 1.6250379 -2.9562058e+38
7.0377088 -1.2397799 1.6250379 -2.8888601e+38
7.0376763 -1.2528334 1.6250379 -2.8226589e+38
7.0376439 -1.2658865 1.6250379 -2.796179e+38
7.037611 -1.2789398 1.6250379 -2.7695943e+38
7.0375786 -1.2919933 1.6250379 -2.7164769e+38
6.9046059 -1.2810274 1.6175644 -2.6497029e+38
7.1764507 -1.343467 1.6328483 -3.0479509e+38
7.1764174 -1.3567851 1.6328483 nan
7.176384 -1.3701032 1.6328483 nan
6.9050856 -1.089028 1.6047645 -3.022879e+38
6.9050536 -1.101828 1.6047645 -2.6906797e+38
6.9050217 -1.1146278 1.6047645 -2.9581385e+38
6.9049897 -1.1274278 1.6047645 -3.2382644e+38
6.9049578 -1.1402279 1.6047645 -3.3448636e+38
6.9049258 -1.1530278 1.6047645 nan
6.9048934 -1.1658278 1.6047645 nan
6.9048615 -1.1786277 1.6047645 nan
7.0377741 -1.2136735 1.6119845 -3.3030022e+38
7.0377417 -1.2267267 1.6119845 -2.8901075e+38
7.0377088 -1.2397799 1.6119845 -2.8758773e+38
7.0376763 -1.2528334 1.6119845 -2.8625346e+38
7.0376439 -1.2658865 1.6119845 -2.8226589e+38
7.037611 -1.2789398 1.6119845 -2.7961265e+38
7.176517 -1.316831 1.6195302 -2.7429574e+38
7.0375457 -1.3050464 1.6119845 -2.6895789e+38
7.0375133 -1.3180997 1.6119845 -3.0885532e+38
7.1764174 -1.3567851 1.6195302 nan
7.3213172 -1.397118 1.6274016 nan
7.3212833 -1.4107122 1.6274016 nan
7.0380354 -1.109247 1.5989312 -3.0758935e+38
7.0380025 -1.1223004 1.5989312 -2.797382e+38
6.9050217 -1.1146278 1.5919645 -2.9449503e+38
6.9049897 -1.1274278 1.5919645 -3.0785495e+38
6.9049578 -1.1402279 1.5919645 -3.2519219e+38
6.9049258 -1.1530278 1.5919645 nan
6.9048934 -1.1658278 1.5919645 nan
6.9048615 -1.1786277 1.5919645 nan
6.9048295 -1.1914276 1.5919645 -3.2360739e+38
7.0377417 -1.2267267 1.5989312 -2.8231792e+38
7.0377088 -1.2397799 1.5989312 -2.8619105e+38
7.0376763 -1.2528334 1.5989312 -2.8889114e+38
7.0376439 -1.2658865 1.5989312 -2.86238e+38
7.037611 -1.2789398 1.5989312 -2.822607e+38
7.176517 -1.316831 1.6062121 -2.7695417e+38
7.0375457 -1.3050464 1.5989312 -2.7165266e+38
7.0375133 -1.3180997 1.5989312 -3.1424488e+38
7.1764174 -1.3567851 1.6062121 nan
7.3213172 -1.397118 1.6138074 nan
7.0380354 -1.109247 1.5858779 -3.2358692e+38
7.0380025 -1.1223004 1.5858779 -2.8369479e+38
6.9050217 -1.1146278 1.5791645 -2.9843598e+38
6.9049897 -1.1274278 1.5791645 -3.1316671e+38
6.9049578 -1.1402279 1.5791645 -3.2781954e+38
6.9049258 -1.1530278 1.5791645 nan
6.9048934 -1.1658278 1.5791645 nan
6.9048615 -1.1786277 1.5791645 nan
6.9048295 -1.1914276 1.5791645 -3.2364375e+38
7.0377417 -1.2267267 1.5858779 -2.8894333e+38
6.9047656 -1.2170277 1.5791645 -2.9021512e+38
7.0376763 -1.2528334 1.5858779 -2.9288404e+38
7.0376439 -1.2658865 1.5858779 -2.8756721e+38
7.037611 -1.2789398 1.5858779 -2.8358472e+38
7.176517 -1.316831 1.5928941 -2.7827817e+38
7.0375457 -1.3050464 1.5858779 -2.7297146e+38
7.0375133 -1.3180997 1.5858779 -3.2222021e+38
7.0374808 -1.331153 1.5858779 nan
7.0380354 -1.109247 1.5728245 -3.3949602e+38
7.0380025 -1.1223004 1.5728245 -2.8636874e+38
6.9050217 -1.1146278 1.5663645 -3.0239247e+38
6.9049897 -1.1274278 1.5663645 -3.1843685e+38
6.9049578 -1.1402279 1.5663645 -3.3179164e+38
6.9049258 -1.1530278 1.5663645 nan
6.9048934 -1.1658278 1.5663645 nan
6.9048615 -1.1786277 1.5663645 nan
6.9048295 -1.1914276 1.5663645 -3.2230434e+38
7.0377417 -1.2267267 1.5728245 -2.9562596e+38
7.0377088 -1.2397799 1.5728245 -2.9550617e+38
7.0376763 -1.2528334 1.5728245 -2.9552696e+38
7.0376439 -1.2658865 1.5728245 -2.9022045e+38
7.037611 -1.2789398 1.5728245 -2.849139e+38
7.0375786 -1.2919933 1.5728245 -2.7960736e+38
7.0375457 -1.3050464 1.5728245 -2.7297138e+38
7.0375133 -1.3180997 1.5728245 -3.3152469e+38
7.0374808 -1.331153 1.5728245 nan
7.0380025 -1.1223004 1.5597712 -2.7704329e+38
7.0379701 -1.1353537 1.5597712 -2.9708071e+38
6.9049897 -1.1274278 1.5535645 -3.1842126e+38
6.9049578 -1.1402279 1.5535645 -3.2778317e+38
6.9049258 -1.1530278 1.5535645 -3.3581022e+38
6.9048934 -1.1658278 1.5535645 -3.3044114e+38
