# .PCD v0.7 - Point Cloud Data file format
VERSION 0.7
FIELDS x y z rgb
SIZE 4 4 4 4
TYPE F F F F
COUNT 1 1 1 1
WIDTH 1058
HEIGHT 1
VIEWPOINT 0 0 0 1 0 0 0
POINTS 1058
DATA ascii
2.3017693 -0.043406449 1.9667778 -2.5959079e+38
2.3017597 -0.047433104 1.9667778 -2.6357843e+38
2.3017502 -0.051459759 1.9667778 -2.635732e+38
2.3017406 -0.055486415 1.9667778 -2.6357322e+38
2.3017311 -0.059513073 1.9667778 -2.6623687e+38
2.3147218 -0.063508615 1.9712474 -2.6890575e+38
2.314712 -0.067560032 1.9712474 -2.6891098e+38
2.3277025 -0.071629852 1.9757168 -2.7024544e+38
2.327693 -0.075706035 1.9757168 -2.7423317e+38
2.3276832 -0.079782218 1.9757168 -2.7690207e+38
2.3276737 -0.083858393 1.9757168 -2.7691769e+38
2.3406637 -0.088052027 1.9801865 -2.7826249e+38
2.3406541 -0.092152968 1.9801865 -2.7827807e+38
2.3406444 -0.096253909 1.9801865 -2.7829362e+38
2.354634 -0.10056134 1.9849998 -2.7830916e+38
2.3686235 -0.10492211 1.9898131 -2.7964875e+38
2.3686137 -0.10907638 1.9898131 -2.7829871e+38
2.3816035 -0.11349668 1.9942826 -2.7825196e+38
2.3955929 -0.11798888 1.9990959 -2.7688635e+38
2.3955832 -0.12219457 1.9990959 -2.7685495e+38
2.3955731 -0.12640028 1.9990959 -2.5422666e+38
2.3955631 -0.13060598 1.9990959 -2.3161465e+38
2.3955531 -0.13481168 1.9990959 -2.6765483e+38
2.3955431 -0.13901739 1.9990959 -3.0508139e+38
2.410532 -0.14373004 2.0042531 nan
2.3955233 -0.14742878 1.9990959 nan
2.2382123 -0.27855659 1.945118 nan
2.238203 -0.28246325 1.945118 nan
2.2152238 0.14860383 1.9330056 -2.5414879e+38
2.2509167 0.018857971 1.945314 -2.4193627e+38
2.2509074 0.01492846 1.945314 -2.2614653e+38
2.2758532 -0.0079221167 1.9538617 -2.4213889e+38
2.2758436 -0.01189924 1.9538617 -2.4879546e+38
2.2758343 -0.015876375 1.9538617 -2.5548843e+38
2.2758248 -0.019853506 1.9538617 -2.5552485e+38
2.2888162 -0.023551907 1.9583064 -2.5554575e+38
2.2888067 -0.0275538 1.9583064 -2.568699e+38
2.2887971 -0.031555694 1.9583064 -2.5689073e+38
2.2887878 -0.03555759 1.9583064 -2.5557714e+38
2.3017788 -0.039379798 1.9627512 -2.5426347e+38
2.3017693 -0.043406449 1.9627512 -2.569271e+38
2.3017597 -0.047433104 1.9627512 -2.5957515e+38
2.3017502 -0.051459759 1.9627512 -2.6089917e+38
2.3017406 -0.055486415 1.9627512 -2.6223359e+38
2.3017311 -0.059513073 1.9627512 -2.6489204e+38
2.3147218 -0.063508615 1.967196 -2.662317e+38
2.314712 -0.067560032 1.967196 -2.6624212e+38
2.3147025 -0.071611449 1.967196 -2.6624733e+38
2.327693 -0.075706035 1.9716407 -2.6890583e+38
2.3276832 -0.079782218 1.9716407 -2.7157992e+38
2.3276737 -0.083858393 1.9716407 -2.7292479e+38
2.3276639 -0.087934569 1.9716407 -2.7294039e+38
2.3406541 -0.092152968 1.9760854 -2.742904e+38
2.3406444 -0.096253909 1.9760854 -2.7430077e+38
2.3406346 -0.10035485 1.9760854 -2.7564036e+38
2.3546243 -0.10468895 1.9808722 -2.756507e+38
2.3686137 -0.10907638 1.9856589 -2.7564545e+38
2.3686039 -0.11323065 1.9856589 -2.742798e+38
2.3815935 -0.11767572 1.9901036 -2.7556742e+38
2.3955832 -0.12219457 1.9948902 -2.7686018e+38
2.4105721 -0.12679294 2.0000188 -2.5954895e+38
2.410562 -0.13102722 2.0000188 -2.4226395e+38
2.410552 -0.13526151 2.0000188 -2.4623101e+38
2.424541 -0.13994226 2.0048056 -2.4913409e+38
2.424531 -0.1442032 2.0048056 nan
2.410522 -0.14796431 2.0000188 nan
2.2382214 -0.27464995 1.9412112 nan
2.2382123 -0.27855659 1.9412112 nan
2.238203 -0.28246325 1.9412112 nan
2.2152331 0.15246478 1.9291445 -2.3554991e+38
2.250926 0.022787489 1.9413846 nan
2.2509167 0.018857971 1.9413846 nan
2.2509074 0.01492846 1.9413846 nan
2.2508981 0.010998949 1.9413846 nan
2.2758532 -0.0079221167 1.9498845 -3.0450868e+38
2.2758436 -0.01189924 1.9498845 -2.8601889e+38
2.2758343 -0.015876375 1.9498845 -2.6743059e+38
2.2758248 -0.019853506 1.9498845 -2.6213974e+38
2.2888162 -0.023551907 1.9543045 -2.568853e+38
2.2888067 -0.0275538 1.9543045 -2.582095e+38
2.2887971 -0.031555694 1.9543045 -2.5954398e+38
2.2887878 -0.03555759 1.9543045 -2.5822517e+38
2.3017788 -0.039379798 1.9587245 -2.5690631e+38
2.3017693 -0.043406449 1.9587245 -2.582355e+38
2.3017597 -0.047433104 1.9587245 -2.6088878e+38
2.3017502 -0.051459759 1.9587245 -2.622232e+38
2.3017406 -0.055486415 1.9587245 -2.6355762e+38
2.3017311 -0.059513073 1.9587245 -2.635576e+38
2.3017216 -0.063539729 1.9587245 -2.6356283e+38
2.301712 -0.06756638 1.9587245 -2.6356805e+38
2.3147025 -0.071611449 1.9631445 -2.6490249e+38
2.314693 -0.075662866 1.9631445 -2.6624212e+38
2.3276832 -0.079782218 1.9675646 -2.6891623e+38
2.3276737 -0.083858393 1.9675646 -2.7025593e+38
2.3406637 -0.088052027 1.9719845 -2.7027155e+38
2.3406541 -0.092152968 1.9719845 -2.7028195e+38
2.3406444 -0.096253909 1.9719845 -2.7029753e+38
2.3406346 -0.10035485 1.9719845 -2.7164752e+38
2.3546243 -0.10468895 1.9767445 -2.7299227e+38
2.3686137 -0.10907638 1.9815046 -2.7432142e+38
2.3686039 -0.11323065 1.9815046 -2.769486e+38
2.3815935 -0.11767572 1.9859245 -2.7690694e+38
2.3955832 -0.12219457 1.9906845 -2.7819465e+38
2.4245713 -0.12715945 2.0005445 -2.6755046e+38
2.410562 -0.13102722 1.9957845 -2.5824572e+38
2.410552 -0.13526151 1.9957845 -2.4889425e+38
2.424541 -0.13994226 2.0005445 -2.3959556e+38
2.424531 -0.1442032 2.0005445 -3.397349e+38
2.4245207 -0.14846414 2.0005445 nan
2.4245107 -0.15272507 2.0005445 nan
2.2382214 -0.27464995 1.9373045 nan
2.2382123 -0.27855659 1.9373045 nan
2.238203 -0.28246325 1.9373045 nan
2.250926 0.022787489 1.9374549 nan
2.2509167 0.018857971 1.9374549 nan
2.2509074 0.01492846 1.9374549 nan
2.2508981 0.010998949 1.9374549 nan
2.2508795 0.0031399205 1.9374549 nan
2.2638619 -0.0043165609 1.9418502 nan
2.2758532 -0.0079221167 1.9459074 nan
2.2758436 -0.01189924 1.9459074 -3.2334666e+38
2.2758343 -0.015876375 1.9459074 -2.7944041e+38
2.2758248 -0.019853506 1.9459074 -2.6872333e+38
2.2888162 -0.023551907 1.9503026 -2.581521e+38
2.2888067 -0.0275538 1.9503026 -2.6086793e+38
2.2887971 -0.031555694 1.9503026 -2.621972e+38
2.2887878 -0.03555759 1.9503026 -2.608732e+38
2.2887783 -0.039559484 1.9503026 -2.5954917e+38
2.3017693 -0.043406449 1.9546978 -2.608784e+38
2.3017597 -0.047433104 1.9546978 -2.6088878e+38
2.3017502 -0.051459759 1.9546978 -2.6221284e+38
2.3017406 -0.055486415 1.9546978 -2.6354724e+38
2.3017311 -0.059513073 1.9546978 -2.6221282e+38
2.3017216 -0.063539729 1.9546978 -2.6089397e+38
2.301712 -0.06756638 1.9546978 -2.6222839e+38
2.3147025 -0.071611449 1.9590931 -2.6223363e+38
2.314693 -0.075662866 1.9590931 -2.6489212e+38
2.3276832 -0.079782218 1.9634883 -2.6623697e+38
2.3276737 -0.083858393 1.9634883 -2.6757145e+38
2.3406637 -0.088052027 1.9678836 -2.6758707e+38
2.3276544 -0.092010751 1.9634883 -2.6625788e+38
2.3406444 -0.096253909 1.9678836 -2.6497023e+38
2.3406346 -0.10035485 1.9678836 -2.6765467e+38
2.3546243 -0.10468895 1.9726169 -2.6900463e+38
2.3546145 -0.10881656 1.9726169 -2.7434746e+38
2.3686039 -0.11323065 1.9773502 -2.782831e+38
2.3815935 -0.11767572 1.9817455 -2.7824144e+38
2.3955832 -0.12219457 1.9864788 -2.7821028e+38
2.4245713 -0.12715945 1.9962835 -2.768655e+38
2.410562 -0.13102722 1.9915502 -2.7417575e+38
2.424551 -0.13568132 1.9962835 -2.5150606e+38
2.4395401 -0.14042065 2.0013549 -2.29076e+38
2.4395299 -0.14471015 2.0013549 -3.3718549e+38
2.4395196 -0.14899966 2.0013549 nan
2.4245107 -0.15272507 1.9962835 nan
2.2502282 -0.27192599 1.9374549 nan
2.2502189 -0.27585551 1.9374549 nan
2.2502096 -0.27978501 1.9374549 nan
2.2502003 -0.2837145 1.9374549 nan
2.2508981 0.010998949 1.9335256 nan
2.2508888 0.0070694387 1.9335256 nan
2.2508795 0.0031399205 1.9335256 nan
2.2508702 -0.00078959018 1.9335256 nan
2.2638619 -0.0043165609 1.937896 nan
2.2758532 -0.0079221167 1.9419303 nan
2.2758436 -0.01189924 1.9419303 nan
2.288835 -0.015548121 1.9463007 nan
2.2888258 -0.019550014 1.9463007 -3.0735377e+38
2.2888162 -0.023551907 1.9463007 -2.3548758e+38
2.2888067 -0.0275538 1.9463007 -2.475289e+38
2.2887971 -0.031555694 1.9463007 -2.6085235e+38
2.2887878 -0.03555759 1.9463007 -2.5952834e+38
2.2887783 -0.039559484 1.9463007 -2.5820434e+38
2.2887688 -0.043561377 1.9463007 -2.5821475e+38
2.3017597 -0.047433104 1.9506712 -2.5956477e+38
2.3017502 -0.051459759 1.9506712 -2.5954919e+38
2.3017406 -0.055486415 1.9506712 -2.5955438e+38
2.3017311 -0.059513073 1.9506712 -2.5955436e+38
2.3017216 -0.063539729 1.9506712 -2.582303e+38
2.301712 -0.06756638 1.9506712 -2.5955951e+38
2.3147025 -0.071611449 1.9550416 -2.6089399e+38
2.314693 -0.075662866 1.9550416 -2.6222845e+38
2.3276832 -0.079782218 1.9594121 -2.6488693e+38
2.3276737 -0.083858393 1.9594121 -2.6489734e+38
2.3276639 -0.087934569 1.9594121 -2.662422e+38
2.3276544 -0.092010751 1.9594121 -2.6492861e+38
2.3406444 -0.096253909 1.9637825 -2.6496502e+38
2.3406346 -0.10035485 1.9637825 -2.6629431e+38
2.3406248 -0.10445579 1.9637825 -2.689943e+38
2.3546145 -0.10881656 1.9684893 -2.7163716e+38
2.3686039 -0.11323065 1.973196 -2.742903e+38
2.3815935 -0.11767572 1.9775665 -2.7558304e+38
2.3955832 -0.12219457 1.9822731 -2.7688114e+38
2.4105721 -0.12679294 1.9873159 -2.7819479e+38
2.410562 -0.13102722 1.9873159 -2.7950832e+38
2.410552 -0.13526151 1.9873159 -2.6350552e+38
2.424541 -0.13994226 1.9920226 -2.4884829e+38
2.4395299 -0.14471015 1.9970655 nan
2.4395196 -0.14899966 1.9970655 nan
2.4245107 -0.15272507 1.9920226 nan
2.2502282 -0.27192599 1.9335256 nan
2.2502189 -0.27585551 1.9335256 nan
2.2502096 -0.27978501 1.9335256 nan
2.2631969 -0.28507009 1.937896 nan
2.2508981 0.010998949 1.9295959 nan
2.2508888 0.0070694387 1.9295959 nan
2.2508795 0.0031399205 1.9295959 nan
2.2508702 -0.00078959018 1.9295959 nan
2.2638619 -0.0043165609 1.9339416 nan
2.2758532 -0.0079221167 1.9379531 nan
2.2758436 -0.01189924 1.9379531 nan
2.2758343 -0.015876375 1.9379531 nan
2.2888258 -0.019550014 1.9422989 nan
2.2888162 -0.023551907 1.9422989 -2.1162405e+38
2.2888067 -0.0275538 1.9422989 -2.3555524e+38
2.2887971 -0.031555694 1.9422989 -2.581782e+38
2.2887878 -0.03555759 1.9422989 -2.5818351e+38
2.2887783 -0.039559484 1.9422989 -2.5686988e+38
2.2887688 -0.043561377 1.9422989 -2.568751e+38
2.3017597 -0.047433104 1.9466445 -2.5688548e+38
2.3017502 -0.051459759 1.9466445 -2.568699e+38
2.3017406 -0.055486415 1.9466445 -2.5555625e+38
2.3017311 -0.059513073 1.9466445 -2.5556142e+38
2.3017216 -0.063539729 1.9466445 -2.5556662e+38
2.301712 -0.06756638 1.9466445 -2.5689065e+38
2.3147025 -0.071611449 1.9509902 -2.582303e+38
2.314693 -0.075662866 1.9509902 -2.6089401e+38
2.3146834 -0.079714283 1.9509902 -2.6222326e+38
2.3146737 -0.0837657 1.9509902 -2.6355251e+38
2.3276639 -0.087934569 1.955336 -2.6489736e+38
2.3276544 -0.092010751 1.955336 -2.6491297e+38
2.3406444 -0.096253909 1.9596817 -2.6358377e+38
2.3406346 -0.10035485 1.9596817 -2.6622667e+38
2.3406248 -0.10445579 1.9596817 -2.675819e+38
2.3546145 -0.10881656 1.9643617 -2.6891114e+38
2.3686039 -0.11323065 1.9690417 -2.6894222e+38
2.3815935 -0.11767572 1.9733875 -2.7291941e+38
2.3955832 -0.12219457 1.9780674 -2.755571e+38
2.4105721 -0.12679294 1.9830817 -2.7951365e+38
2.410562 -0.13102722 1.9830817 -2.8349073e+38
2.410552 -0.13526151 1.9830817 -2.7680802e+38
2.410542 -0.13949576 1.9830817 -2.6896327e+38
2.424531 -0.1442032 1.9877617 nan
2.4245207 -0.14846414 1.9877617 nan
2.4245107 -0.15272507 1.9877617 nan
2.2632439 -0.26529872 1.9339416 nan
2.2632251 -0.27320725 1.9339416 nan
2.2502189 -0.27585551 1.9295959 nan
2.2502096 -0.27978501 1.9295959 nan
2.2631969 -0.28507009 1.9339416 nan
2.2508795 0.0031399205 1.9256665 nan
2.2638714 -0.00036228448 1.9299874 nan
2.2638619 -0.0043165609 1.9299874 nan
2.2758532 -0.0079221167 1.9339759 nan
2.2758436 -0.01189924 1.9339759 nan
2.288835 -0.015548121 1.9382969 nan
2.2888258 -0.019550014 1.9382969 nan
2.2888162 -0.023551907 1.9382969 -2.7006361e+38
2.2888067 -0.0275538 1.9382969 -2.5947591e+38
2.2887971 -0.031555694 1.9382969 -2.4886829e+38
2.2887878 -0.03555759 1.9382969 -2.5154774e+38
2.2887783 -0.039559484 1.9382969 -2.5421139e+38
2.2887688 -0.043561377 1.9382969 -2.5554581e+38
2.3017597 -0.047433104 1.9426179 -2.55551e+38
2.3017502 -0.051459759 1.9426179 -2.55551e+38
2.3017406 -0.055486415 1.9426179 -2.5422177e+38
2.3017311 -0.059513073 1.9426179 -2.5422694e+38
2.3017216 -0.063539729 1.9426179 -2.5423216e+38
2.301712 -0.06756638 1.9426179 -2.555614e+38
2.3017025 -0.071593039 1.9426179 -2.5689586e+38
2.301693 -0.075619698 1.9426179 -2.5955955e+38
2.3146834 -0.079714283 1.9469388 -2.6221805e+38
2.3146737 -0.0837657 1.9469388 -2.6355249e+38
2.3276639 -0.087934569 1.9512599 -2.6488693e+38
2.3276544 -0.092010751 1.9512599 -2.6489212e+38
2.3276446 -0.096086934 1.9512599 -2.6487135e+38
2.3406346 -0.10035485 1.9555807 -2.6753498e+38
2.3406248 -0.10445579 1.9555807 -2.7018313e+38
2.3406153 -0.10855673 1.9555807 -2.7022993e+38
2.3816035 -0.11349668 1.9692084 -2.7027142e+38
2.3815935 -0.11767572 1.9692084 -2.7290905e+38
2.3815837 -0.12185475 1.9692084 -2.7556231e+38
2.4105721 -0.12679294 1.9788474 -2.7553116e+38
2.410562 -0.13102722 1.9788474 -2.7685489e+38
2.410552 -0.13526151 1.9788474 -2.661948e+38
2.410542 -0.13949576 1.9788474 -2.5556714e+38
2.410532 -0.14373004 1.9788474 nan
2.410522 -0.14796431 1.9788474 nan
2.4245107 -0.15272507 1.9835007 nan
2.2632251 -0.27320725 1.9299874 nan
2.2632158 -0.27716154 1.9299874 nan
2.2632065 -0.2811158 1.9299874 nan
2.2758532 -0.0079221167 1.9299989 nan
2.2758436 -0.01189924 1.9299989 nan
2.288835 -0.015548121 1.9342949 nan
2.2888258 -0.019550014 1.9342949 nan
2.2888162 -0.023551907 1.9342949 -3.2872107e+38
2.2888067 -0.0275538 1.9342949 -2.8340725e+38
2.2887971 -0.031555694 1.9342949 -2.3823968e+38
2.2887878 -0.03555759 1.9342949 -2.4492239e+38
2.2887783 -0.039559484 1.9342949 -2.5155812e+38
2.2887688 -0.043561377 1.9342949 -2.5288735e+38
2.3017597 -0.047433104 1.9385912 -2.5422175e+38
2.3017502 -0.051459759 1.9385912 -2.5422692e+38
2.3017406 -0.055486415 1.9385912 -2.528925e+38
2.3017311 -0.059513073 1.9385912 -2.528925e+38
2.3017216 -0.063539729 1.9385912 -2.5157368e+38
2.301712 -0.06756638 1.9385912 -2.5423218e+38
2.3017025 -0.071593039 1.9385912 -2.5556662e+38
2.301693 -0.075619698 1.9385912 -2.5821992e+38
2.3146834 -0.079714283 1.9428873 -2.6088359e+38
2.3146737 -0.0837657 1.9428873 -2.6221286e+38
2.3276639 -0.087934569 1.9471836 -2.6355249e+38
2.3146546 -0.091868535 1.9428873 -2.6488693e+38
2.3276446 -0.096086934 1.9471836 -2.6487135e+38
2.327635 -0.10016311 1.9471836 -2.6884865e+38
2.3406248 -0.10445579 1.9514798 -2.7285715e+38
2.3406153 -0.10855673 1.9514798 -2.7288834e+38
2.3686039 -0.11323065 1.9607332 -2.7156427e+38
2.3815935 -0.11767572 1.9650292 -2.7287788e+38
2.3955832 -0.12219457 1.969656 -2.7420712e+38
2.4105721 -0.12679294 1.9746132 -2.7152273e+38
2.410562 -0.13102722 1.9746132 -2.6886926e+38
2.410552 -0.13526151 1.9746132 -2.5554045e+38
2.410542 -0.13949576 1.9746132 -2.4104948e+38
2.410532 -0.14373004 1.9746132 -3.3844212e+38
2.4245207 -0.14846414 1.9792397 nan
2.4245107 -0.15272507 1.9792397 nan
2.4244905 -0.16124696 1.9792397 nan
2.2632251 -0.27320725 1.926033 nan
2.2632158 -0.27716154 1.926033 nan
2.2752032 -0.28234422 1.9299989 nan
2.288835 -0.015548121 1.9302931 nan
2.2888258 -0.019550014 1.9302931 nan
2.2888162 -0.023551907 1.9302931 -2.9019431e+38
2.2888067 -0.0275538 1.9302931 -2.6749288e+38
2.2887971 -0.031555694 1.9302931 -2.4488065e+38
2.2887878 -0.03555759 1.9302931 -2.4623604e+38
2.2887783 -0.039559484 1.9302931 -2.4889969e+38
2.2887688 -0.043561377 1.9302931 -2.4889967e+38
2.2887592 -0.04756327 1.9302931 -2.5022885e+38
2.3017502 -0.051459759 1.9345646 -2.5023401e+38
2.3017406 -0.055486415 1.9345646 -2.5156323e+38
2.3017311 -0.059513073 1.9345646 -2.502392e+38
2.3017216 -0.063539729 1.9345646 -2.5024443e+38
2.301712 -0.06756638 1.9345646 -2.5290293e+38
2.3017025 -0.071593039 1.9345646 -2.555666e+38
2.314693 -0.075662866 1.938836 -2.5689065e+38
2.3146834 -0.079714283 1.938836 -2.5954915e+38
2.3146737 -0.0837657 1.938836 -2.6087842e+38
2.3146641 -0.087817118 1.938836 -2.6221805e+38
2.3276544 -0.092010751 1.9431074 -2.635473e+38
2.3276446 -0.096086934 1.9431074 -2.6487135e+38
2.327635 -0.10016311 1.9431074 -2.6885906e+38
2.3276253 -0.10423929 1.9431074 -2.7285715e+38
2.3406153 -0.10855673 1.9473789 -2.715435e+38
2.3686039 -0.11323065 1.9565787 -2.7154348e+38
2.3815935 -0.11767572 1.9608502 -2.7288305e+38
2.3815837 -0.12185475 1.9608502 -2.7420712e+38
2.4105721 -0.12679294 1.9703789 -2.7287272e+38
2.4245613 -0.13142037 1.9749788 -2.715538e+38
2.410552 -0.13526151 1.9703789 -2.6353162e+38
2.410542 -0.13949576 1.9703789 -2.5687039e+38
2.410532 -0.14373004 1.9703789 -3.3832763e+38
2.4245207 -0.14846414 1.9749788 nan
2.4395096 -0.15328917 1.9799074 nan
2.2752221 -0.27438995 1.9260217 nan
2.2752125 -0.27836707 1.9260217 nan
2.2752032 -0.28234422 1.9260217 nan
2.288835 -0.015548121 1.9262912 nan
2.2888258 -0.019550014 1.9262912 -3.0208503e+38
2.2888162 -0.023551907 1.9262912 -2.5156346e+38
2.3018074 -0.027299829 1.9305379 -2.5148504e+38
2.2887971 -0.031555694 1.9262912 -2.5152675e+38
2.2887878 -0.03555759 1.9262912 -2.4888922e+38
2.2887783 -0.039559484 1.9262912 -2.4491192e+38
2.2887688 -0.043561377 1.9262912 -2.4491709e+38
2.3017597 -0.047433104 1.9305379 -2.4491188e+38
2.3017502 -0.051459759 1.9305379 -2.4757034e+38
2.3017406 -0.055486415 1.9305379 -2.4890995e+38
2.3017311 -0.059513073 1.9305379 -2.4891516e+38
2.3017216 -0.063539729 1.9305379 -2.4758595e+38
2.301712 -0.06756638 1.9305379 -2.5157366e+38
2.3017025 -0.071593039 1.9305379 -2.5423213e+38
2.301693 -0.075619698 1.9305379 -2.5555619e+38
2.3146834 -0.079714283 1.9347845 -2.5688544e+38
2.3146737 -0.0837657 1.9347845 -2.5953874e+38
2.3146641 -0.087817118 1.9347845 -2.608784e+38
2.3146546 -0.091868535 1.9347845 -2.6354209e+38
2.3276446 -0.096086934 1.9390311 -2.6487653e+38
2.327635 -0.10016311 1.9390311 -2.6885904e+38
2.3276253 -0.10423929 1.9390311 -2.7153307e+38
2.3406153 -0.10855673 1.9432778 -2.7154348e+38
2.3546047 -0.11294417 1.9478512 -2.7023502e+38
2.3685942 -0.11738493 1.9524245 -2.7290388e+38
2.3815837 -0.12185475 1.9566712 -2.7422274e+38
2.4105721 -0.12679294 1.9661446 -2.7420199e+38
2.4245613 -0.13142037 1.9707179 -2.741967e+38
2.424551 -0.13568132 1.9707179 -2.7282583e+38
2.410542 -0.13949576 1.9661446 -2.7159049e+38
2.410532 -0.14373004 1.9661446 -3.3970868e+38
2.4245207 -0.14846414 1.9707179 nan
2.4395096 -0.15328917 1.9756179 nan
2.4394994 -0.15757869 1.9756179 nan
2.2752221 -0.27438995 1.9220445 nan
2.2752125 -0.27836707 1.9220445 nan
2.2752032 -0.28234422 1.9220445 nan
2.2888258 -0.019550014 1.9222894 -2.7550015e+38
2.2888162 -0.023551907 1.9222894 -2.3425737e+38
2.3018074 -0.027299829 1.9265112 -2.4089276e+38
2.3017979 -0.031326484 1.9265112 -2.4756498e+38
2.3017883 -0.035353139 1.9265112 -2.475703e+38
2.3017788 -0.039379798 1.9265112 -2.4757549e+38
2.3017693 -0.043406449 1.9265112 -2.4624105e+38
2.3017597 -0.047433104 1.9265112 -2.4624107e+38
2.3017502 -0.051459759 1.9265112 -2.4624626e+38
2.3017406 -0.055486415 1.9265112 -2.475807e+38
2.3017311 -0.059513073 1.9265112 -2.4758072e+38
2.3017216 -0.063539729 1.9265112 -2.4757553e+38
2.301712 -0.06756638 1.9265112 -2.5023399e+38
2.3017025 -0.071593039 1.9265112 -2.5289246e+38
2.301693 -0.075619698 1.9265112 -2.542269e+38
2.3146834 -0.079714283 1.9307331 -2.5423213e+38
2.3146737 -0.0837657 1.9307331 -2.5688542e+38
2.3146641 -0.087817118 1.9307331 -2.582199e+38
2.3146546 -0.091868535 1.9307331 -2.5955436e+38
2.3146451 -0.095919952 1.9307331 -2.6222324e+38
2.327635 -0.10016311 1.934955 -2.6487653e+38
2.3276253 -0.10423929 1.934955 -2.6754537e+38
2.3406153 -0.10855673 1.9391769 -2.6757133e+38
2.3546047 -0.11294417 1.9437236 -2.6893177e+38
2.3685942 -0.11738493 1.9482703 -2.6892662e+38
2.3815837 -0.12185475 1.9524922 -2.7025067e+38
2.3955731 -0.12640028 1.9570389 -2.7155913e+38
2.410562 -0.13102722 1.9619102 -2.7288305e+38
2.410552 -0.13526151 1.9619102 -2.6352641e+38
2.410542 -0.13949576 1.9619102 -2.5550991e+38
2.410532 -0.14373004 1.9619102 -3.2761572e+38
2.4245207 -0.14846414 1.9664569 nan
2.4395096 -0.15328917 1.9713283 nan
2.288219 -0.27567121 1.9222894 nan
2.2882097 -0.2796731 1.9222894 nan
2.2882001 -0.28367501 1.9222894 nan
2.2888258 -0.019550014 1.9182874 -2.4880099e+38
2.3018169 -0.023273174 1.9224845 -2.1693579e+38
2.3018074 -0.027299829 1.9224845 -2.3025393e+38
2.3017979 -0.031326484 1.9224845 -2.4224817e+38
2.3017883 -0.035353139 1.9224845 -2.4624626e+38
2.3017788 -0.039379798 1.9224845 -2.4889431e+38
2.3017693 -0.043406449 1.9224845 -2.4754949e+38
2.3017597 -0.047433104 1.9224845 -2.4624103e+38
2.3017502 -0.051459759 1.9224845 -2.4625141e+38
2.3017406 -0.055486415 1.9224845 -2.4491703e+38
2.3017311 -0.059513073 1.9224845 -2.462463e+38
2.3017216 -0.063539729 1.9224845 -2.4757032e+38
2.301712 -0.06756638 1.9224845 -2.5022875e+38
2.3017025 -0.071593039 1.9224845 -2.51558e+38
2.301693 -0.075619698 1.9224845 -2.5155804e+38
2.3016834 -0.079646349 1.9224845 -2.5156325e+38
2.3146737 -0.0837657 1.9266818 -2.5422173e+38
2.3146641 -0.087817118 1.9266818 -2.5555621e+38
2.3146546 -0.091868535 1.9266818 -2.568855e+38
2.3146451 -0.095919952 1.9266818 -2.5821994e+38
2.327635 -0.10016311 1.9308789 -2.6087842e+38
2.3276253 -0.10423929 1.9308789 -2.6355764e+38
2.3276157 -0.10831547 1.9308789 -2.6491285e+38
2.3406055 -0.11265767 1.935076 -2.6626289e+38
2.3545949 -0.11707177 1.9395959 -2.662837e+38
2.3815837 -0.12185475 1.9483131 -2.6492853e+38
2.4105721 -0.12679294 1.9576759 -2.6757143e+38
2.4245613 -0.13142037 1.9621959 -2.7020901e+38
2.4395502 -0.13613114 1.9670389 -2.5554589e+38
2.4395401 -0.14042065 1.9670389 -2.3964742e+38
2.424531 -0.1442032 1.9621959 -3.1700262e+38
2.4395196 -0.14899966 1.9670389 nan
2.4395096 -0.15328917 1.9670389 nan
2.4394891 -0.16186821 1.9670389 nan
2.2882097 -0.2796731 1.9182874 nan
2.2882001 -0.28367501 1.9182874 nan
2.2888258 -0.019550014 1.9142854 -2.8605016e+38
2.3018169 -0.023273174 1.9184579 -2.1557011e+38
2.3018074 -0.027299829 1.9184579 -2.302593e+38
2.3017979 -0.031326484 1.9184579 -2.4624632e+38
2.3017883 -0.035353139 1.9184579 -2.4889433e+38
2.3017788 -0.039379798 1.9184579 -2.5021835e+38
2.3017693 -0.043406449 1.9184579 -2.4888908e+38
2.3017597 -0.047433104 1.9184579 -2.4757022e+38
2.3017502 -0.051459759 1.9184579 -2.4624097e+38
2.3017406 -0.055486415 1.9184579 -2.4623584e+38
2.3017311 -0.059513073 1.9184579 -2.4624109e+38
2.3017216 -0.063539729 1.9184579 -2.475651e+38
2.301712 -0.06756638 1.9184579 -2.4756506e+38
2.2887025 -0.071574628 1.9142854 -2.4889433e+38
2.301693 -0.075619698 1.9184579 -2.5022877e+38
2.3016834 -0.079646349 1.9184579 -2.5156321e+38
2.3016739 -0.083673008 1.9184579 -2.5422169e+38
2.3146641 -0.087817118 1.9226303 -2.5688542e+38
2.3016548 -0.091726318 1.9184579 -2.5820952e+38
2.3146451 -0.095919952 1.9226303 -2.5954394e+38
2.3146353 -0.099971369 1.9226303 -2.6088355e+38
2.3276253 -0.10423929 1.9268026 -2.6222837e+38
2.3276157 -0.10831547 1.9268026 -2.6357839e+38
2.3406055 -0.11265767 1.930975 -2.6359401e+38
2.3405957 -0.11675861 1.930975 -2.6359924e+38
2.3815837 -0.12185475 1.944134 -2.6357851e+38
2.4245713 -0.12715945 1.9579351 -2.6490257e+38
2.4395604 -0.13184161 1.9627492 -2.6755577e+38
2.4395502 -0.13613114 1.9627492 -2.4224844e+38
2.4395401 -0.14042065 1.9627492 -2.1826035e+38
2.4395299 -0.14471015 1.9627492 -2.9694993e+38
2.4395196 -0.14899966 1.9627492 nan
2.4395096 -0.15328917 1.9627492 nan
2.4394994 -0.15757869 1.9627492 nan
2.288219 -0.27567121 1.9142854 nan
2.2882097 -0.2796731 1.9142854 nan
2.2882001 -0.28367501 1.9142854 nan
2.238934 0.026162572 1.8943312 nan
2.2389247 0.022255912 1.8943312 nan
2.2888258 -0.019550014 1.9102836 -3.2442146e+38
2.2888162 -0.023551907 1.9102836 -2.1290658e+38
2.3018074 -0.027299829 1.9144312 -2.3162489e+38
2.3017979 -0.031326484 1.9144312 -2.502236e+38
2.3017883 -0.035353139 1.9144312 -2.5153717e+38
2.3017788 -0.039379798 1.9144312 -2.5154232e+38
2.3017693 -0.043406449 1.9144312 -2.5021827e+38
2.3017597 -0.047433104 1.9144312 -2.47565e+38
2.3017502 -0.051459759 1.9144312 -2.47565e+38
2.3017406 -0.055486415 1.9144312 -2.4756502e+38
2.3017311 -0.059513073 1.9144312 -2.4757026e+38
2.3017216 -0.063539729 1.9144312 -2.4623584e+38
2.288712 -0.067572735 1.9102836 -2.4623066e+38
2.2887025 -0.071574628 1.9102836 -2.4623588e+38
2.301693 -0.075619698 1.9144312 -2.4889437e+38
2.3016834 -0.079646349 1.9144312 -2.5022362e+38
2.3146737 -0.0837657 1.9185789 -2.5421133e+38
2.3146641 -0.087817118 1.9185789 -2.5687503e+38
2.3016548 -0.091726318 1.9144312 -2.5819911e+38
2.3146451 -0.095919952 1.9185789 -2.5953872e+38
2.327635 -0.10016311 1.9227264 -2.6087316e+38
2.3276253 -0.10423929 1.9227264 -2.6089915e+38
2.3406153 -0.10855673 1.926874 -2.6090957e+38
2.3406055 -0.11265767 1.926874 -2.6093038e+38
2.3405957 -0.11675861 1.926874 -2.6227523e+38
2.4105821 -0.12255867 1.9492073 -2.6225446e+38
2.4245713 -0.12715945 1.9536741 -2.6356813e+38
2.4395604 -0.13184161 1.9584599 -2.6355245e+38
2.4535489 -0.13655095 1.9629264 -2.3028013e+38
2.4535387 -0.14086713 1.9629264 -1.9574651e+38
2.4535286 -0.14518331 1.9629264 -2.7694401e+38
2.4535184 -0.14949949 1.9629264 nan
2.4395096 -0.15328917 1.9584599 nan
2.4534979 -0.15813184 1.9629264 nan
2.4534876 -0.16244802 1.9629264 nan
2.2882097 -0.2796731 1.9102836 nan
2.2882001 -0.28367501 1.9102836 nan
2.250926 0.022787489 1.8942302 nan
2.2758343 -0.015876375 1.9021587 nan
2.2888258 -0.019550014 1.9062817 -3.1140977e+38
2.2888162 -0.023551907 1.9062817 -2.2622495e+38
2.3018074 -0.027299829 1.9104044 -2.3824509e+38
2.2887971 -0.031555694 1.9062817 -2.5154764e+38
2.2887878 -0.03555759 1.9062817 -2.5021307e+38
2.3017788 -0.039379798 1.9104044 -2.4888383e+38
2.3017693 -0.043406449 1.9104044 -2.4888381e+38
2.3017597 -0.047433104 1.9104044 -2.4888902e+38
2.3017502 -0.051459759 1.9104044 -2.4756498e+38
2.3017406 -0.055486415 1.9104044 -2.47565e+38
2.3017311 -0.059513073 1.9104044 -2.47565e+38
2.3017216 -0.063539729 1.9104044 -2.4755985e+38
2.288712 -0.067572735 1.9062817 -2.4623066e+38
2.2887025 -0.071574628 1.9062817 -2.462359e+38
2.288693 -0.075576529 1.9062817 -2.4755995e+38
2.3016834 -0.079646349 1.9104044 -2.4888922e+38
2.3016739 -0.083673008 1.9104044 -2.5287173e+38
2.3016644 -0.087699667 1.9104044 -2.5686465e+38
2.3016548 -0.091726318 1.9104044 -2.5686986e+38
2.3146451 -0.095919952 1.9145274 -2.582043e+38
2.3146353 -0.099971369 1.9145274 -2.5821988e+38
2.3276253 -0.10423929 1.9186503 -2.5957513e+38
2.3276157 -0.10831547 1.9186503 -2.5957517e+38
2.327606 -0.11239165 1.9186503 -2.5959079e+38
2.3405957 -0.11675861 1.9227731 -2.6093042e+38
2.4105821 -0.12255867 1.9449731 -2.6224926e+38
2.4245713 -0.12715945 1.9494131 -2.6092004e+38
2.4535592 -0.13223478 1.9586103 -2.6090953e+38
2.4535489 -0.13655095 1.9586103 -2.3562811e+38
2.4535387 -0.14086713 1.9586103 -2.1168165e+38
2.4535286 -0.14518331 1.9586103 -2.6896864e+38
2.4535184 -0.14949949 1.9586103 -3.2764699e+38
2.4535081 -0.15381566 1.9586103 nan
2.4534979 -0.15813184 1.9586103 nan
2.4534876 -0.16244802 1.9586103 nan
2.2882097 -0.2796731 1.9062817 nan
2.2882001 -0.28367501 1.9062817 nan
2.2758436 -0.01189924 1.8981817 nan
2.2758343 -0.015876375 1.8981817 nan
2.2758248 -0.019853506 1.8981817 -2.9801366e+38
2.2888162 -0.023551907 1.9022799 -2.3820355e+38
2.2888067 -0.0275538 1.9022799 -2.4623083e+38
2.2887971 -0.031555694 1.9022799 -2.5287167e+38
2.2887878 -0.03555759 1.9022799 -2.5020792e+38
2.2887783 -0.039559484 1.9022799 -2.4622539e+38
2.3017693 -0.043406449 1.9063778 -2.4754941e+38
2.3017597 -0.047433104 1.9063778 -2.4888383e+38
2.3017502 -0.051459759 1.9063778 -2.4888902e+38
2.3017406 -0.055486415 1.9063778 -2.4755979e+38
2.3017311 -0.059513073 1.9063778 -2.475546e+38
2.3017216 -0.063539729 1.9063778 -2.4755464e+38
2.288712 -0.067572735 1.9022799 -2.4622545e+38
2.2887025 -0.071574628 1.9022799 -2.4490146e+38
2.288693 -0.075576529 1.9022799 -2.4622553e+38
2.3016834 -0.079646349 1.9063778 -2.4754959e+38
2.3016739 -0.083673008 1.9063778 -2.5152172e+38
2.3146641 -0.087817118 1.910476 -2.5553019e+38
2.3016548 -0.091726318 1.9063778 -2.5553023e+38
2.3146451 -0.095919952 1.910476 -2.5554063e+38
2.3146353 -0.099971369 1.910476 -2.5687507e+38
2.3276253 -0.10423929 1.914574 -2.5821992e+38
2.3276157 -0.10831547 1.914574 -2.5821994e+38
2.3406055 -0.11265767 1.9186721 -2.5825109e+38
2.3405957 -0.11675861 1.9186721 -2.6093553e+38
2.3815837 -0.12185475 1.931597 -2.6225957e+38
2.4105721 -0.12679294 1.9407388 -2.5960632e+38
2.4395604 -0.13184161 1.9498807 -2.5692708e+38
2.4535489 -0.13655095 1.9542941 -2.4229515e+38
2.4535387 -0.14086713 1.9542941 -2.2633415e+38
2.4535286 -0.14518331 1.9542941 -2.6226498e+38
2.4535184 -0.14949949 1.9542941 -2.9837264e+38
2.4535081 -0.15381566 1.9542941 nan
2.4534979 -0.15813184 1.9542941 nan
2.4534876 -0.16244802 1.9542941 nan
2.2882097 -0.2796731 1.9022799 nan
2.2882001 -0.28367501 1.9022799 nan
2.2758436 -0.01189924 1.8942046 -3.3556038e+38
2.2758343 -0.015876375 1.8942046 -3.1025773e+38
2.2758248 -0.019853506 1.8942046 -2.794668e+38
2.2888162 -0.023551907 1.8982779 -2.4880103e+38
2.2888067 -0.0275538 1.8982779 -2.5019251e+38
2.2887971 -0.031555694 1.8982779 -2.5286129e+38
2.2887878 -0.03555759 1.8982779 -2.5021313e+38
2.2887783 -0.039559484 1.8982779 -2.4755464e+38
2.2887688 -0.043561377 1.8982779 -2.475546e+38
2.2887592 -0.04756327 1.8982779 -2.4888383e+38
2.3017502 -0.051459759 1.9023511 -2.4888381e+38
2.3017406 -0.055486415 1.9023511 -2.4755458e+38
2.3017311 -0.059513073 1.9023511 -2.4755456e+38
2.3017216 -0.063539729 1.9023511 -2.4755462e+38
2.288712 -0.067572735 1.8982779 -2.4622543e+38
2.2887025 -0.071574628 1.8982779 -2.4489626e+38
2.288693 -0.075576529 1.8982779 -2.4489111e+38
2.3016834 -0.079646349 1.9023511 -2.4621517e+38
2.3016739 -0.083673008 1.9023511 -2.4887882e+38
2.3146641 -0.087817118 1.9064245 -2.5154768e+38
2.3016548 -0.091726318 1.9023511 -2.515425e+38
2.3146451 -0.095919952 1.9064245 -2.5287697e+38
2.3146353 -0.099971369 1.9064245 -2.5421662e+38
2.3276253 -0.10423929 1.9104979 -2.5688548e+38
2.3406153 -0.10855673 1.9145713 -2.582199e+38
2.3406055 -0.11265767 1.9145713 -2.6090949e+38
2.3405957 -0.11675861 1.9145713 -2.6225427e+38
2.3955832 -0.12219457 1.9318045 -2.6358873e+38
2.4245713 -0.12715945 1.9408913 -2.5959588e+38
2.4535592 -0.13223478 1.9499779 -2.5692191e+38
2.4535489 -0.13655095 1.9499779 -2.4760699e+38
2.4535387 -0.14086713 1.9499779 -2.3961071e+38
2.4535286 -0.14518331 1.9499779 -2.4897228e+38
2.4535184 -0.14949949 1.9499779 -2.5976254e+38
2.4535081 -0.15381566 1.9499779 -3.3975573e+38
2.4534979 -0.15813184 1.9499779 nan
2.4534876 -0.16244802 1.9499779 nan
2.2882097 -0.2796731 1.8982779 nan
2.2882001 -0.28367501 1.8982779 nan
2.2638619 -0.0043165609 1.8864902 -3.1946898e+38
2.2758436 -0.01189924 1.8902273 -2.9150303e+38
2.2758343 -0.015876375 1.8902273 -2.6357338e+38
2.2888258 -0.019550014 1.8942759 -2.6212447e+38
2.2888162 -0.023551907 1.8942759 -2.5948153e+38
2.2888067 -0.0275538 1.8942759 -2.5552496e+38
2.2887971 -0.031555694 1.8942759 -2.515424e+38
2.2887878 -0.03555759 1.8942759 -2.5021833e+38
2.2887783 -0.039559484 1.8942759 -2.4755983e+38
2.2887688 -0.043561377 1.8942759 -2.4888385e+38
2.2887592 -0.04756327 1.8942759 -2.4888383e+38
2.2887499 -0.051565163 1.8942759 -2.4888383e+38
2.2887404 -0.055567056 1.8942759 -2.475546e+38
2.3017311 -0.059513073 1.8983245 -2.475546e+38
2.3017216 -0.063539729 1.8983245 -2.4622539e+38
2.288712 -0.067572735 1.8942759 -2.4489101e+38
2.2887025 -0.071574628 1.8942759 -2.435618e+38
2.288693 -0.075576529 1.8942759 -2.4489105e+38
2.2886834 -0.079578415 1.8942759 -2.4489107e+38
2.3016739 -0.083673008 1.8983245 -2.4622032e+38
2.3016644 -0.087699667 1.8983245 -2.4622034e+38
2.3016548 -0.091726318 1.8983245 -2.4887362e+38
2.3146451 -0.095919952 1.9023731 -2.5021328e+38
2.3146353 -0.099971369 1.9023731 -2.5288216e+38
2.3276253 -0.10423929 1.9064217 -2.5421662e+38
2.3276157 -0.10831547 1.9064217 -2.5952319e+38
2.327606 -0.11239165 1.9064217 -2.6355241e+38
2.3405957 -0.11675861 1.9104702 -2.6357839e+38
2.3545852 -0.12119938 1.9148302 -2.635836e+38
2.4245713 -0.12715945 1.9366302 -2.6092519e+38
2.4535592 -0.13223478 1.9456617 -2.5692716e+38
2.4535489 -0.13655095 1.9456617 -2.5425836e+38
2.4535387 -0.14086713 1.9456617 -2.5157893e+38
2.4535286 -0.14518331 1.9456617 -2.3557088e+38
2.4535184 -0.14949949 1.9456617 -2.1980771e+38
2.4535081 -0.15381566 1.9456617 -3.2120875e+38
2.4684966 -0.15872452 1.9503331 nan
2.4684863 -0.16306926 1.9503331 nan
2.3011971 -0.28500578 1.8983245 nan
2.2508702 -0.00078959018 1.8785121 -2.795242e+38
2.2638619 -0.0043165609 1.8825359 -2.8083268e+38
2.2638526 -0.0082708374 1.8825359 -2.821876e+38
2.2638433 -0.012225106 1.8825359 -2.7018275e+38
2.2758343 -0.015876375 1.8862503 -2.5951781e+38
2.2758248 -0.019853506 1.8862503 -2.5816786e+38
2.2758155 -0.023830637 1.8862503 -2.5551455e+38
2.2888067 -0.0275538 1.890274 -2.5153721e+38
2.2887971 -0.031555694 1.890274 -2.4888393e+38
2.2887878 -0.03555759 1.890274 -2.4755985e+38
2.2887783 -0.039559484 1.890274 -2.4623579e+38
2.2887688 -0.043561377 1.890274 -2.4622539e+38
2.2887592 -0.04756327 1.890274 -2.4754943e+38
2.2887499 -0.051565163 1.890274 -2.4754943e+38
2.2887404 -0.055567056 1.890274 -2.4887346e+38
2.3017311 -0.059513073 1.8942978 -2.4754943e+38
2.3017216 -0.063539729 1.8942978 -2.4754945e+38
2.288712 -0.067572735 1.890274 -2.4622022e+38
2.2887025 -0.071574628 1.890274 -2.448858e+38
2.288693 -0.075576529 1.890274 -2.448858e+38
2.2886834 -0.079578415 1.890274 -2.4488582e+38
2.3016739 -0.083673008 1.8942978 -2.4488584e+38
2.3016644 -0.087699667 1.8942978 -2.462203e+38
2.3016548 -0.091726318 1.8942978 -2.4754955e+38
2.3276446 -0.096086934 1.9023454 -2.4888401e+38
2.327635 -0.10016311 1.9023454 -2.5154768e+38
2.3276253 -0.10423929 1.9023454 -2.5421141e+38
2.3276157 -0.10831547 1.9023454 -2.5820434e+38
2.327606 -0.11239165 1.9023454 -2.6221803e+38
2.3405957 -0.11675861 1.9063692 -2.6223365e+38
2.3545852 -0.12119938 1.9107027 -2.6225446e+38
2.4245713 -0.12715945 1.9323692 -2.582616e+38
2.4535592 -0.13223478 1.9413455 -2.5559797e+38
2.4535489 -0.13655095 1.9413455 -2.5559799e+38
2.4535387 -0.14086713 1.9413455 -2.5693215e+38
2.4535286 -0.14518331 1.9413455 -2.4221692e+38
2.4535184 -0.14949949 1.9413455 -2.27513e+38
2.4535081 -0.15381566 1.9413455 -3.1834769e+38
2.4684966 -0.15872452 1.9459884 nan
2.4684863 -0.16306926 1.9459884 nan
2.2638619 -0.0043165609 1.8785816 -2.4213926e+38
2.2638526 -0.0082708374 1.8785816 -2.4354635e+38
2.2758436 -0.01189924 1.8822731 -2.5017689e+38
2.2758343 -0.015876375 1.8822731 -2.5551457e+38
2.2758248 -0.019853506 1.8822731 -2.5418534e+38
2.2758155 -0.023830637 1.8822731 -2.5153204e+38
2.275806 -0.027807768 1.8822731 -2.4887873e+38
2.2757967 -0.031784903 1.8822731 -2.4489622e+38
2.2887878 -0.03555759 1.8862722 -2.4489101e+38
2.2887783 -0.039559484 1.8862722 -2.448962e+38
2.2887688 -0.043561377 1.8862722 -2.4489101e+38
2.2887592 -0.04756327 1.8862722 -2.4489099e+38
2.2887499 -0.051565163 1.8862722 -2.4754425e+38
2.2887404 -0.055567056 1.8862722 -2.4887348e+38
2.2887309 -0.059568949 1.8862722 -2.4887867e+38
2.3017216 -0.063539729 1.8902712 -2.4754425e+38
2.288712 -0.067572735 1.8862722 -2.4621505e+38
2.2887025 -0.071574628 1.8862722 -2.4488582e+38
2.288693 -0.075576529 1.8862722 -2.4488065e+38
2.2886834 -0.079578415 1.8862722 -2.4488065e+38
2.3016739 -0.083673008 1.8902712 -2.4488065e+38
2.3016644 -0.087699667 1.8902712 -2.4488586e+38
2.3016548 -0.091726318 1.8902712 -2.4621511e+38
2.3276446 -0.096086934 1.8982693 -2.4622551e+38
2.3146353 -0.099971369 1.8942702 -2.5021322e+38
2.3276253 -0.10423929 1.8982693 -2.5287695e+38
2.3276157 -0.10831547 1.8982693 -2.5686469e+38
2.3406055 -0.11265767 1.9022684 -2.5954396e+38
2.3545949 -0.11707177 1.906575 -2.5955438e+38
2.4535797 -0.12360242 1.9370294 -2.5958034e+38
2.4395704 -0.12755211 1.9327226 -2.5693229e+38
2.4535592 -0.13223478 1.9370294 -2.5294463e+38
2.4535489 -0.13655095 1.9370294 -2.5693231e+38
2.4535387 -0.14086713 1.9370294 -2.6088856e+38
2.4535286 -0.14518331 1.9370294 -2.4751813e+38
2.4535184 -0.14949949 1.9370294 -2.3430451e+38
2.4685071 -0.15437976 1.9416436 -3.1569455e+38
2.4684966 -0.15872452 1.9416436 nan
2.4684863 -0.16306926 1.9416436 nan
2.2508795 0.0031399205 1.8706532 -3.0473677e+38
2.2508702 -0.00078959018 1.8706532 -2.5803744e+38
2.2638619 -0.0043165609 1.8746274 -2.5545186e+38
2.2638526 -0.0082708374 1.8746274 -2.5284036e+38
2.2638433 -0.012225106 1.8746274 -2.5152174e+38
2.263834 -0.016179383 1.8746274 -2.5153729e+38
2.2758248 -0.019853506 1.8782959 -2.488788e+38
2.2758155 -0.023830637 1.8782959 -2.4622549e+38
2.2638059 -0.028042208 1.8746274 -2.4490139e+38
2.2757967 -0.031784903 1.8782959 -2.4490659e+38
2.2757871 -0.035762034 1.8782959 -2.448962e+38
2.2887783 -0.039559484 1.8822702 -2.4489103e+38
2.2887688 -0.043561377 1.8822702 -2.4622026e+38
2.2887592 -0.04756327 1.8822702 -2.4754949e+38
2.2887499 -0.051565163 1.8822702 -2.4754427e+38
2.2887404 -0.055567056 1.8822702 -2.4754427e+38
2.2887309 -0.059568949 1.8822702 -2.4754427e+38
2.2887213 -0.063570842 1.8822702 -2.4620985e+38
2.288712 -0.067572735 1.8822702 -2.4488582e+38
2.2887025 -0.071574628 1.8822702 -2.4489105e+38
2.288693 -0.075576529 1.8822702 -2.4355665e+38
2.2886834 -0.079578415 1.8822702 -2.4221702e+38
2.3016739 -0.083673008 1.8862445 -2.4355142e+38
2.3016644 -0.087699667 1.8862445 -2.4355661e+38
2.3016548 -0.091726318 1.8862445 -2.435618e+38
2.3146451 -0.095919952 1.8902187 -2.4489624e+38
2.3146353 -0.099971369 1.8902187 -2.4755472e+38
2.3146257 -0.10402279 1.8902187 -2.5154768e+38
2.3276157 -0.10831547 1.8941932 -2.5421139e+38
2.327606 -0.11239165 1.8941932 -2.582095e+38
2.3405957 -0.11675861 1.8981674 -2.5689586e+38
2.3685842 -0.12153921 1.9067273 -2.5691144e+38
2.4245713 -0.12715945 1.9238474 -2.5559779e+38
2.4395604 -0.13184161 1.9284332 -2.5294972e+38
2.4535489 -0.13655095 1.932713 -2.5692702e+38
2.4535387 -0.14086713 1.932713 -2.5956442e+38
2.4535286 -0.14518331 1.932713 -2.3557051e+38
2.4535184 -0.14949949 1.932713 -2.1162455e+38
2.4685071 -0.15437976 1.9372988 -2.9036665e+38
2.4684966 -0.15872452 1.9372988 nan
2.4684863 -0.16306926 1.9372988 nan
2.3402073 -0.28079626 1.8981674 nan
2.3272007 -0.28359118 1.8941932 nan
2.2508981 0.010998949 1.8667235 nan
2.2508888 0.0070694387 1.8667235 nan
2.2508795 0.0031399205 1.8667235 nan
2.2508702 -0.00078959018 1.8667235 -2.7549439e+38
2.2508609 -0.0047191083 1.8667235 -2.687961e+38
2.2638526 -0.0082708374 1.8706732 -2.6215534e+38
2.2638433 -0.012225106 1.8706732 -2.5419575e+38
2.263834 -0.016179383 1.8706732 -2.4622036e+38
2.2758248 -0.019853506 1.8743188 -2.435619e+38
2.2638152 -0.024087932 1.8706732 -2.4090858e+38
2.2638059 -0.028042208 1.8706732 -2.4224296e+38
2.2757967 -0.031784903 1.8743188 -2.4356699e+38
2.2757871 -0.035762034 1.8743188 -2.4357221e+38
2.2757778 -0.039739165 1.8743188 -2.435618e+38
2.2887688 -0.043561377 1.8782684 -2.4754427e+38
2.2887592 -0.04756327 1.8782684 -2.5020273e+38
2.2887499 -0.051565163 1.8782684 -2.4887352e+38
2.2887404 -0.055567056 1.8782684 -2.4621505e+38
2.2887309 -0.059568949 1.8782684 -2.4621505e+38
2.2887213 -0.063570842 1.8782684 -2.4488582e+38
2.288712 -0.067572735 1.8782684 -2.4488065e+38
2.2887025 -0.071574628 1.8782684 -2.4355663e+38
2.288693 -0.075576529 1.8782684 -2.4222742e+38
2.2886834 -0.079578415 1.8782684 -2.3956375e+38
2.3016739 -0.083673008 1.8822179 -2.4089296e+38
2.3016644 -0.087699667 1.8822179 -2.4222736e+38
2.3016548 -0.091726318 1.8822179 -2.4222736e+38
2.3146451 -0.095919952 1.8861674 -2.4223255e+38
2.3146353 -0.099971369 1.8861674 -2.4622024e+38
2.3146257 -0.10402279 1.8861674 -2.4888914e+38
2.3276157 -0.10831547 1.8901169 -2.528769e+38
2.327606 -0.11239165 1.8901169 -2.5554581e+38
2.3545949 -0.11707177 1.8983197 -2.5555625e+38
2.3815837 -0.12185475 1.9065226 -2.5424779e+38
2.4395704 -0.12755211 1.9241436 -2.5426337e+38
2.4535592 -0.13223478 1.9283969 -2.5293931e+38
2.4535489 -0.13655095 1.9283969 -2.5559256e+38
2.4535387 -0.14086713 1.9283969 -2.5820923e+38
2.4685276 -0.14569026 1.9329541 -2.2357118e+38
2.4685173 -0.15003501 1.9329541 -1.8908461e+38
2.4685071 -0.15437976 1.9329541 -2.637401e+38
2.4684966 -0.15872452 1.9329541 -3.3834842e+38
2.4844849 -0.1637319 1.937815 nan
2.3402073 -0.28079626 1.8940665 nan
2.3401976 -0.28489721 1.8940665 nan
2.251168 0.12495484 1.862794 -3.2626532e+38
2.2511587 0.12102532 1.862794 nan
2.2391467 0.11601565 1.8591712 nan
2.2391374 0.112109 1.8591712 nan
2.2391284 0.10820235 1.8591712 -3.3682645e+38
2.2388968 0.010535941 1.8591712 nan
2.2388878 0.0066292882 1.8591712 nan
2.2508795 0.0031399205 1.862794 nan
2.2508702 -0.00078959018 1.862794 -2.8351174e+38
2.2508609 -0.0047191083 1.862794 -2.7412342e+38
2.2508516 -0.0086486079 1.862794 -2.6613783e+38
2.2638433 -0.012225106 1.8667188 -2.5551455e+38
2.263834 -0.016179383 1.8667188 -2.4621517e+38
2.2758248 -0.019853506 1.8703417 -2.4489113e+38
2.2638152 -0.024087932 1.8667188 -2.4357225e+38
2.2638059 -0.028042208 1.8667188 -2.4489103e+38
2.2637963 -0.031996481 1.8667188 -2.4488069e+38
2.2757871 -0.035762034 1.8703417 -2.4489109e+38
2.2757778 -0.039739165 1.8703417 -2.4488586e+38
2.2887688 -0.043561377 1.8742664 -2.4621503e+38
2.2887592 -0.04756327 1.8742664 -2.4754427e+38
2.2887499 -0.051565163 1.8742664 -2.4621507e+38
2.2887404 -0.055567056 1.8742664 -2.4620987e+38
2.2887309 -0.059568949 1.8742664 -2.4488582e+38
2.2887213 -0.063570842 1.8742664 -2.4355661e+38
2.288712 -0.067572735 1.8742664 -2.4355661e+38
2.2887025 -0.071574628 1.8742664 -2.422274e+38
2.288693 -0.075576529 1.8742664 -2.4089817e+38
2.2886834 -0.079578415 1.8742664 -2.3956373e+38
2.2886741 -0.083580315 1.8742664 -2.3956371e+38
2.2886646 -0.087582208 1.8742664 -2.4089811e+38
2.3016548 -0.091726318 1.8781912 -2.4090329e+38
2.3146451 -0.095919952 1.882116 -2.4090846e+38
2.3146353 -0.099971369 1.882116 -2.4357209e+38
2.3146257 -0.10402279 1.882116 -2.4623062e+38
2.3276157 -0.10831547 1.8860407 -2.5021837e+38
2.327606 -0.11239165 1.8860407 -2.5420615e+38
2.3545949 -0.11707177 1.8941922 -2.5422181e+38
2.4245813 -0.1228985 1.9153254 -2.5556664e+38
2.4535694 -0.1279186 1.9240807 -2.5425299e+38
2.4535592 -0.13223478 1.9240807 -2.5427371e+38
2.4535489 -0.13655095 1.9240807 -2.5558211e+38
2.4535387 -0.14086713 1.9240807 -2.5821442e+38
2.4685276 -0.14569026 1.9286094 -2.3423102e+38
2.4685173 -0.15003501 1.9286094 -2.1159821e+38
2.4685071 -0.15437976 1.9286094 -2.5698448e+38
2.4684966 -0.15872452 1.9286094 -3.0366889e+38
2.4844849 -0.1637319 1.9334397 nan
2.3682103 -0.27940163 1.8984189 nan
2.3402073 -0.28079626 1.8899655 nan
2.3401976 -0.28489721 1.8899655 nan
2.2511773 0.12888435 1.8588645 -3.0617601e+38
2.251168 0.12495484 1.8588645 -2.8759284e+38
2.2511587 0.12102532 1.8588645 -3.18134e+38
2.2391467 0.11601565 1.8552645 nan
2.2511401 0.11316629 1.8588645 -3.2881437e+38
2.2391284 0.10820235 1.8552645 -3.0888637e+38
2.2391191 0.10429569 1.8552645 -3.2488907e+38
2.2389061 0.0144426 1.8552645 nan
2.2388968 0.010535941 1.8552645 nan
2.2508888 0.0070694387 1.8588645 nan
2.2508795 0.0031399205 1.8588645 nan
2.2508702 -0.00078959018 1.8588645 -2.9149222e+38
2.2508609 -0.0047191083 1.8588645 -2.8071252e+38
2.2508516 -0.0086486079 1.8588645 -2.6878592e+38
2.2508423 -0.012578126 1.8588645 -2.5817297e+38
2.263834 -0.016179383 1.8627646 -2.4621511e+38
2.2638245 -0.020133656 1.8627646 -2.462203e+38
2.2638152 -0.024087932 1.8627646 -2.4622026e+38
2.2638059 -0.028042208 1.8627646 -2.4621505e+38
2.2637963 -0.031996481 1.8627646 -2.4621507e+38
2.2757871 -0.035762034 1.8663645 -2.4621509e+38
2.2757778 -0.039739165 1.8663645 -2.4488582e+38
2.2887688 -0.043561377 1.8702645 -2.448858e+38
2.2887592 -0.04756327 1.8702645 -2.4355659e+38
2.2887499 -0.051565163 1.8702645 -2.4489103e+38
2.2887404 -0.055567056 1.8702645 -2.4489103e+38
2.2887309 -0.059568949 1.8702645 -2.4356699e+38
2.2887213 -0.063570842 1.8702645 -2.4222738e+38
2.2757118 -0.067579091 1.8663645 -2.4222738e+38
2.2887025 -0.071574628 1.8702645 -2.4089815e+38
2.288693 -0.075576529 1.8702645 -2.4089296e+38
2.2886834 -0.079578415 1.8702645 -2.3956371e+38
2.2886741 -0.083580315 1.8702645 -2.3955852e+38
2.3016644 -0.087699667 1.8741646 -2.3824485e+38
2.3016548 -0.091726318 1.8741646 -2.3825004e+38
2.3146451 -0.095919952 1.8780645 -2.3825521e+38
2.3146353 -0.099971369 1.8780645 -2.4091884e+38
2.3146257 -0.10402279 1.8780645 -2.4224294e+38
2.3146162 -0.1080742 1.8780645 -2.4754955e+38
2.3406055 -0.11265767 1.8858645 -2.5154768e+38
2.3545949 -0.11707177 1.8900645 -2.5421658e+38
2.4245813 -0.1228985 1.9110645 -2.5555619e+38
2.4535694 -0.1279186 1.9197645 -2.5556658e+38
2.4535592 -0.13223478 1.9197645 -2.5558211e+38
2.4535489 -0.13655095 1.9197645 -2.5689574e+38
2.4685378 -0.14134552 1.9242646 -2.5687489e+38
2.4685276 -0.14569026 1.9242646 -2.4487541e+38
2.4685173 -0.15003501 1.9242646 -2.3292291e+38
2.4685071 -0.15437976 1.9242646 -2.5026015e+38
2.4684966 -0.15872452 1.9242646 -2.6770154e+38
2.4844849 -0.1637319 1.9290645 -3.2243399e+38
2.4994729 -0.16875695 1.9335645 nan
2.3812273 -0.27230006 1.8981645 nan
2.3682203 -0.27524737 1.8942645 nan
2.3542137 -0.27804849 1.8900645 nan
2.3402073 -0.28079626 1.8858645 nan
2.3401976 -0.28489721 1.8858645 nan
2.2641897 0.13408306 1.8588102 -2.8487685e+38
2.2511773 0.12888435 1.8549349 -2.7286181e+38
2.251168 0.12495484 1.8549349 -2.6093016e+38
2.2511587 0.12102532 1.8549349 -2.8086361e+38
2.2511494 0.11709581 1.8549349 -3.0086415e+38
2.2511401 0.11316629 1.8549349 -2.9286264e+38
2.2391284 0.10820235 1.8513579 -2.8355283e+38
2.2391191 0.10429569 1.8513579 -2.9817951e+38
2.2391098 0.10038903 1.8513579 -3.1279595e+38
2.2391005 0.096482374 1.8513579 -3.1147202e+38
2.2390912 0.092575721 1.8513579 -3.1015845e+38
2.2510843 0.089589216 1.8549349 -3.021572e+38
2.251075 0.085659705 1.8549349 -2.9427044e+38
2.2510657 0.081730194 1.8549349 -2.9690845e+38
2.2510564 0.077800684 1.8549349 -3.0095297e+38
2.2390356 0.069135778 1.8513579 -3.1153526e+38
2.2390265 0.065229125 1.8513579 -3.2627166e+38
2.2269325 0.025608137 1.8477807 nan
2.2269232 0.021724336 1.8477807 nan
2.2269142 0.017840542 1.8477807 nan
2.2389061 0.0144426 1.8513579 -3.3435094e+38
2.2388968 0.010535941 1.8513579 -3.316146e+38
2.2388878 0.0066292882 1.8513579 -3.2899186e+38
2.2508795 0.0031399205 1.8549349 -2.9287881e+38
2.2508702 -0.00078959018 1.8549349 -2.5695298e+38
2.2508609 -0.0047191083 1.8549349 -2.5818321e+38
2.2508516 -0.0086486079 1.8549349 -2.5815729e+38
2.2508423 -0.012578126 1.8549349 -2.5152677e+38
2.250833 -0.01650764 1.8549349 -2.4621505e+38
2.2638245 -0.020133656 1.8588102 -2.4621503e+38
2.2508144 -0.024366666 1.8549349 -2.4620983e+38
2.2508051 -0.02829618 1.8549349 -2.4621503e+38
2.2637963 -0.031996481 1.8588102 -2.4621503e+38
2.263787 -0.035950758 1.8588102 -2.448858e+38
2.2757778 -0.039739165 1.8623874 -2.448858e+38
2.2887688 -0.043561377 1.8662627 -2.4355657e+38
2.2887592 -0.04756327 1.8662627 -2.4355659e+38
2.2887499 -0.051565163 1.8662627 -2.4356178e+38
2.2887404 -0.055567056 1.8662627 -2.4356699e+38
2.2887309 -0.059568949 1.8662627 -2.435618e+38
2.2887213 -0.063570842 1.8662627 -2.4222219e+38
2.2757118 -0.067579091 1.8623874 -2.4089294e+38
2.2887025 -0.071574628 1.8662627 -2.4089294e+38
2.288693 -0.075576529 1.8662627 -2.3956891e+38
2.2886834 -0.079578415 1.8662627 -2.3824487e+38
2.2886741 -0.083580315 1.8662627 -2.3824485e+38
2.3016644 -0.087699667 1.8701379 -2.3825525e+38
2.3016548 -0.091726318 1.8701379 -2.3825006e+38
2.3016453 -0.095752969 1.8701379 -2.3825004e+38
2.3016357 -0.099779628 1.8701379 -2.3958444e+38
2.3146257 -0.10402279 1.8740132 -2.4091892e+38
2.3016167 -0.10783294 1.8701379 -2.4490148e+38
2.3406055 -0.11265767 1.8817636 -2.5021843e+38
2.3545949 -0.11707177 1.885937 -2.5288212e+38
2.4395807 -0.12326259 1.911275 -2.5554057e+38
2.4685688 -0.12831126 1.9199197 -2.555769e+38
2.4685583 -0.13265601 1.9199197 -2.5558726e+38
2.4685481 -0.13700077 1.9199197 -2.568957e+38
2.4685378 -0.14134552 1.9199197 -2.5819899e+38
2.4685276 -0.14569026 1.9199197 -2.5153729e+38
2.4685173 -0.15003501 1.9199197 -2.448859e+38
2.4685071 -0.15437976 1.9199197 -2.4889946e+38
2.4684966 -0.15872452 1.9199197 -2.5291875e+38
2.4684863 -0.16306926 1.9199197 -3.1701291e+38
2.4844747 -0.16810715 1.9246893 nan
2.4844642 -0.17248237 1.9246893 nan
2.3812373 -0.268121 1.8939855 nan
2.3812273 -0.27230006 1.8939855 nan
2.3682203 -0.27524737 1.8901103 nan
2.3542137 -0.27804849 1.885937 nan
2.3402073 -0.28079626 1.8817636 nan
2.3401976 -0.28489721 1.8817636 nan
