# .PCD v0.7 - Point Cloud Data file format
VERSION 0.7
FIELDS x y z rgb
SIZE 4 4 4 4
TYPE F F F F
COUNT 1 1 1 1
WIDTH 1146
HEIGHT 1
VIEWPOINT 0 0 0 1 0 0 0
POINTS 1146
DATA ascii
4.1856995 -0.73001516 1.8529911 -2.4618888e+38
4.1856813 -0.73763025 1.8529911 -2.4618365e+38
4.1856632 -0.74524558 1.8529911 -2.4485381e+38
4.1856446 -0.75286078 1.8529911 -2.0747903e+38
4.1856265 -0.76047599 1.8529911 -1.7016854e+38
4.1856084 -0.7680912 1.8529911 -3.15684e+38
4.1396093 -0.76757872 1.8459378 nan
4.1395912 -0.77510631 1.8459378 nan
4.1395731 -0.7826339 1.8459378 nan
4.139555 -0.79016149 1.8459378 -2.9807504e+38
4.2808871 -0.65216088 1.8597617 nan
4.2328849 -0.65303028 1.852493 nan
4.2328663 -0.66073501 1.852493 nan
4.1858644 -0.66147816 1.845376 -2.8863051e+38
4.1858463 -0.66909337 1.845376 -2.3687911e+38
4.1398444 -0.66971993 1.8384103 -2.5024429e+38
4.1858096 -0.68432379 1.845376 -2.6352095e+38
4.185791 -0.691939 1.845376 -2.581884e+38
4.1857729 -0.6995542 1.845376 -2.5285587e+38
4.1857548 -0.70716941 1.845376 -2.5018699e+38
4.1857362 -0.71478462 1.845376 -2.475233e+38
4.1857181 -0.72239983 1.845376 -2.4751807e+38
4.1856995 -0.73001516 1.845376 -2.4618353e+38
4.1856813 -0.73763025 1.845376 -2.4617302e+38
4.1856632 -0.74524558 1.845376 -2.4607928e+38
4.1396637 -0.74499583 1.8384103 -2.0868924e+38
4.1856265 -0.76047599 1.845376 -1.7040266e+38
4.1396275 -0.76005101 1.8384103 -3.3461564e+38
4.1396093 -0.76757872 1.8384103 nan
4.1395912 -0.77510631 1.8384103 nan
4.1395731 -0.7826339 1.8384103 -3.1953074e+38
4.2329035 -0.64532554 1.8447883 nan
4.2328849 -0.65303028 1.8447883 nan
4.2328663 -0.66073501 1.8447883 -3.1416187e+38
4.1858644 -0.66147816 1.8377607 -2.6879574e+38
4.1858463 -0.66909337 1.8377607 -2.2227308e+38
4.1398444 -0.66971993 1.8308825 -2.4091892e+38
4.1858096 -0.68432379 1.8377607 -2.5819885e+38
4.185791 -0.691939 1.8377607 -2.5552995e+38
4.1857729 -0.6995542 1.8377607 -2.5152143e+38
4.1857548 -0.70716941 1.8377607 -2.4885772e+38
4.1857362 -0.71478462 1.8377607 -2.4619921e+38
4.1857181 -0.72239983 1.8377607 -2.4618876e+38
4.1856995 -0.73001516 1.8377607 -2.4618336e+38
4.1856813 -0.73763025 1.8377607 -2.2751166e+38
4.1856632 -0.74524558 1.8377607 -2.0883501e+38
4.1856446 -0.75286078 1.8377607 -2.5140148e+38
4.1856265 -0.76047599 1.8377607 -2.9380326e+38
4.1856084 -0.7680912 1.8377607 nan
4.1855898 -0.77570641 1.8377607 nan
4.1855717 -0.78332162 1.8377607 nan
4.1395731 -0.7826339 1.8308825 -3.2457208e+38
4.2329221 -0.63762081 1.8370836 nan
4.2329035 -0.64532554 1.8370836 nan
4.2328849 -0.65303028 1.8370836 nan
4.1858826 -0.65386295 1.8301455 -2.875825e+38
4.1858644 -0.66147816 1.8301455 -2.4745061e+38
4.1398625 -0.66219234 1.823355 -2.0766218e+38
4.1398444 -0.66971993 1.823355 -2.3029554e+38
4.1398263 -0.67724752 1.823355 -2.5288196e+38
4.1398087 -0.68477511 1.823355 -2.5154226e+38
4.1397905 -0.6923027 1.823355 -2.501974e+38
4.1397724 -0.69983029 1.823355 -2.4752847e+38
4.1397543 -0.70735788 1.823355 -2.4486476e+38
4.1397362 -0.71488547 1.823355 -2.4617838e+38
4.1856995 -0.73001516 1.8301455 -2.4615215e+38
4.1856813 -0.73763025 1.8301455 -2.0886083e+38
4.1856632 -0.74524558 1.8301455 -1.7036042e+38
4.1856446 -0.75286078 1.8301455 -2.9428543e+38
4.1856265 -0.76047599 1.8301455 nan
4.1856084 -0.7680912 1.8301455 nan
4.1855898 -0.77570641 1.8301455 nan
4.1855717 -0.78332162 1.8301455 nan
4.1855531 -0.79093683 1.8301455 -3.3013321e+38
4.2329035 -0.64532554 1.8293788 nan
4.1859012 -0.64624774 1.8225303 nan
4.1858826 -0.65386295 1.8225303 -2.4101281e+38
4.1398807 -0.65466464 1.8158274 -2.3826584e+38
4.1398625 -0.66219234 1.8158274 -2.3562811e+38
4.1398444 -0.66971993 1.8158274 -2.4624632e+38
4.1398263 -0.67724752 1.8158274 -2.5554043e+38
4.1398087 -0.68477511 1.8158274 -2.528663e+38
4.1397905 -0.6923027 1.8158274 -2.5152141e+38
4.1397724 -0.69983029 1.8158274 -2.5018691e+38
4.1397543 -0.70735788 1.8158274 -2.4885245e+38
4.1857181 -0.72239983 1.8225303 -2.4617836e+38
4.1856995 -0.73001516 1.8225303 -2.4350921e+38
4.1856813 -0.73763025 1.8225303 -2.0880359e+38
4.1856632 -0.74524558 1.8225303 -1.7548554e+38
4.1856446 -0.75286078 1.8225303 -3.1565768e+38
4.2326069 -0.7686013 1.8293788 nan
4.2325883 -0.77630615 1.8293788 nan
4.1859012 -0.64624774 1.8149149 -3.2205931e+38
4.1858826 -0.65386295 1.8149149 -1.9442221e+38
4.1398807 -0.65466464 1.8082998 -2.2896648e+38
4.1398625 -0.66219234 1.8082998 -2.6353152e+38
4.1398444 -0.66971993 1.8082998 -2.6086779e+38
4.1398263 -0.67724752 1.8082998 -2.5819365e+38
4.1398087 -0.68477511 1.8082998 -2.5551435e+38
4.1397905 -0.6923027 1.8082998 -2.515266e+38
4.1397724 -0.69983029 1.8082998 -2.5152137e+38
4.1397543 -0.70735788 1.8082998 -2.5151095e+38
4.1857181 -0.72239983 1.8149149 -2.4617324e+38
4.1856995 -0.73001516 1.8149149 -2.3943851e+38
4.1856813 -0.73763025 1.8149149 -2.1001863e+38
4.1856632 -0.74524558 1.8149149 -1.7976429e+38
4.1856446 -0.75286078 1.8149149 -3.3731533e+38
4.2326069 -0.7686013 1.8216741 nan
4.2325883 -0.77630615 1.8216741 nan
4.1859012 -0.64624774 1.8072997 -2.9551081e+38
4.1398988 -0.64713717 1.8007722 -1.9300978e+38
4.1398807 -0.65466464 1.8007722 -2.2761133e+38
4.1398625 -0.66219234 1.8007722 -2.6220229e+38
4.1398444 -0.66971993 1.8007722 -2.5953331e+38
4.1398263 -0.67724752 1.8007722 -2.5818325e+38
4.1398087 -0.68477511 1.8007722 -2.5419029e+38
4.1397905 -0.6923027 1.8007722 -2.5152662e+38
4.1397724 -0.69983029 1.8007722 -2.5285581e+38
4.1857362 -0.71478462 1.8072997 -2.5284543e+38
4.1857181 -0.72239983 1.8072997 -2.3417912e+38
4.1856995 -0.73001516 1.8072997 -2.1419362e+38
4.2326627 -0.74548709 1.8139694 -2.5277204e+38
4.2326441 -0.75319195 1.8139694 -2.9131592e+38
4.2326255 -0.76089656 1.8139694 nan
4.2326069 -0.7686013 1.8139694 nan
4.1399169 -0.63960946 1.7932446 -2.6720695e+38
4.1398988 -0.64713717 1.7932446 -1.9023653e+38
4.1398807 -0.65466464 1.7932446 -2.2625567e+38
4.1398625 -0.66219234 1.7932446 -2.6084158e+38
4.1398444 -0.66971993 1.7932446 -2.5953832e+38
4.1398263 -0.67724752 1.7932446 -2.5684871e+38
4.185791 -0.691939 1.7996845 -2.5419544e+38
4.1857729 -0.6995542 1.7996845 -2.515318e+38
4.1857548 -0.70716941 1.7996845 -2.52861e+38
4.1857362 -0.71478462 1.7996845 -2.5415364e+38
4.2326994 -0.73007762 1.8062645 -2.2217402e+38
4.2326813 -0.73778236 1.8062645 -1.8896967e+38
4.2806435 -0.75351107 1.8129845 -2.9688675e+38
4.2806249 -0.76130724 1.8129845 nan
4.2326255 -0.76089656 1.8062645 nan
4.329567 -0.78537071 1.8198445 nan
4.0949326 -0.63311565 1.7795026 nan
4.0949144 -0.64055753 1.7795026 -3.1107111e+38
4.0948968 -0.64799941 1.7795026 -2.8868219e+38
4.0948787 -0.65544128 1.7795026 -2.6613221e+38
4.094861 -0.66288316 1.7795026 -2.581466e+38
4.1398263 -0.67724752 1.7857169 -2.488317e+38
4.1398087 -0.68477511 1.7857169 -2.4885253e+38
4.1857729 -0.6995542 1.7920692 -2.4886293e+38
4.1857548 -0.70716941 1.7920692 -2.4753371e+38
4.232718 -0.72237289 1.7985598 -2.4487474e+38
4.2326994 -0.73007762 1.7985598 -2.3673791e+38
4.2806621 -0.7457149 1.8051884 -2.2864423e+38
4.2806435 -0.75351107 1.8051884 -3.3693068e+38
4.2806249 -0.76130724 1.8051884 nan
4.0949326 -0.63311565 1.7720606 nan
4.0949144 -0.64055753 1.7720606 nan
4.0948968 -0.64799941 1.7720606 nan
4.0948787 -0.65544128 1.7720606 -2.7148543e+38
4.094861 -0.66288316 1.7720606 -2.5675983e+38
4.1398263 -0.67724752 1.7781893 -2.4080406e+38
4.185791 -0.691939 1.7844541 -2.4352501e+38
4.1857729 -0.6995542 1.7844541 -2.4618357e+38
4.1857548 -0.70716941 1.7844541 -2.4087716e+38
4.232718 -0.72237289 1.7908549 -2.3549772e+38
4.2806811 -0.73791873 1.7973921 -2.5126652e+38
4.2806621 -0.7457149 1.7973921 -2.6757672e+38
4.2806435 -0.75351107 1.7973921 nan
4.2806249 -0.76130724 1.7973921 nan
4.0949326 -0.63311565 1.7646189 nan
4.0949144 -0.64055753 1.7646189 nan
4.0948968 -0.64799941 1.7646189 nan
4.0948787 -0.65544128 1.7646189 nan
4.094861 -0.66288316 1.7646189 -3.1264927e+38
4.1398263 -0.67724752 1.7706616 -2.6460523e+38
4.185791 -0.691939 1.7768388 -2.527359e+38
4.1857729 -0.6995542 1.7768388 -2.4215422e+38
4.2327366 -0.71466815 1.7831502 -2.5418498e+38
4.232718 -0.72237289 1.7831502 -2.6611179e+38
4.2806811 -0.73791873 1.789596 -2.7946126e+38
4.2806621 -0.7457149 1.789596 -2.9422945e+38
4.2806435 -0.75351107 1.789596 -3.3172431e+38
4.2806249 -0.76130724 1.789596 nan
4.1856446 -0.75286078 1.7768388 nan
4.0949326 -0.63311565 1.7571769 nan
4.0949144 -0.64055753 1.7571769 nan
4.0948968 -0.64799941 1.7571769 nan
4.0948787 -0.65544128 1.7571769 nan
4.094861 -0.66288316 1.7571769 nan
4.1398263 -0.67724752 1.763134 -2.8867708e+38
4.185791 -0.691939 1.7692236 -2.6332299e+38
4.1857729 -0.6995542 1.7692236 -2.3684788e+38
4.1857548 -0.70716941 1.7692236 -2.6760228e+38
4.232718 -0.72237289 1.7754455 -2.9685566e+38
4.2806811 -0.73791873 1.7817998 -3.0889658e+38
4.2806621 -0.7457149 1.7817998 -3.1945306e+38
4.2806435 -0.75351107 1.7817998 -2.8480543e+38
4.2806249 -0.76130724 1.7817998 -2.5032317e+38
4.2806058 -0.76910341 1.7817998 -2.2600742e+38
4.0949502 -0.62567377 1.749735 nan
4.0949326 -0.63311565 1.749735 nan
4.0949144 -0.64055753 1.749735 nan
4.0948968 -0.64799941 1.749735 nan
4.0948787 -0.65544128 1.749735 nan
4.094861 -0.66288316 1.749735 nan
4.1398263 -0.67724752 1.7556064 -2.9941514e+38
4.1398087 -0.68477511 1.7556064 -2.9137697e+38
4.1857729 -0.6995542 1.7616084 -2.8464317e+38
4.1857548 -0.70716941 1.7616084 -2.9146646e+38
4.232718 -0.72237289 1.7677407 -2.9828382e+38
4.2806811 -0.73791873 1.7740035 -3.2085981e+38
4.2806621 -0.7457149 1.7740035 nan
4.2806435 -0.75351107 1.7740035 -3.2872577e+38
4.2806249 -0.76130724 1.7740035 -3.1658063e+38
4.2806058 -0.76910341 1.7740035 -3.0329837e+38
4.1396093 -0.76757872 1.7556064 -2.7133485e+38
4.1395912 -0.77510631 1.7556064 -2.7013588e+38
4.1855531 -0.79093683 1.7616084 -2.6883746e+38
4.139555 -0.79016149 1.7556064 -2.2215315e+38
4.0949502 -0.62567377 1.7422931 nan
4.0949326 -0.63311565 1.7422931 nan
4.0949144 -0.64055753 1.7422931 nan
4.0948968 -0.64799941 1.7422931 nan
4.0948787 -0.65544128 1.7422931 nan
4.094861 -0.66288316 1.7422931 nan
4.1398263 -0.67724752 1.7480788 -3.1011664e+38
4.185791 -0.691939 1.753993 -3.2079166e+38
4.1857729 -0.6995542 1.753993 -3.3133219e+38
4.2327366 -0.71466815 1.760036 -3.1532452e+38
4.232718 -0.72237289 1.760036 -2.9952971e+38
4.2806811 -0.73791873 1.7662075 -3.3290596e+38
4.3296428 -0.75381267 1.7725074 nan
4.2806435 -0.75351107 1.7662075 nan
4.3296046 -0.76959169 1.7725074 nan
4.329586 -0.77748108 1.7725074 nan
4.3795466 -0.79401469 1.7789359 nan
4.2805686 -0.78469574 1.7662075 -3.3007025e+38
4.1855898 -0.77570641 1.753993 -2.8081631e+38
4.1855717 -0.78332162 1.753993 -2.7555152e+38
4.1855531 -0.79093683 1.753993 -2.6881669e+38
4.139555 -0.79016149 1.7480788 -2.2077194e+38
4.0945568 -0.78939521 1.7422931 -1.7175826e+38
4.051558 -0.78882992 1.7367646 -3.2261168e+38
4.0085592 -0.78810084 1.731236 nan
4.1399531 -0.62455428 1.7405512 nan
4.139935 -0.63208187 1.7405512 nan
4.1399169 -0.63960946 1.7405512 nan
4.0949144 -0.64055753 1.7348511 nan
4.0948968 -0.64799941 1.7348511 nan
4.0948787 -0.65544128 1.7348511 nan
4.094861 -0.66288316 1.7348511 nan
4.1398263 -0.67724752 1.7405512 -3.2740719e+38
4.185791 -0.691939 1.7463778 nan
4.1857729 -0.6995542 1.7463778 nan
4.2327366 -0.71466815 1.7523313 -3.3933832e+38
4.232718 -0.72237289 1.7523313 -3.2205363e+38
4.3296618 -0.74592316 1.7646179 nan
4.3796234 -0.76207566 1.7709513 nan
4.3296237 -0.76170218 1.7646179 nan
4.3795848 -0.77804518 1.7709513 nan
4.3795657 -0.78602993 1.7709513 nan
4.329567 -0.78537071 1.7646179 nan
4.2805686 -0.78469574 1.7584112 -3.3415718e+38
4.1855898 -0.77570641 1.7463778 -2.7821012e+38
4.1395912 -0.77510631 1.7405512 -2.755516e+38
4.1395731 -0.7826339 1.7405512 -2.7154784e+38
4.0945749 -0.78195333 1.7348511 -2.2216339e+38
4.0945568 -0.78939521 1.7348511 -1.7148293e+38
4.051558 -0.78882992 1.7294044 -3.144284e+38
4.0515404 -0.7961899 1.7294044 nan
4.0085421 -0.79537892 1.7239578 nan
4.1399531 -0.62455428 1.7330235 nan
4.139935 -0.63208187 1.7330235 nan
4.1399169 -0.63960946 1.7330235 nan
4.1398988 -0.64713717 1.7330235 nan
4.1398807 -0.65466464 1.7330235 nan
4.0948787 -0.65544128 1.7274092 nan
4.094861 -0.66288316 1.7274092 nan
4.1858096 -0.68432379 1.7387626 nan
4.185791 -0.691939 1.7387626 nan
4.1857729 -0.6995542 1.7387626 nan
4.1857548 -0.70716941 1.7387626 nan
4.232718 -0.72237289 1.7446264 nan
4.3296618 -0.74592316 1.7567284 nan
4.3296428 -0.75381267 1.7567284 nan
4.3296237 -0.76170218 1.7567284 nan
4.3795848 -0.77804518 1.7629664 nan
4.3795657 -0.78602993 1.7629664 nan
4.329567 -0.78537071 1.7567284 nan
4.2805686 -0.78469574 1.750615 -3.3941686e+38
4.1855898 -0.77570641 1.7387626 -2.755568e+38
4.1395912 -0.77510631 1.7330235 -2.755672e+38
4.1395731 -0.7826339 1.7330235 -2.7417524e+38
4.0945749 -0.78195333 1.7274092 -2.2352915e+38
4.0515757 -0.78146994 1.7220445 -1.7177919e+38
4.051558 -0.78882992 1.7220445 -3.0794363e+38
4.0515404 -0.7961899 1.7220445 nan
4.1399531 -0.62455428 1.7254959 nan
4.139935 -0.63208187 1.7254959 nan
4.1399169 -0.63960946 1.7254959 nan
4.1398988 -0.64713717 1.7254959 nan
4.1398807 -0.65466464 1.7254959 nan
4.0948787 -0.65544128 1.7199674 -3.1815994e+38
4.094861 -0.66288316 1.7199674 -3.3679974e+38
4.1398263 -0.67724752 1.7254959 nan
4.1398087 -0.68477511 1.7254959 nan
4.1397905 -0.6923027 1.7254959 nan
4.1857548 -0.70716941 1.7311474 nan
4.232718 -0.72237289 1.7369217 nan
4.3296618 -0.74592316 1.7488388 nan
4.3296428 -0.75381267 1.7488388 nan
4.3296237 -0.76170218 1.7488388 nan
4.3795848 -0.77804518 1.7549816 nan
4.3795657 -0.78602993 1.7549816 nan
4.329567 -0.78537071 1.7488388 nan
4.2325883 -0.77630615 1.7369217 -3.1150293e+38
4.1855898 -0.77570641 1.7311474 -2.7815288e+38
4.1395912 -0.77510631 1.7254959 -2.7420163e+38
4.1395731 -0.7826339 1.7254959 -2.7155323e+38
4.0945749 -0.78195333 1.7199674 -2.2220011e+38
4.0515757 -0.78146994 1.7146845 -1.7424062e+38
4.051558 -0.78882992 1.7146845 -3.1054018e+38
4.0085592 -0.78810084 1.7094016 nan
4.0949683 -0.61823189 1.7125255 nan
4.139935 -0.63208187 1.7179683 nan
4.0949326 -0.63311565 1.7125255 nan
4.0949144 -0.64055753 1.7125255 nan
4.0948968 -0.64799941 1.7125255 nan
4.0948787 -0.65544128 1.7125255 -2.8221866e+38
4.094861 -0.66288316 1.7125255 -3.2482151e+38
4.1398263 -0.67724752 1.7179683 nan
4.185791 -0.691939 1.7235322 nan
4.1857729 -0.6995542 1.7235322 nan
4.1857548 -0.70716941 1.7235322 nan
4.232718 -0.72237289 1.7292169 nan
4.3296618 -0.74592316 1.7409493 nan
4.3296428 -0.75381267 1.7409493 nan
4.3296237 -0.76170218 1.7409493 nan
4.3795848 -0.77804518 1.7469969 nan
4.329586 -0.77748108 1.7409493 -3.3006551e+38
4.2805872 -0.77689958 1.7350225 -2.8623202e+38
4.2325883 -0.77630615 1.7292169 -2.8343323e+38
4.1396093 -0.76757872 1.7179683 -2.7947163e+38
4.1395912 -0.77510631 1.7179683 -2.7418601e+38
4.1395731 -0.7826339 1.7179683 -2.6882719e+38
4.0945749 -0.78195333 1.7125255 -2.2214291e+38
4.0515757 -0.78146994 1.7073245 -1.7582941e+38
4.051558 -0.78882992 1.7073245 -3.1471477e+38
4.0515404 -0.7961899 1.7073245 nan
4.1399531 -0.62455428 1.7104406 nan
4.139935 -0.63208187 1.7104406 nan
4.1399169 -0.63960946 1.7104406 nan
4.1398988 -0.64713717 1.7104406 nan
4.1398807 -0.65466464 1.7104406 nan
4.1398625 -0.66219234 1.7104406 -2.8480943e+38
4.1398444 -0.66971993 1.7104406 nan
4.1858096 -0.68432379 1.7159169 nan
4.185791 -0.691939 1.7159169 nan
4.1857729 -0.6995542 1.7159169 nan
4.2327366 -0.71466815 1.7215121 nan
4.2806997 -0.73012257 1.7272265 nan
4.3296618 -0.74592316 1.7330598 nan
4.3296428 -0.75381267 1.7330598 nan
4.3296237 -0.76170218 1.7330598 nan
4.3296046 -0.76959169 1.7330598 nan
4.329586 -0.77748108 1.7330598 nan
4.2805872 -0.77689958 1.7272265 -3.3263533e+38
4.2325883 -0.77630615 1.7215121 -3.0338708e+38
4.1396093 -0.76757872 1.7104406 -2.7280983e+38
4.1395912 -0.77510631 1.7104406 -2.7019307e+38
4.0945926 -0.77451146 1.7050836 -2.662206e+38
4.0945749 -0.78195333 1.7050836 -2.2353954e+38
4.0515757 -0.78146994 1.6999645 -1.8095933e+38
4.051558 -0.78882992 1.6999645 -3.0918493e+38
4.0515404 -0.7961899 1.6999645 nan
4.1399531 -0.62455428 1.702913 nan
4.139935 -0.63208187 1.702913 nan
4.1399169 -0.63960946 1.702913 nan
4.1398988 -0.64713717 1.702913 nan
4.1398807 -0.65466464 1.702913 nan
4.1398625 -0.66219234 1.702913 -2.8752516e+38
4.1398444 -0.66971993 1.702913 nan
4.1858096 -0.68432379 1.7083017 nan
4.185791 -0.691939 1.7083017 nan
4.1857729 -0.6995542 1.7083017 nan
4.2327366 -0.71466815 1.7138073 nan
4.2806997 -0.73012257 1.7194302 nan
4.2806811 -0.73791873 1.7194302 nan
4.2806621 -0.7457149 1.7194302 nan
4.3296237 -0.76170218 1.7251703 nan
4.3296046 -0.76959169 1.7251703 nan
4.2806058 -0.76910341 1.7194302 nan
4.2326069 -0.7686013 1.7138073 nan
4.2325883 -0.77630615 1.7138073 -3.233309e+38
4.1396093 -0.76757872 1.702913 -2.6617937e+38
4.1395912 -0.77510631 1.702913 -2.6489697e+38
4.0945926 -0.77451146 1.6976416 -2.635155e+38
4.0945749 -0.78195333 1.6976416 -2.2484294e+38
4.0515757 -0.78146994 1.6926045 -1.8510772e+38
4.051558 -0.78882992 1.6926045 -3.0385696e+38
4.0515404 -0.7961899 1.6926045 nan
4.0085421 -0.79537892 1.6875674 nan
4.1859193 -0.63863254 1.7006865 nan
4.1399169 -0.63960946 1.6953855 nan
4.1398988 -0.64713717 1.6953855 nan
4.1398807 -0.65466464 1.6953855 nan
4.1398625 -0.66219234 1.6953855 -3.3134833e+38
4.1398444 -0.66971993 1.6953855 nan
4.1858096 -0.68432379 1.7006865 nan
4.185791 -0.691939 1.7006865 nan
4.1857729 -0.6995542 1.7006865 nan
4.2327366 -0.71466815 1.7061026 nan
4.2806997 -0.73012257 1.711634 nan
4.2806811 -0.73791873 1.711634 nan
4.2806621 -0.7457149 1.711634 nan
4.3296237 -0.76170218 1.7172807 nan
4.2806249 -0.76130724 1.711634 nan
4.2806058 -0.76910341 1.711634 nan
4.2805872 -0.77689958 1.711634 nan
4.2325883 -0.77630615 1.7061026 -3.1813359e+38
4.1396093 -0.76757872 1.6953855 -2.5816777e+38
4.1395912 -0.77510631 1.6953855 -2.622074e+38
4.0516109 -0.76674998 1.6852446 -2.6620001e+38
4.0515933 -0.77410996 1.6852446 -2.4084055e+38
4.0515757 -0.78146994 1.6852446 -2.1686354e+38
4.051558 -0.78882992 1.6852446 -3.2104278e+38
4.0515404 -0.7961899 1.6852446 nan
4.1399169 -0.63960946 1.6878579 nan
4.1398988 -0.64713717 1.6878579 nan
4.1398807 -0.65466464 1.6878579 nan
4.1398625 -0.66219234 1.6878579 nan
4.1398444 -0.66971993 1.6878579 nan
4.1858096 -0.68432379 1.6930711 nan
4.185791 -0.691939 1.6930711 nan
4.2327552 -0.70696342 1.6983979 nan
4.2327366 -0.71466815 1.6983979 nan
4.2806997 -0.73012257 1.7038379 nan
4.2806811 -0.73791873 1.7038379 nan
4.2806621 -0.7457149 1.7038379 nan
4.3296237 -0.76170218 1.7093911 nan
4.2806249 -0.76130724 1.7038379 nan
4.2806058 -0.76910341 1.7038379 nan
4.2805872 -0.77689958 1.7038379 nan
4.2805686 -0.78469574 1.7038379 -3.1409907e+38
4.1855898 -0.77570641 1.6930711 -2.4890466e+38
4.1395912 -0.77510631 1.6878579 -2.5956971e+38
4.0945926 -0.77451146 1.6827579 -2.6883776e+38
4.0515933 -0.77410996 1.6778846 -2.5811547e+38
4.0515757 -0.78146994 1.6778846 -2.4765394e+38
4.051558 -0.78882992 1.6778846 -3.3987009e+38
4.1398988 -0.64713717 1.6803303 nan
4.1398807 -0.65466464 1.6803303 nan
4.1398625 -0.66219234 1.6803303 nan
4.1398444 -0.66971993 1.6803303 nan
4.1858096 -0.68432379 1.6854559 nan
4.2327738 -0.69925869 1.6906931 nan
4.2807369 -0.71453023 1.6960416 nan
4.2807183 -0.7223264 1.6960416 nan
4.2806997 -0.73012257 1.6960416 nan
4.2806811 -0.73791873 1.6960416 nan
4.2806621 -0.7457149 1.6960416 nan
4.3296237 -0.76170218 1.7015016 nan
4.2806249 -0.76130724 1.6960416 -3.3963582e+38
4.2806058 -0.76910341 1.6960416 nan
4.2805872 -0.77689958 1.6960416 nan
4.2805686 -0.78469574 1.6960416 -3.0747879e+38
4.1855898 -0.77570641 1.6854559 -2.4885269e+38
4.1855717 -0.78332162 1.6854559 -2.582145e+38
4.0516109 -0.76674998 1.6705245 -2.6886378e+38
4.0515933 -0.77410996 1.6705245 -2.5550907e+38
4.3297186 -0.72225463 1.6936121 nan
4.2807183 -0.7223264 1.6882455 nan
4.3296809 -0.73803365 1.6936121 nan
4.2806811 -0.73791873 1.6882455 nan
4.2806621 -0.7457149 1.6882455 nan
4.2806435 -0.75351107 1.6882455 nan
4.2806249 -0.76130724 1.6882455 -3.1159172e+38
4.2806058 -0.76910341 1.6882455 -3.3431331e+38
4.2326069 -0.7686013 1.6829883 nan
4.2325883 -0.77630615 1.6829883 -3.0203737e+38
4.1855898 -0.77570641 1.6778407 -2.4755983e+38
4.1855717 -0.78332162 1.6778407 -2.5823525e+38
4.0516109 -0.76674998 1.6631645 -2.6884823e+38
4.3297186 -0.72225463 1.6857226 nan
4.2807183 -0.7223264 1.6804492 nan
4.3296809 -0.73803365 1.6857226 nan
4.2806811 -0.73791873 1.6804492 nan
4.2806621 -0.7457149 1.6804492 nan
4.2806435 -0.75351107 1.6804492 nan
4.2806249 -0.76130724 1.6804492 -3.1805562e+38
4.2806058 -0.76910341 1.6804492 -3.1288951e+38
4.2805872 -0.77689958 1.6804492 -3.0773867e+38
4.2805686 -0.78469574 1.6804492 -2.8220288e+38
4.1855898 -0.77570641 1.6702255 -2.5819889e+38
4.1395912 -0.77510631 1.665275 -2.6353657e+38
4.3296995 -0.73014414 1.6778331 nan
4.3296809 -0.73803365 1.6778331 nan
4.3296618 -0.74592316 1.6778331 nan
4.3296428 -0.75381267 1.6778331 nan
4.3296237 -0.76170218 1.6778331 nan
4.3296046 -0.76959169 1.6778331 -3.2475371e+38
4.2806058 -0.76910341 1.6726531 -2.9144005e+38
4.329567 -0.78537071 1.6778331 -2.582872e+38
4.3295479 -0.79326022 1.6778331 -2.6350024e+38
4.3295288 -0.80114961 1.6778331 -2.688379e+38
4.1855717 -0.78332162 1.6626103 -2.6885865e+38
4.3796616 -0.74610627 1.6751341 nan
4.3296618 -0.74592316 1.6699436 nan
4.3296428 -0.75381267 1.6699436 nan
4.3296237 -0.76170218 1.6699436 nan
4.3296046 -0.76959169 1.6699436 nan
4.329586 -0.77748108 1.6699436 -3.2209527e+38
4.329567 -0.78537071 1.6699436 -2.9276403e+38
4.3295479 -0.79326022 1.6699436 -2.8614387e+38
4.2805495 -0.79249191 1.6648569 -2.7948211e+38
4.1855717 -0.78332162 1.654995 -2.7549956e+38
4.3796616 -0.74610627 1.6671493 nan
4.3296618 -0.74592316 1.6620541 nan
4.3296428 -0.75381267 1.6620541 nan
4.3296237 -0.76170218 1.6620541 nan
4.3296046 -0.76959169 1.6620541 nan
4.329586 -0.77748108 1.6620541 nan
4.329567 -0.78537071 1.6620541 -3.2610896e+38
4.2805686 -0.78469574 1.6570607 -3.0881859e+38
4.2805495 -0.79249191 1.6570607 -2.9015743e+38
4.1855717 -0.78332162 1.6473798 -2.8082684e+38
4.3296809 -0.73803365 1.6541646 nan
4.3296618 -0.74592316 1.6541646 nan
4.3296428 -0.75381267 1.6541646 nan
4.3296237 -0.76170218 1.6541646 nan
4.3296046 -0.76959169 1.6541646 nan
4.329586 -0.77748108 1.6541646 -3.3814998e+38
4.329567 -0.78537071 1.6541646 -3.1022574e+38
4.2805686 -0.78469574 1.6492646 -2.9951915e+38
4.2805495 -0.79249191 1.6492646 -2.8883336e+38
4.1855717 -0.78332162 1.6397645 -2.7952353e+38
4.1395731 -0.7826339 1.6351645 -2.7152218e+38
4.3296809 -0.73803365 1.646275 nan
4.3296618 -0.74592316 1.646275 nan
4.3296428 -0.75381267 1.646275 nan
4.3296237 -0.76170218 1.646275 nan
4.3296046 -0.76959169 1.646275 nan
4.329586 -0.77748108 1.646275 -3.2610387e+38
4.2805872 -0.77689958 1.6414683 -2.9289388e+38
4.2805686 -0.78469574 1.6414683 -2.9020423e+38
4.2325702 -0.78401077 1.6367598 -2.8620092e+38
4.1855717 -0.78332162 1.6321492 -2.7957032e+38
4.1855531 -0.79093683 1.6321492 -2.7155335e+38
4.3296618 -0.74592316 1.6383855 nan
4.3296428 -0.75381267 1.6383855 nan
4.3296237 -0.76170218 1.6383855 nan
4.3296046 -0.76959169 1.6383855 -3.2344028e+38
4.329586 -0.77748108 1.6383855 -3.1015313e+38
4.2805872 -0.77689958 1.6336721 -2.968816e+38
4.2805686 -0.78469574 1.6336721 -2.8886465e+38
4.2805495 -0.79249191 1.6336721 -2.8220292e+38
4.1855717 -0.78332162 1.624534 -2.7555674e+38
4.1395731 -0.7826339 1.6201093 -2.6891051e+38
4.139555 -0.79016149 1.6201093 -2.702033e+38
4.3796425 -0.75409102 1.6352103 nan
4.3296428 -0.75381267 1.6304959 nan
4.3296237 -0.76170218 1.6304959 nan
4.3296046 -0.76959169 1.6304959 -2.8756668e+38
4.329586 -0.77748108 1.6304959 -2.9419199e+38
4.2805872 -0.77689958 1.6258759 -3.0083811e+38
4.2805686 -0.78469574 1.6258759 -2.888335e+38
4.2325702 -0.78401077 1.6213503 -2.7686521e+38
4.1855717 -0.78332162 1.6169188 -2.7154309e+38
4.1395731 -0.7826339 1.6125816 -2.6488646e+38
4.139555 -0.79016149 1.6125816 -2.6884811e+38
4.3296428 -0.75381267 1.6226064 nan
4.3296237 -0.76170218 1.6226064 nan
4.3296046 -0.76959169 1.6226064 -3.075622e+38
4.2806058 -0.76910341 1.6180798 -3.035381e+38
4.2805872 -0.77689958 1.6180798 -3.0085367e+38
4.2325883 -0.77630615 1.6136454 -2.9015752e+38
4.1855898 -0.77570641 1.6093036 -2.7950809e+38
4.1395912 -0.77510631 1.605054 -2.7418078e+38
4.1395731 -0.7826339 1.605054 -2.6885338e+38
4.3296428 -0.75381267 1.6147169 nan
4.3296237 -0.76170218 1.6147169 nan
4.3296046 -0.76959169 1.6147169 -3.2751094e+38
4.2806058 -0.76910341 1.6102836 -3.1420829e+38
4.2326069 -0.7686013 1.6059407 -2.9950367e+38
4.2325883 -0.77630615 1.6059407 -2.914348e+38
4.1855898 -0.77570641 1.6016884 -2.8214055e+38
4.1395912 -0.77510631 1.5975264 -2.768236e+38
4.3296428 -0.75381267 1.6068274 nan
4.3296237 -0.76170218 1.6068274 nan
4.2806249 -0.76130724 1.6024873 nan
4.2806058 -0.76910341 1.6024873 -3.2216289e+38
4.2326069 -0.7686013 1.598236 -2.9283674e+38
4.2325883 -0.77630615 1.598236 -2.887815e+38
4.1396093 -0.76757872 1.5899987 -2.8478339e+38
4.1395912 -0.77510631 1.5899987 -2.7814238e+38
4.3296428 -0.75381267 1.5989379 nan
4.3296237 -0.76170218 1.5989379 nan
4.2806249 -0.76130724 1.5946912 nan
4.2326255 -0.76089656 1.5905311 -3.314363e+38
4.1856265 -0.76047599 1.5864578 -2.8483539e+38
4.1856084 -0.7680912 1.5864578 -2.8607633e+38
4.1396093 -0.76757872 1.5824711 -2.8743146e+38
4.0946107 -0.76706958 1.5785712 -2.7946643e+38
4.3796234 -0.76207566 1.5952864 nan
4.3296237 -0.76170218 1.5910484 nan
4.3296046 -0.76959169 1.5910484 nan
4.2326255 -0.76089656 1.5828264 -3.3280181e+38
4.1856265 -0.76047599 1.5788426 -2.8881267e+38
4.1856084 -0.7680912 1.5788426 -2.9009517e+38
4.1396093 -0.76757872 1.5749435 -2.9142955e+38
4.0946107 -0.76706958 1.5711293 -2.8345414e+38
4.3296428 -0.75381267 1.5831587 nan
4.3296237 -0.76170218 1.5831587 nan
4.3296046 -0.76959169 1.5831587 nan
4.2326255 -0.76089656 1.5751216 -3.3413607e+38
4.1856265 -0.76047599 1.5712273 -2.9148662e+38
4.1856084 -0.7680912 1.5712273 -2.9273283e+38
4.1396093 -0.76757872 1.567416 -2.9408281e+38
4.3796234 -0.76207566 1.5793169 nan
4.3296237 -0.76170218 1.5752692 nan
4.3296046 -0.76959169 1.5752692 nan
4.2806058 -0.76910341 1.5713027 -3.381184e+38
4.2326069 -0.7686013 1.5674169 -2.941294e+38
4.1856084 -0.7680912 1.5636121 -2.9407762e+38
4.1396093 -0.76757872 1.5598884 -2.9408281e+38
4.0946107 -0.76706958 1.5562454 -2.9009513e+38
4.3296428 -0.75381267 1.5673797 nan
4.3296237 -0.76170218 1.5673797 nan
4.3296046 -0.76959169 1.5673797 nan
4.2806058 -0.76910341 1.5635064 nan
4.2326069 -0.7686013 1.5597122 -2.9547435e+38
4.2325883 -0.77630615 1.5597122 -2.9404127e+38
4.1855898 -0.77570641 1.5559969 -2.927432e+38
4.1855717 -0.78332162 1.5559969 -2.9274839e+38
4.3296428 -0.75381267 1.5594902 nan
4.3296237 -0.76170218 1.5594902 nan
4.3296046 -0.76959169 1.5594902 nan
4.2806058 -0.76910341 1.5557102 nan
4.2805872 -0.77689958 1.5557102 -3.021362e+38
4.2325883 -0.77630615 1.5520074 -2.9008991e+38
4.1855898 -0.77570641 1.5483817 -2.7679763e+38
4.1855717 -0.78332162 1.5483817 -2.7945609e+38
4.1395731 -0.7826339 1.5448331 -2.8211972e+38
4.3296428 -0.75381267 1.5516007 nan
4.3296237 -0.76170218 1.5516007 nan
4.3296046 -0.76959169 1.5516007 nan
4.2806058 -0.76910341 1.547914 nan
4.2326069 -0.7686013 1.5443026 -3.087822e+38
4.1856084 -0.7680912 1.5407665 -2.8473126e+38
4.1855898 -0.77570641 1.5407665 -2.608312e+38
4.1855717 -0.78332162 1.5407665 -2.6749302e+38
4.1395731 -0.7826339 1.5373055 -2.7284108e+38
4.3796234 -0.76207566 1.5473778 nan
4.3796043 -0.77006042 1.5473778 nan
4.3296046 -0.76959169 1.5437112 nan
4.329586 -0.77748108 1.5437112 nan
4.2805872 -0.77689958 1.5401179 -3.0079631e+38
4.2325883 -0.77630615 1.5365978 -2.861018e+38
4.1855898 -0.77570641 1.5331511 -2.7145973e+38
4.3796234 -0.76207566 1.5393931 nan
4.3796043 -0.77006042 1.5393931 nan
4.3795848 -0.77804518 1.5393931 nan
4.329586 -0.77748108 1.5358217 nan
4.329567 -0.78537071 1.5358217 -2.9284692e+38
4.2805686 -0.78469574 1.5323217 -2.8742586e+38
4.2805495 -0.79249191 1.5323217 -2.8211432e+38
4.2805309 -0.80028808 1.5323217 -2.7548915e+38
4.3796234 -0.76207566 1.5314083 nan
4.3796043 -0.77006042 1.5314083 nan
4.3795848 -0.77804518 1.5314083 nan
4.329586 -0.77748108 1.5279322 nan
4.329567 -0.78537071 1.5279322 -3.1014766e+38
4.2805686 -0.78469574 1.5245254 -2.8745701e+38
4.2805495 -0.79249191 1.5245254 -2.6616361e+38
4.2325516 -0.79171562 1.5211883 -2.6618975e+38
4.1855531 -0.79093683 1.5179207 -2.6754494e+38
4.3796234 -0.76207566 1.5234236 nan
4.3796043 -0.77006042 1.5234236 nan
4.3795848 -0.77804518 1.5234236 nan
4.3795657 -0.78602993 1.5234236 nan
4.329567 -0.78537071 1.5200427 -3.2741717e+38
4.3295479 -0.79326022 1.5200427 -2.8874472e+38
4.2805495 -0.79249191 1.5167292 -2.4888877e+38
4.2325516 -0.79171562 1.5134835 -2.5689025e+38
4.1855531 -0.79093683 1.5103054 -2.648916e+38
4.139555 -0.79016149 1.507195 -2.6624679e+38
4.3796425 -0.75409102 1.5154388 nan
4.3796234 -0.76207566 1.5154388 nan
4.3796043 -0.77006042 1.5154388 nan
4.3795848 -0.77804518 1.5154388 nan
4.3795657 -0.78602993 1.5154388 nan
4.329567 -0.78537071 1.5121531 -3.3141518e+38
4.3295479 -0.79326022 1.5121531 -2.9009991e+38
4.2805495 -0.79249191 1.5089331 -2.5020758e+38
4.1855717 -0.78332162 1.5026902 -2.5688495e+38
4.1855531 -0.79093683 1.5026902 -2.6355709e+38
4.139555 -0.79016149 1.4996674 -2.6355192e+38
4.1395369 -0.79768908 1.4996674 -2.6485002e+38
4.4306226 -0.76242208 1.5107083 nan
4.430603 -0.770504 1.5107083 nan
4.3796043 -0.77006042 1.507454 nan
4.3795848 -0.77804518 1.507454 nan
4.3795657 -0.78602993 1.507454 nan
4.329567 -0.78537071 1.5042635 -3.3406333e+38
4.3295479 -0.79326022 1.5042635 -2.9269622e+38
4.2805495 -0.79249191 1.5011369 -2.5153176e+38
4.1855717 -0.78332162 1.495075 -2.5688505e+38
4.1855531 -0.79093683 1.495075 -2.6221754e+38
4.139555 -0.79016149 1.4921397 -2.6221233e+38
4.1395369 -0.79768908 1.4921397 -2.6219158e+38
4.0945387 -0.79683709 1.4892683 -2.6481369e+38
4.430603 -0.770504 1.5026264 nan
4.4305835 -0.77858591 1.5026264 nan
4.3795848 -0.77804518 1.4994693 nan
4.3795657 -0.78602993 1.4994693 nan
4.329567 -0.78537071 1.496374 -3.3142054e+38
4.3295479 -0.79326022 1.496374 -2.8478852e+38
4.2805495 -0.79249191 1.4933407 -2.3691556e+38
4.1855717 -0.78332162 1.4874598 -2.4758056e+38
4.1395731 -0.7826339 1.4846121 -2.5955915e+38
4.139555 -0.79016149 1.4846121 -2.6087793e+38
4.1395369 -0.79768908 1.4846121 -2.6219677e+38
4.0945387 -0.79683709 1.4818264 -2.6350523e+38
4.483582 -0.77926278 1.4977245 nan
4.4305835 -0.77858591 1.4945445 nan
4.4305644 -0.78666782 1.4945445 nan
4.3795657 -0.78602993 1.4914845 nan
4.329567 -0.78537071 1.4884845 -3.2874652e+38
4.3295479 -0.79326022 1.4884845 -2.7545792e+38
4.1855898 -0.77570641 1.4798445 -2.223148e+38
4.1395912 -0.77510631 1.4770845 -2.3962596e+38
4.1395731 -0.7826339 1.4770845 -2.5557146e+38
4.0945749 -0.78195333 1.4743845 -2.5821951e+38
4.1395369 -0.79768908 1.4770845 -2.6087276e+38
4.0945387 -0.79683709 1.4743845 -2.6219677e+38
4.094521 -0.80427897 1.4743845 -2.6352602e+38
4.4305835 -0.77858591 1.4864626 nan
4.3795848 -0.77804518 1.4834998 nan
4.329586 -0.77748108 1.480595 nan
4.329567 -0.78537071 1.480595 -3.3136863e+38
4.2805686 -0.78469574 1.4777483 -2.7549421e+38
4.1855898 -0.77570641 1.4722292 -2.196615e+38
4.1395912 -0.77510631 1.4695569 -2.3563306e+38
4.1395731 -0.7826339 1.4695569 -2.5291303e+38
4.0945749 -0.78195333 1.4669425 -2.5556108e+38
4.0945568 -0.78939521 1.4669425 -2.5955391e+38
4.0945387 -0.79683709 1.4669425 -2.5954868e+38
4.094521 -0.80427897 1.4669425 -2.5956432e+38
4.0945029 -0.81172085 1.4669425 -2.5955917e+38
4.3796043 -0.77006042 1.475515 nan
4.3795848 -0.77804518 1.475515 nan
4.329586 -0.77748108 1.4727055 nan
4.2805872 -0.77689958 1.4699521 -3.3276011e+38
4.2325883 -0.77630615 1.467255 -2.7415978e+38
4.1396093 -0.76757872 1.4620292 -2.1567899e+38
4.1395912 -0.77510631 1.4620292 -2.3298497e+38
4.0945926 -0.77451146 1.4595007 -2.5024417e+38
4.0945749 -0.78195333 1.4595007 -2.5422145e+38
4.0945568 -0.78939521 1.4595007 -2.5688507e+38
4.051558 -0.78882992 1.4570845 -2.5555583e+38
4.0515404 -0.7961899 1.4570845 -2.5423183e+38
4.0515227 -0.80354989 1.4570845 -2.5689552e+38
4.0515046 -0.81090987 1.4570845 -2.5952797e+38
4.3796043 -0.77006042 1.4675303 nan
4.3795848 -0.77804518 1.4675303 nan
4.329586 -0.77748108 1.464816 nan
4.2805872 -0.77689958 1.4621559 nan
4.2325883 -0.77630615 1.4595503 -2.8882281e+38
4.1396093 -0.76757872 1.4545016 -2.3692067e+38
4.1395912 -0.77510631 1.4545016 -2.4491685e+38
4.0945926 -0.77451146 1.4520588 -2.5421625e+38
4.0945749 -0.78195333 1.4520588 -2.5421623e+38
4.0945568 -0.78939521 1.4520588 -2.5422143e+38
4.0945387 -0.79683709 1.4520588 -2.5421623e+38
4.094521 -0.80427897 1.4520588 -2.5289222e+38
4.0515227 -0.80354989 1.4497244 -2.5421108e+38
4.0515046 -0.81090987 1.4497244 -2.5685392e+38
3.7700267 -1.0094937 1.4344702 nan
3.769994 -1.0231433 1.4344702 nan
4.4305835 -0.77858591 1.4622169 nan
4.3795848 -0.77804518 1.4595455 nan
4.329586 -0.77748108 1.4569263 nan
4.2805872 -0.77689958 1.4543598 nan
4.2325883 -0.77630615 1.4518454 -3.034028e+38
4.1396093 -0.76757872 1.446974 -2.5818834e+38
4.0946107 -0.76706958 1.4446169 -2.5820396e+38
4.0945926 -0.77451146 1.4446169 -2.568695e+38
4.0515933 -0.77410996 1.4423645 -2.5420583e+38
4.1395369 -0.79768908 1.446974 -2.5154735e+38
4.051558 -0.78882992 1.4423645 -2.5154216e+38
4.0515404 -0.7961899 1.4423645 -2.5154737e+38
4.0515227 -0.80354989 1.4423645 -2.5286624e+38
4.0515046 -0.81090987 1.4423645 -2.5286102e+38
3.8080859 -0.98497939 1.4296359 nan
3.8080695 -0.9918766 1.4296359 nan
3.8080528 -0.99877369 1.4296359 nan
3.7700596 -0.99584424 1.4276454 nan
3.7700431 -1.002669 1.4276454 nan
3.7700267 -1.0094937 1.4276454 nan
3.7700102 -1.0163184 1.4276454 nan
4.3796043 -0.77006042 1.4515607 nan
4.3795848 -0.77804518 1.4515607 nan
4.329586 -0.77748108 1.4490368 nan
4.2805872 -0.77689958 1.4465635 -3.2487323e+38
4.1856084 -0.7680912 1.4417683 -2.9014169e+38
4.1396093 -0.76757872 1.4394464 -2.5549356e+38
4.1395912 -0.77510631 1.4394464 -2.5552995e+38
4.1395731 -0.7826339 1.4394464 -2.5552988e+38
4.0515933 -0.77410996 1.4350045 -2.541954e+38
4.1395369 -0.79768908 1.4394464 -2.5287135e+38
4.051558 -0.78882992 1.4350045 -2.5153171e+38
4.0515404 -0.7961899 1.4350045 -2.5020772e+38
4.0515227 -0.80354989 1.4350045 -2.5153697e+38
4.0515046 -0.81090987 1.4350045 -2.5419544e+38
4.0085068 -0.80993509 1.432834 -2.5418506e+38
3.7700922 -0.98219478 1.4208207 nan
3.770076 -0.98901951 1.4208207 nan
3.7700596 -0.99584424 1.4208207 nan
3.7700431 -1.002669 1.4208207 nan
3.7700267 -1.0094937 1.4208207 nan
3.7700102 -1.0163184 1.4208207 -3.3549683e+38
4.3796616 -0.74610627 1.443576 nan
4.3796425 -0.75409102 1.443576 nan
4.3796234 -0.76207566 1.443576 nan
4.3796043 -0.77006042 1.443576 nan
4.3296046 -0.76959169 1.4411473 nan
4.329586 -0.77748108 1.4411473 nan
4.2805872 -0.77689958 1.4387673 -3.0087963e+38
4.2325883 -0.77630615 1.4364359 -2.7678711e+38
4.1855898 -0.77570641 1.4341531 -2.5154222e+38
4.1395912 -0.77510631 1.4319187 -2.5288711e+38
4.1395731 -0.7826339 1.4319187 -2.5419548e+38
4.0515933 -0.77410996 1.4276445 -2.5417985e+38
4.1395369 -0.79768908 1.4319187 -2.5285058e+38
4.051558 -0.78882992 1.4276445 -2.5151093e+38
4.0515404 -0.7961899 1.4276445 -2.4886805e+38
4.0515227 -0.80354989 1.4276445 -2.5153171e+38
4.0515046 -0.81090987 1.4276445 -2.5418498e+38
4.0085068 -0.80993509 1.4255559 -2.5683826e+38
3.7700922 -0.98219478 1.413996 nan
3.770076 -0.98901951 1.413996 nan
3.7700596 -0.99584424 1.413996 nan
3.7700431 -1.002669 1.413996 nan
3.7700267 -1.0094937 1.413996 nan
3.7330337 -1.006539 1.4121988 -2.9972211e+38
3.6970406 -1.0037097 1.4104502 nan
4.3796616 -0.74610627 1.4355912 nan
4.3796425 -0.75409102 1.4355912 nan
4.3796234 -0.76207566 1.4355912 nan
4.3796043 -0.77006042 1.4355912 nan
4.3296046 -0.76959169 1.4332578 nan
4.2806058 -0.76910341 1.4309711 nan
4.2805872 -0.77689958 1.4309711 -2.982056e+38
4.1856084 -0.7680912 1.4265379 -2.74165e+38
4.1855898 -0.77570641 1.4265379 -2.5024417e+38
4.1395912 -0.77510631 1.4243912 -2.5021829e+38
4.1395731 -0.7826339 1.4243912 -2.5152666e+38
4.139555 -0.79016149 1.4243912 -2.5152139e+38
4.1395369 -0.79768908 1.4243912 -2.5151616e+38
4.051558 -0.78882992 1.4202845 -2.5152129e+38
4.0515404 -0.7961899 1.4202845 -2.5153165e+38
4.0515227 -0.80354989 1.4202845 -2.5551413e+38
4.0515046 -0.81090987 1.4202845 -2.5816222e+38
4.0085068 -0.80993509 1.4182779 -2.5948627e+38
3.8460627 -0.99458885 1.4107178 -3.2512836e+38
3.846046 -1.0015584 1.4107178 nan
3.8080528 -0.99877369 1.4089445 nan
3.8080363 -1.0056708 1.4089445 nan
3.8080196 -1.012568 1.4089445 nan
3.7700267 -1.0094937 1.4071711 nan
3.7700102 -1.0163184 1.4071711 nan
3.7330174 -1.0132933 1.4054445 nan
3.7699776 -1.0299679 1.4071711 nan
4.3796616 -0.74610627 1.4276063 nan
4.3796425 -0.75409102 1.4276063 nan
4.3796234 -0.76207566 1.4276063 nan
4.3796043 -0.77006042 1.4276063 nan
4.3296046 -0.76959169 1.4253683 nan
4.2806058 -0.76910341 1.423175 nan
4.2805872 -0.77689958 1.423175 -2.9412431e+38
4.1856084 -0.7680912 1.4189225 -2.7141278e+38
4.1855898 -0.77570641 1.4189225 -2.4885762e+38
4.1395912 -0.77510631 1.4168636 -2.48863e+38
4.1395731 -0.7826339 1.4168636 -2.4753371e+38
4.0945749 -0.78195333 1.4148493 -2.4885768e+38
4.0945568 -0.78939521 1.4148493 -2.4885766e+38
4.051558 -0.78882992 1.4129245 -2.515161e+38
4.0515404 -0.7961899 1.4129245 -2.5417975e+38
4.0515227 -0.80354989 1.4129245 -2.5816224e+38
4.0515046 -0.81090987 1.4129245 -2.6214475e+38
4.0085068 -0.80993509 1.4109998 -2.6213438e+38
3.846046 -1.0015584 1.4037483 -2.8088426e+38
3.8080528 -0.99877369 1.4020474 nan
3.8080363 -1.0056708 1.4020474 -3.31468e+38
3.8080196 -1.012568 1.4020474 -2.9436374e+38
3.8080032 -1.0194651 1.4020474 nan
3.8079865 -1.0263622 1.4020474 nan
3.769994 -1.0231433 1.4003464 nan
3.8079534 -1.0401565 1.4020474 nan
4.3796616 -0.74610627 1.4196217 -3.2628057e+38
4.3796425 -0.75409102 1.4196217 nan
4.3796234 -0.76207566 1.4196217 nan
4.3796043 -0.77006042 1.4196217 nan
4.3296046 -0.76959169 1.4174788 nan
4.329586 -0.77748108 1.4174788 -3.3140543e+38
4.2805872 -0.77689958 1.4153788 -2.6878054e+38
4.1856084 -0.7680912 1.4113073 -2.6212862e+38
4.1855898 -0.77570641 1.4113073 -2.554776e+38
4.1395912 -0.77510631 1.409336 -2.5151616e+38
4.1395731 -0.7826339 1.409336 -2.4886285e+38
4.0945749 -0.78195333 1.4074074 -2.4885762e+38
4.0945568 -0.78939521 1.4074074 -2.5018687e+38
4.051558 -0.78882992 1.4055645 -2.515161e+38
4.0515404 -0.7961899 1.4055645 -2.5284535e+38
4.0515227 -0.80354989 1.4055645 -2.5417459e+38
4.0515046 -0.81090987 1.4055645 -2.5682788e+38
4.0085068 -0.80993509 1.4037217 -2.5683828e+38
3.846046 -1.0015584 1.3967788 -2.9017808e+38
3.8460293 -1.0085279 1.3967788 nan
3.8080363 -1.0056708 1.3951502 -3.3277122e+38
3.8080196 -1.012568 1.3951502 -3.1672692e+38
3.8080032 -1.0194651 1.3951502 nan
3.8079865 -1.0263622 1.3951502 nan
3.769994 -1.0231433 1.3935217 nan
3.8079534 -1.0401565 1.3951502 nan
3.8079367 -1.0470536 1.3951502 nan
3.8458953 -1.064284 1.3967788 nan
3.8458784 -1.0712534 1.3967788 nan
4.3796811 -0.73812151 1.4116368 -2.7257559e+38
4.3796616 -0.74610627 1.4116368 -2.6231121e+38
4.3796425 -0.75409102 1.4116368 nan
4.3796234 -0.76207566 1.4116368 nan
4.3796043 -0.77006042 1.4116368 nan
4.3296046 -0.76959169 1.4095893 nan
4.329586 -0.77748108 1.4095893 -3.2325295e+38
4.2805872 -0.77689958 1.4075826 -2.4351465e+38
4.1856084 -0.7680912 1.4036921 -2.5283981e+38
4.1396093 -0.76757872 1.4018083 -2.6214455e+38
4.1395912 -0.77510631 1.4018083 -2.5551413e+38
4.1395731 -0.7826339 1.4018083 -2.4885758e+38
4.139555 -0.79016149 1.4018083 -2.501816e+38
4.0515757 -0.78146994 1.3982044 -2.5151084e+38
4.051558 -0.78882992 1.3982044 -2.5151086e+38
4.0515404 -0.7961899 1.3982044 -2.5018687e+38
4.0515227 -0.80354989 1.3982044 -2.5018691e+38
4.0515046 -0.81090987 1.3982044 -2.5019731e+38
3.9665267 -0.80179417 1.3947235 -2.5152658e+38
3.846046 -1.0015584 1.3898093 -3.0095786e+38
3.8080528 -0.99877369 1.3882531 -3.3016457e+38
3.8080363 -1.0056708 1.3882531 -3.3543481e+38
3.8080196 -1.012568 1.3882531 -3.3951072e+38
3.8080032 -1.0194651 1.3882531 nan
3.8079865 -1.0263622 1.3882531 nan
3.769994 -1.0231433 1.3866968 nan
3.7699776 -1.0299679 1.3866968 nan
3.8079367 -1.0470536 1.3882531 nan
3.8079202 -1.0539507 1.3882531 nan
3.8079035 -1.0608479 1.3882531 nan
3.8458617 -1.078223 1.3898093 nan
4.3796616 -0.74610627 1.4036521 -3.3661271e+38
4.3796425 -0.75409102 1.4036521 nan
4.3796234 -0.76207566 1.4036521 nan
4.3796043 -0.77006042 1.4036521 nan
4.3296046 -0.76959169 1.4016998 nan
4.329586 -0.77748108 1.4016998 -3.2604584e+38
4.2805872 -0.77689958 1.3997864 -2.488158e+38
4.1856084 -0.7680912 1.3960769 -2.5683287e+38
4.1396093 -0.76757872 1.3942807 -2.6347381e+38
4.1395912 -0.77510631 1.3942807 -2.5683285e+38
4.1395731 -0.7826339 1.3942807 -2.488419e+38
4.0945749 -0.78195333 1.3925235 -2.5017113e+38
4.0515757 -0.78146994 1.3908445 -2.5017117e+38
4.051558 -0.78882992 1.3908445 -2.5018158e+38
4.0515404 -0.7961899 1.3908445 -2.5018685e+38
4.0515227 -0.80354989 1.3908445 -2.5019729e+38
4.0515046 -0.81090987 1.3908445 -2.502181e+38
4.0085068 -0.80993509 1.3891654 -2.5021293e+38
3.846046 -1.0015584 1.3828397 -2.8894862e+38
3.8080528 -0.99877369 1.3813559 -3.0225624e+38
3.8080363 -1.0056708 1.3813559 -3.2887169e+38
3.8080196 -1.012568 1.3813559 nan
3.7700267 -1.0094937 1.3798721 nan
3.7700102 -1.0163184 1.3798721 nan
3.769994 -1.0231433 1.3798721 nan
3.7699776 -1.0299679 1.3798721 nan
3.8079367 -1.0470536 1.3813559 nan
3.8079202 -1.0539507 1.3813559 nan
3.8079035 -1.0608479 1.3813559 nan
3.8458617 -1.078223 1.3828397 nan
4.4306421 -0.75434029 1.3975617 nan
4.4306226 -0.76242208 1.3975617 nan
4.3796234 -0.76207566 1.3956673 nan
4.3796043 -0.77006042 1.3956673 nan
4.3296046 -0.76959169 1.3938103 nan
4.329586 -0.77748108 1.3938103 -3.286891e+38
4.2805872 -0.77689958 1.3919902 -2.5420045e+38
4.1856084 -0.7680912 1.3884616 -2.5953298e+38
4.1396093 -0.76757872 1.3867531 -2.6482909e+38
4.1395912 -0.77510631 1.3867531 -2.5684329e+38
4.1395731 -0.7826339 1.3867531 -2.4884194e+38
4.0945749 -0.78195333 1.3850816 -2.4882635e+38
4.0515757 -0.78146994 1.3834845 -2.4884716e+38
4.051558 -0.78882992 1.3834845 -2.488472e+38
4.0515404 -0.7961899 1.3834845 -2.4885764e+38
4.0515227 -0.80354989 1.3834845 -2.5019212e+38
4.0515046 -0.81090987 1.3834845 -2.5020253e+38
4.0085068 -0.80993509 1.3818873 -2.4887853e+38
3.8080528 -0.99877369 1.3744588 -2.743214e+38
3.7700596 -0.99584424 1.3730474 -3.2224074e+38
3.7700431 -1.002669 1.3730474 nan
3.7700267 -1.0094937 1.3730474 nan
3.7700102 -1.0163184 1.3730474 nan
3.769994 -1.0231433 1.3730474 nan
3.7699776 -1.0299679 1.3730474 nan
3.8079367 -1.0470536 1.3744588 nan
3.8079202 -1.0539507 1.3744588 -2.9301896e+38
3.8079035 -1.0608479 1.3744588 -2.9691324e+38
3.8458617 -1.078223 1.3758702 -3.0102566e+38
4.4306421 -0.75434029 1.3894798 nan
4.3796425 -0.75409102 1.3876826 nan
4.3796234 -0.76207566 1.3876826 nan
4.3796043 -0.77006042 1.3876826 nan
4.3296046 -0.76959169 1.3859206 nan
4.329586 -0.77748108 1.3859206 -3.2475371e+38
4.2805872 -0.77689958 1.384194 -2.5419031e+38
4.2805686 -0.78469574 1.384194 -2.6086231e+38
4.1396093 -0.76757872 1.3792255 -2.675032e+38
4.1395912 -0.77510631 1.3792255 -2.5951219e+38
4.1395731 -0.7826339 1.3792255 -2.5282447e+38
4.0945749 -0.78195333 1.3776398 -2.5151596e+38
4.0515757 -0.78146994 1.3761245 -2.5152121e+38
4.0085769 -0.78082275 1.3746092 -2.5018683e+38
4.0085592 -0.78810084 1.3746092 -2.5018689e+38
4.0085421 -0.79537892 1.3746092 -2.5019212e+38
4.0085244 -0.80265701 1.3746092 -2.5019736e+38
4.0085068 -0.80993509 1.3746092 -2.4886817e+38
3.8080528 -0.99877369 1.3675616 -2.6228017e+38
3.8080363 -1.0056708 1.3675616 -2.7157909e+38
3.8080196 -1.012568 1.3675616 -2.8233301e+38
3.8080032 -1.0194651 1.3675616 -3.3029492e+38
3.8079865 -1.0263622 1.3675616 nan
3.769994 -1.0231433 1.3662226 nan
3.8079534 -1.0401565 1.3675616 nan
3.8079367 -1.0470536 1.3675616 nan
3.8079202 -1.0539507 1.3675616 nan
3.8079035 -1.0608479 1.3675616 nan
3.8078871 -1.067745 1.3675616 nan
4.3796616 -0.74610627 1.3796978 nan
4.3796425 -0.75409102 1.3796978 nan
4.3796234 -0.76207566 1.3796978 nan
4.3796043 -0.77006042 1.3796978 nan
4.3296046 -0.76959169 1.3780311 nan
4.329586 -0.77748108 1.3780311 -3.2067238e+38
4.2805872 -0.77689958 1.3763978 -2.5420581e+38
4.2805686 -0.78469574 1.3763978 -2.6222793e+38
4.1855898 -0.77570641 1.3732312 -2.688636e+38
4.1855717 -0.78332162 1.3732312 -2.6219663e+38
4.1395731 -0.7826339 1.3716978 -2.5553485e+38
4.0515933 -0.77410996 1.3687645 -2.5421597e+38
4.0515757 -0.78146994 1.3687645 -2.528608e+38
4.0085769 -0.78082275 1.3673311 -2.5285046e+38
4.0515404 -0.7961899 1.3687645 -2.515109e+38
4.0515227 -0.80354989 1.3687645 -2.5018174e+38
4.0085244 -0.80265701 1.3673311 -2.4886293e+38
4.0085068 -0.80993509 1.3673311 -2.5018701e+38
3.8460293 -1.0085279 1.3619312 -2.5022879e+38
3.8460126 -1.0154973 1.3619312 -2.2211739e+38
3.8080196 -1.012568 1.3606645 -1.9440122e+38
3.7700267 -1.0094937 1.3593979 -2.7294022e+38
3.8079865 -1.0263622 1.3606645 nan
3.769994 -1.0231433 1.3593979 nan
3.8079534 -1.0401565 1.3606645 nan
3.8079367 -1.0470536 1.3606645 nan
3.8079202 -1.0539507 1.3606645 nan
3.8079035 -1.0608479 1.3606645 nan
3.8078871 -1.067745 1.3606645 nan
4.4306421 -0.75434029 1.3733159 nan
4.3796425 -0.75409102 1.371713 nan
4.3796234 -0.76207566 1.371713 nan
4.3796043 -0.77006042 1.371713 nan
4.3296046 -0.76959169 1.3701416 nan
4.329586 -0.77748108 1.3701416 -3.3540272e+38
4.2805872 -0.77689958 1.3686017 -2.8075913e+38
4.2805686 -0.78469574 1.3686017 -2.7152216e+38
4.1855898 -0.77570641 1.365616 -2.6359344e+38
4.1855717 -0.78332162 1.365616 -2.5955375e+38
4.1395731 -0.7826339 1.3641702 -2.5555045e+38
4.139555 -0.79016149 1.3641702 -2.5420039e+38
4.0515757 -0.78146994 1.3614045 -2.5285561e+38
4.0085769 -0.78082275 1.3600531 -2.5284005e+38
4.1395006 -0.81274426 1.3641702 -2.5282975e+38
4.1394825 -0.82027185 1.3641702 -2.5151097e+38
4.1394644 -0.82779944 1.3641702 -2.5152139e+38
4.0085068 -0.80993509 1.3600531 -2.5154218e+38
3.8460126 -1.0154973 1.3549616 -2.3818246e+38
3.8459957 -1.0224669 1.3549616 -2.2086613e+38
3.8080032 -1.0194651 1.3537674 -2.7022406e+38
3.8079865 -1.0263622 1.3537674 -3.1818046e+38
3.8079698 -1.0332594 1.3537674 nan
3.8079534 -1.0401565 1.3537674 nan
3.8079367 -1.0470536 1.3537674 nan
3.8079202 -1.0539507 1.3537674 nan
3.8079035 -1.0608479 1.3537674 nan
3.8078871 -1.067745 1.3537674 nan
4.3796616 -0.74610627 1.3637283 nan
4.3796425 -0.75409102 1.3637283 nan
4.3796234 -0.76207566 1.3637283 nan
4.3796043 -0.77006042 1.3637283 nan
4.3296046 -0.76959169 1.3622521 nan
4.329586 -0.77748108 1.3622521 nan
4.329567 -0.78537071 1.3622521 -3.0611316e+38
4.2805686 -0.78469574 1.3608054 -2.8216099e+38
4.1855898 -0.77570641 1.3580006 -2.5820369e+38
4.1855717 -0.78332162 1.3580006 -2.5686925e+38
4.1855531 -0.79093683 1.3580006 -2.5419001e+38
4.139555 -0.79016149 1.3566426 -2.5417439e+38
4.0515757 -0.78146994 1.3540444 -2.528348e+38
4.0085769 -0.78082275 1.352775 -2.5281407e+38
4.1395006 -0.81274426 1.3566426 -2.5282973e+38
4.1394825 -0.82027185 1.3566426 -2.5415904e+38
4.0515046 -0.81090987 1.3540444 -2.5418506e+38
4.0085068 -0.80993509 1.352775 -2.5420591e+38
4.0084896 -0.81721318 1.352775 -2.5424747e+38
3.8459957 -1.0224669 1.3479921 -2.4754413e+38
3.845979 -1.0294363 1.3479921 -2.6624159e+38
3.8079865 -1.0263622 1.3468702 -2.8498621e+38
3.8079698 -1.0332594 1.3468702 nan
3.8079534 -1.0401565 1.3468702 nan
3.8079367 -1.0470536 1.3468702 nan
3.7699447 -1.0436175 1.3457483 nan
3.7699282 -1.0504422 1.3457483 nan
4.3796616 -0.74610627 1.3557435 nan
4.3796425 -0.75409102 1.3557435 nan
4.3796234 -0.76207566 1.3557435 nan
4.3296237 -0.76170218 1.3543626 nan
4.3296046 -0.76959169 1.3543626 nan
4.2806058 -0.76910341 1.3530092 nan
4.2805872 -0.77689958 1.3530092 -3.0749437e+38
4.2325883 -0.77630615 1.3516835 -2.7811599e+38
4.1855898 -0.77570641 1.3503854 -2.4878994e+38
4.1855717 -0.78332162 1.3503854 -2.5016592e+38
4.1855531 -0.79093683 1.3503854 -2.5282437e+38
4.139555 -0.79016149 1.349115 -2.5017109e+38
4.0945568 -0.78939521 1.3478721 -2.4883152e+38
4.051558 -0.78882992 1.3466845 -2.5016596e+38
4.0515404 -0.7961899 1.3466845 -2.5150567e+38
