# .PCD v0.7 - Point Cloud Data file format
VERSION 0.7
FIELDS x y z rgb
SIZE 4 4 4 4
TYPE F F F F
COUNT 1 1 1 1
WIDTH 1169
HEIGHT 1
VIEWPOINT 0 0 0 1 0 0 0
POINTS 1169
DATA ascii
2.4266839 0.7379967 1.9664569 nan
2.4266734 0.73373574 1.9664569 nan
2.4126508 0.72448254 1.9619102 nan
2.4126403 0.72024828 1.9619102 nan
2.4126301 0.71601397 1.9619102 nan
2.4126196 0.71177971 1.9619102 nan
2.4126093 0.7075454 1.9619102 nan
2.3975861 0.69810522 1.9570389 nan
2.4125884 0.69907689 1.9619102 nan
2.3975654 0.68969381 1.9570389 nan
2.3975551 0.6854881 1.9570389 nan
2.4125571 0.68637407 1.9619102 nan
2.4125469 0.68213975 1.9619102 nan
2.4265478 0.68260443 1.9664569 nan
2.4415498 0.68334949 1.9713283 nan
2.4415393 0.67906004 1.9713283 nan
2.4265163 0.66982162 1.9664569 nan
2.4265058 0.66556066 1.9664569 nan
2.4415076 0.66619146 1.9713283 nan
2.4414971 0.66190195 1.9713283 nan
2.4414866 0.65761244 1.9713283 nan
2.4414761 0.65332294 1.9713283 -3.2102757e+38
2.4414654 0.64903343 1.9713283 -2.9435889e+38
2.4414549 0.64474392 1.9713283 -2.5689542e+38
2.4414444 0.64045441 1.9713283 -2.1956284e+38
2.4554446 0.64054388 1.975875 -2.3156745e+38
2.4554341 0.63622767 1.975875 -2.4487525e+38
2.4554234 0.63191146 1.975875 -2.4619921e+38
2.4554129 0.62759531 1.975875 -2.4752843e+38
2.4704137 0.62785655 1.9807465 -2.4885766e+38
2.4864151 0.62836385 1.9859426 -2.5018687e+38
2.4864042 0.62398863 1.9859426 -2.5018685e+38
2.5014045 0.6241051 1.990814 -2.501765e+38
2.5164046 0.62416446 1.9956855 -2.488421e+38
2.5163937 0.61973214 1.9956855 -2.488317e+38
2.5163829 0.61529976 1.9956855 -2.4751282e+38
2.516372 0.61086738 1.9956855 -2.4618882e+38
2.5323727 0.61107385 2.0008817 -2.4487e+38
2.548373 0.61121923 2.0060778 -2.4354596e+38
2.548362 0.60672593 2.0060778 -2.4488038e+38
2.548351 0.60223264 2.0060778 -2.4620963e+38
2.581363 0.60705531 2.0167952 -2.4620446e+38
2.5813518 0.60249913 2.0167952 -2.4752851e+38
2.5813406 0.59794301 2.0167952 -2.4619411e+38
2.5983407 0.59808886 2.022316 -2.4486485e+38
2.5983295 0.59350026 2.022316 -2.4485961e+38
2.5983183 0.58891171 2.022316 -2.4352519e+38
2.5983071 0.58432311 2.022316 -2.4220116e+38
2.5982957 0.57973462 2.022316 -2.4087195e+38
2.5982845 0.57514602 2.022316 -2.4087716e+38
2.6152844 0.57506526 2.0278368 -2.4088237e+38
2.615273 0.57044435 2.0278368 -2.4222201e+38
2.6152616 0.56582338 2.0278368 -2.4355643e+38
2.6322613 0.56561303 2.0333579 -2.4620448e+38
2.6322498 0.56095976 2.0333579 -2.4886293e+38
2.6492491 0.56065226 2.0388789 -2.488733e+38
2.6492376 0.55596656 2.0388789 -2.5021295e+38
2.649226 0.5512808 2.0388789 -2.5288183e+38
2.6492145 0.5465951 2.0388789 -2.5422155e+38
2.6672139 0.54637378 2.0447245 -2.5557163e+38
2.6672025 0.54165387 2.0447245 -2.5827699e+38
2.6671908 0.53693384 2.0447245 -2.6489734e+38
2.6491685 0.5278523 2.0388789 -2.715595e+38
2.649157 0.52316666 2.0388789 nan
2.4561551 0.92972773 1.9715588 -2.622229e+38
2.4561443 0.92541152 1.9715588 -2.5955404e+38
2.4561338 0.92109537 1.9715588 -2.5556112e+38
2.4270921 0.90417331 1.9621959 -2.5820915e+38
2.4270816 0.89991236 1.9621959 -2.5953317e+38
2.4130566 0.88961917 1.9576759 -2.5819353e+38
2.4130461 0.88538492 1.9576759 -2.5684869e+38
2.4130356 0.8811506 1.9576759 -2.4750251e+38
2.3980098 0.87053901 1.9528332 -2.3824475e+38
2.4130149 0.87268209 1.9576759 -2.8488208e+38
2.397989 0.86212754 1.9528332 -3.315357e+38
2.3979788 0.85792184 1.9528332 nan
2.3979683 0.85371619 1.9528332 nan
2.397958 0.84951049 1.9528332 nan
2.3979478 0.84530479 1.9528332 nan
2.3979373 0.84109908 1.9528332 nan
2.397927 0.83689338 1.9528332 nan
2.3979168 0.83268768 1.9528332 nan
2.3979063 0.82848197 1.9528332 nan
2.3978961 0.82427627 1.9528332 nan
2.3978858 0.82007056 1.9528332 nan
2.3978753 0.81586486 1.9528332 nan
2.3978651 0.81165916 1.9528332 nan
2.3978548 0.80745345 1.9528332 nan
2.3978443 0.80324775 1.9528332 nan
2.3978341 0.79904205 1.9528332 nan
2.3978238 0.7948364 1.9528332 nan
2.3978133 0.79063064 1.9528332 nan
2.3978031 0.78642493 1.9528332 nan
2.3977928 0.78221923 1.9528332 nan
2.3977823 0.77801359 1.9528332 nan
2.3977721 0.77380788 1.9528332 nan
2.3977618 0.76960212 1.9528332 nan
2.3977513 0.76539642 1.9528332 nan
2.3977411 0.76119071 1.9528332 nan
2.4127445 0.76259094 1.9576759 nan
2.412734 0.75835675 1.9576759 nan
2.4267361 0.75930136 1.9621959 nan
2.4267256 0.75504047 1.9621959 nan
2.4267151 0.75077951 1.9621959 nan
2.4267046 0.74651855 1.9621959 -3.3583634e+38
2.4266944 0.7422576 1.9621959 nan
2.4266839 0.7379967 1.9621959 nan
2.4266734 0.73373574 1.9621959 nan
2.4266629 0.72947478 1.9621959 nan
2.4266524 0.72521383 1.9621959 nan
2.4126301 0.71601397 1.9576759 nan
2.4126196 0.71177971 1.9576759 nan
2.3975964 0.70231092 1.9528332 nan
2.3975861 0.69810522 1.9528332 nan
2.4125884 0.69907689 1.9576759 nan
2.3975654 0.68969381 1.9528332 nan
2.3975551 0.6854881 1.9528332 nan
2.4125571 0.68637407 1.9576759 nan
2.4125469 0.68213975 1.9576759 nan
2.4265478 0.68260443 1.9621959 nan
2.4265373 0.67834353 1.9621959 nan
2.4415393 0.67906004 1.9670389 nan
2.4415288 0.67477053 1.9670389 nan
2.4265058 0.66556066 1.9621959 nan
2.4415076 0.66619146 1.9670389 nan
2.4414971 0.66190195 1.9670389 nan
2.4264746 0.65277785 1.9621959 -3.357009e+38
2.4264641 0.64851689 1.9621959 -3.1566893e+38
2.4414654 0.64903343 1.9670389 -2.9427568e+38
2.4414549 0.64474392 1.9670389 -2.568694e+38
2.4414444 0.64045441 1.9670389 -2.1826469e+38
2.4554446 0.64054388 1.9715588 -2.3158297e+38
2.4554341 0.63622767 1.9715588 -2.4353041e+38
2.4554234 0.63191146 1.9715588 -2.4618365e+38
2.4704244 0.63220131 1.9764017 -2.4885249e+38
2.4704137 0.62785655 1.9764017 -2.5019212e+38
2.4864151 0.62836385 1.9815674 -2.5152133e+38
2.5014153 0.62850893 1.9864103 -2.5284537e+38
2.5014045 0.6241051 1.9864103 -2.5284017e+38
2.5164046 0.62416446 1.9912531 -2.5150577e+38
2.5163937 0.61973214 1.9912531 -2.5017133e+38
2.5163829 0.61529976 1.9912531 -2.4884728e+38
2.516372 0.61086738 1.9912531 -2.4752324e+38
2.5323727 0.61107385 1.9964188 -2.4619923e+38
2.5323617 0.60661095 1.9964188 -2.4354596e+38
2.5323508 0.60214818 1.9964188 -2.4488038e+38
2.548351 0.60223264 2.0015845 -2.4620963e+38
2.581363 0.60705531 2.0122387 -2.4620963e+38
2.5813518 0.60249913 2.0122387 -2.4620446e+38
2.5813406 0.59794301 2.0122387 -2.4487525e+38
2.5983407 0.59808886 2.0177274 -2.4354079e+38
2.5983295 0.59350026 2.0177274 -2.4486479e+38
2.5983183 0.58891171 2.0177274 -2.4486479e+38
2.5983071 0.58432311 2.0177274 -2.4353556e+38
2.5982957 0.57973462 2.0177274 -2.4220635e+38
2.6152956 0.57968622 2.023216 -2.4220639e+38
2.6322956 0.57957304 2.0287046 -2.4089276e+38
2.6322842 0.5749197 2.0287046 -2.4223239e+38
2.6152616 0.56582338 2.023216 -2.4355124e+38
2.6322613 0.56561303 2.0287046 -2.4619931e+38
2.6492605 0.5653379 2.034193 -2.4753373e+38
2.6492491 0.56065226 2.034193 -2.4886817e+38
2.6672487 0.56053382 2.0400045 -2.4888379e+38
2.6672373 0.55581379 2.0400045 -2.4888902e+38
2.6672256 0.55109382 2.0400045 -2.4890466e+38
2.6672139 0.54637378 2.0400045 -2.4625665e+38
2.6672025 0.54165387 2.0400045 -2.4360346e+38
2.6671908 0.53693384 2.0400045 -2.4489645e+38
2.6671791 0.53221387 2.0400045 -2.4634568e+38
2.6671677 0.52749383 2.0400045 nan
2.4561551 0.92972773 1.9672426 -2.6221249e+38
2.4561443 0.92541152 1.9672426 -2.5954884e+38
2.4421189 0.91498315 1.9627492 -2.5820402e+38
2.4561234 0.91677916 1.9672426 -2.5820398e+38
2.4420977 0.90640408 1.9627492 -2.5952799e+38
2.4130566 0.88961917 1.9534416 -2.5952278e+38
2.4130461 0.88538492 1.9534416 -2.6084154e+38
2.4130356 0.8811506 1.9534416 -2.5547782e+38
2.4130254 0.87691641 1.9534416 -2.5013517e+38
2.4130149 0.87268209 1.9534416 -2.888907e+38
2.4130044 0.86844784 1.9534416 -3.2757923e+38
2.3979788 0.85792184 1.9486275 nan
2.4129837 0.85997927 1.9534416 nan
2.397958 0.84951049 1.9486275 nan
2.3979478 0.84530479 1.9486275 nan
2.3979373 0.84109908 1.9486275 nan
2.397927 0.83689338 1.9486275 nan
2.3979168 0.83268768 1.9486275 nan
2.3979063 0.82848197 1.9486275 nan
2.3978961 0.82427627 1.9486275 nan
2.3978858 0.82007056 1.9486275 nan
2.3978753 0.81586486 1.9486275 nan
2.4128797 0.81763655 1.9534416 nan
2.3978548 0.80745345 1.9486275 nan
2.3978443 0.80324775 1.9486275 nan
2.3978341 0.79904205 1.9486275 nan
2.3978133 0.79063064 1.9486275 nan
2.3977928 0.78221923 1.9486275 nan
2.3977823 0.77801359 1.9486275 nan
2.3977721 0.77380788 1.9486275 nan
2.3977618 0.76960212 1.9486275 nan
2.3977513 0.76539642 1.9486275 nan
2.3977411 0.76119071 1.9486275 nan
2.3977308 0.75698507 1.9486275 nan
2.412734 0.75835675 1.9534416 nan
2.4267361 0.75930136 1.9579351 nan
2.4267256 0.75504047 1.9579351 nan
2.4267151 0.75077951 1.9579351 nan
2.4267046 0.74651855 1.9579351 nan
2.4266944 0.7422576 1.9579351 nan
2.4266839 0.7379967 1.9579351 nan
2.4266734 0.73373574 1.9579351 nan
2.4126508 0.72448254 1.9534416 nan
2.4266524 0.72521383 1.9579351 nan
2.4126301 0.71601397 1.9534416 nan
2.4126196 0.71177971 1.9534416 nan
2.3975964 0.70231092 1.9486275 nan
2.3975861 0.69810522 1.9486275 nan
2.4125884 0.69907689 1.9534416 nan
2.3975654 0.68969381 1.9486275 nan
2.3975551 0.6854881 1.9486275 nan
2.4125571 0.68637407 1.9534416 nan
2.4125469 0.68213975 1.9534416 nan
2.4265478 0.68260443 1.9579351 nan
2.4265373 0.67834353 1.9579351 nan
2.4415393 0.67906004 1.9627492 nan
2.4415288 0.67477053 1.9627492 nan
2.4265058 0.66556066 1.9579351 nan
2.4264953 0.66129977 1.9579351 nan
2.4414971 0.66190195 1.9627492 nan
2.4124637 0.6482656 1.9534416 nan
2.4264641 0.64851689 1.9579351 -3.1164472e+38
2.4414654 0.64903343 1.9627492 -2.7829886e+38
2.4414549 0.64474392 1.9627492 -2.5020241e+38
2.4414444 0.64045441 1.9627492 -2.2352962e+38
2.4554446 0.64054388 1.9672426 -2.3419981e+38
2.4554341 0.63622767 1.9672426 -2.4483365e+38
2.4554234 0.63191146 1.9672426 -2.475129e+38
2.4704244 0.63220131 1.9720569 -2.5018176e+38
2.4704137 0.62785655 1.9720569 -2.5151618e+38
2.4864151 0.62836385 1.9771922 -2.528506e+38
2.5014153 0.62850893 1.9820064 -2.5285579e+38
2.5164156 0.62859684 1.9868207 -2.5416944e+38
2.5164046 0.62416446 1.9868207 -2.5417461e+38
2.5324056 0.62446237 1.991956 -2.5416423e+38
2.5323946 0.61999953 1.991956 -2.5150575e+38
2.5323837 0.61553669 1.991956 -2.488473e+38
2.5323727 0.61107385 1.991956 -2.4752326e+38
2.548373 0.61121923 1.9970912 -2.4619923e+38
2.548362 0.60672593 1.9970912 -2.4754403e+38
2.548351 0.60223264 1.9970912 -2.4887326e+38
2.581363 0.60705531 2.0076826 -2.4754403e+38
2.5813518 0.60249913 2.0076826 -2.4620444e+38
2.5983522 0.60267735 2.0131388 -2.43546e+38
2.5983407 0.59808886 2.0131388 -2.4088751e+38
2.5983295 0.59350026 2.0131388 -2.4088227e+38
2.5983183 0.58891171 2.0131388 -2.4088747e+38
2.6153183 0.5889281 2.018595 -2.4088225e+38
2.6153071 0.58430713 2.018595 -2.4220635e+38
2.6152956 0.57968622 2.018595 -2.4088235e+38
2.6322956 0.57957304 2.0240512 -2.4089795e+38
2.6322842 0.5749197 2.0240512 -2.4355122e+38
2.6322727 0.57026637 2.0240512 -2.4487527e+38
2.6492722 0.5700236 2.0295074 -2.462045e+38
2.6492605 0.5653379 2.0295074 -2.4753896e+38
2.6492491 0.56065226 2.0295074 -2.4754417e+38
2.6492376 0.55596656 2.0295074 -2.4755979e+38
2.6672373 0.55581379 2.0352845 -2.4889425e+38
2.6672256 0.55109382 2.0352845 -2.502391e+38
2.6672139 0.54637378 2.0352845 -2.5023914e+38
2.6852133 0.54608387 2.0410616 -2.5023914e+38
2.6671908 0.53693384 2.0352845 -2.4621511e+38
2.6671791 0.53221387 2.0352845 -2.4219702e+38
2.6671677 0.52749383 2.0352845 -3.2496815e+38
2.4421504 0.92785156 1.9584599 -2.6487095e+38
2.4421399 0.92356211 1.9584599 -2.6220728e+38
2.4421294 0.9192726 1.9584599 -2.6087286e+38
2.4421189 0.91498315 1.9584599 -2.5953842e+38
2.4421082 0.91069359 1.9584599 -2.5952803e+38
2.4270816 0.89991236 1.9536741 -2.5952282e+38
2.4130566 0.88961917 1.9492073 -2.6218645e+38
2.4130461 0.88538492 1.9492073 -2.6348966e+38
2.39802 0.87474471 1.9444216 -2.6343765e+38
2.3980098 0.87053901 1.9444216 -2.6217635e+38
2.3979993 0.86633331 1.9444216 -2.9296192e+38
2.397989 0.86212754 1.9444216 -3.2232493e+38
2.3979788 0.85792184 1.9444216 -3.3974565e+38
2.3979683 0.85371619 1.9444216 nan
2.397958 0.84951049 1.9444216 nan
2.3979478 0.84530479 1.9444216 nan
2.3979373 0.84109908 1.9444216 nan
2.397927 0.83689338 1.9444216 nan
2.3979168 0.83268768 1.9444216 nan
2.3979063 0.82848197 1.9444216 nan
2.3978961 0.82427627 1.9444216 nan
2.3978858 0.82007056 1.9444216 nan
2.3978753 0.81586486 1.9444216 nan
2.3978651 0.81165916 1.9444216 nan
2.3978548 0.80745345 1.9444216 nan
2.3978443 0.80324775 1.9444216 nan
2.3978341 0.79904205 1.9444216 nan
2.3977928 0.78221923 1.9444216 nan
2.3977823 0.77801359 1.9444216 nan
2.3977721 0.77380788 1.9444216 nan
2.3977618 0.76960212 1.9444216 nan
2.3977513 0.76539642 1.9444216 nan
2.3977411 0.76119071 1.9444216 nan
2.3977308 0.75698507 1.9444216 nan
2.412734 0.75835675 1.9492073 nan
2.4267361 0.75930136 1.9536741 nan
2.4267256 0.75504047 1.9536741 nan
2.4267151 0.75077951 1.9536741 nan
2.4267046 0.74651855 1.9536741 nan
2.4266944 0.7422576 1.9536741 nan
2.4266839 0.7379967 1.9536741 nan
2.4266734 0.73373574 1.9536741 nan
2.4266629 0.72947478 1.9536741 nan
2.4266524 0.72521383 1.9536741 nan
2.4126301 0.71601397 1.9492073 nan
2.4126196 0.71177971 1.9492073 nan
2.4126093 0.7075454 1.9492073 nan
2.4125988 0.70331115 1.9492073 nan
2.4125884 0.69907689 1.9492073 nan
2.4125781 0.69484264 1.9492073 nan
2.3975551 0.6854881 1.9444216 nan
2.4265687 0.69112635 1.9536741 nan
2.4265583 0.68686539 1.9536741 nan
2.4265478 0.68260443 1.9536741 nan
2.4265373 0.67834353 1.9536741 nan
2.4265268 0.67408258 1.9536741 nan
2.4415288 0.67477053 1.9584599 nan
2.4415181 0.67048097 1.9584599 nan
2.4264953 0.66129977 1.9536741 nan
2.4264848 0.65703881 1.9536741 nan
2.4124637 0.6482656 1.9492073 nan
2.4264641 0.64851689 1.9536741 -3.0758416e+38
2.4414654 0.64903343 1.9584599 -2.6094083e+38
2.4264431 0.6399951 1.9536741 -2.4476589e+38
2.4264326 0.63573414 1.9536741 -2.275172e+38
2.4414339 0.6361649 1.9584599 -2.3684788e+38
2.4414234 0.6318754 1.9584599 -2.4484406e+38
2.4554234 0.63191146 1.9629264 -2.4884217e+38
2.4704244 0.63220131 1.9677122 -2.5151101e+38
2.4704137 0.62785655 1.9677122 -2.5284545e+38
2.4864151 0.62836385 1.9728169 -2.5420581e+38
2.5014153 0.62850893 1.9776026 -2.5421619e+38
2.5164156 0.62859684 1.9823883 -2.5421098e+38
2.5324163 0.6289252 1.987493 -2.5553502e+38
2.5324056 0.62446237 1.987493 -2.5683826e+38
2.5323946 0.61999953 1.987493 -2.5283498e+38
2.5323837 0.61553669 1.987493 -2.488421e+38
2.5323727 0.61107385 1.987493 -2.4884732e+38
2.548373 0.61121923 1.9925978 -2.4886289e+38
2.548362 0.60672593 1.9925978 -2.5021287e+38
2.5653629 0.60706413 1.9980216 -2.5153691e+38
2.581363 0.60705531 2.0031264 -2.4888366e+38
2.5813518 0.60249913 2.0031264 -2.448804e+38
2.5983522 0.60267735 2.0085502 -2.4088753e+38
2.6153524 0.60279089 2.0139742 -2.368998e+38
2.6153412 0.59816998 2.0139742 -2.3689459e+38
2.6153297 0.59354901 2.0139742 -2.3556536e+38
2.6153183 0.5889281 2.0139742 -2.3822384e+38
2.6153071 0.58430713 2.0139742 -2.4088231e+38
2.6323068 0.58422631 2.0193977 -2.4088235e+38
2.6322956 0.57957304 2.0193977 -2.4088757e+38
2.6322842 0.5749197 2.0193977 -2.4353564e+38
2.6322727 0.57026637 2.0193977 -2.4620448e+38
2.6492722 0.5700236 2.0248218 -2.475389e+38
2.6492605 0.5653379 2.0248218 -2.4754411e+38
2.6492491 0.56065226 2.0248218 -2.462149e+38
2.6672487 0.56053382 2.0305645 -2.4489612e+38
2.6672373 0.55581379 2.0305645 -2.4888385e+38
2.6672256 0.55109382 2.0305645 -2.5155792e+38
2.6672139 0.54637378 2.0305645 -2.5422159e+38
2.6852133 0.54608387 2.0363073 -2.5686962e+38
2.6852016 0.54132962 2.0363073 -2.4752344e+38
2.68519 0.53657532 2.0363073 -2.3830255e+38
2.6671677 0.52749383 2.0305645 -3.0901707e+38
2.3981543 0.9294188 1.9402159 -2.8886461e+38
2.398144 0.9252131 1.9402159 -2.8219774e+38
2.4421504 0.92785156 1.9541702 -2.6487095e+38
2.4421399 0.92356211 1.9541702 -2.6220209e+38
2.4421294 0.9192726 1.9541702 -2.6086765e+38
2.4421189 0.91498315 1.9541702 -2.5953842e+38
2.4421082 0.91069359 1.9541702 -2.5952284e+38
2.4270816 0.89991236 1.9494131 -2.5951246e+38
2.4130566 0.88961917 1.9449731 -2.6084686e+38
2.4130461 0.88538492 1.9449731 -2.6350006e+38
2.4130356 0.8811506 1.9449731 -2.6212923e+38
2.3980098 0.87053901 1.9402159 -2.6078508e+38
2.3979993 0.86633331 1.9402159 -2.982689e+38
2.397989 0.86212754 1.9402159 -3.343298e+38
2.3979788 0.85792184 1.9402159 nan
2.3979683 0.85371619 1.9402159 nan
2.397958 0.84951049 1.9402159 nan
2.3979478 0.84530479 1.9402159 nan
2.3979373 0.84109908 1.9402159 nan
2.397927 0.83689338 1.9402159 nan
2.3979168 0.83268768 1.9402159 nan
2.3979063 0.82848197 1.9402159 nan
2.3978961 0.82427627 1.9402159 nan
2.3978858 0.82007056 1.9402159 nan
2.3978753 0.81586486 1.9402159 nan
2.3978651 0.81165916 1.9402159 nan
2.3978548 0.80745345 1.9402159 nan
2.3978443 0.80324775 1.9402159 nan
2.3978341 0.79904205 1.9402159 nan
2.3978238 0.7948364 1.9402159 nan
2.3978133 0.79063064 1.9402159 nan
2.3978031 0.78642493 1.9402159 nan
2.3977928 0.78221923 1.9402159 nan
2.3977823 0.77801359 1.9402159 nan
2.3977721 0.77380788 1.9402159 nan
2.3977618 0.76960212 1.9402159 nan
2.4127653 0.77105951 1.9449731 nan
2.3977411 0.76119071 1.9402159 nan
2.4127445 0.76259094 1.9449731 nan
2.412734 0.75835675 1.9449731 nan
2.4267361 0.75930136 1.9494131 nan
2.4267256 0.75504047 1.9494131 nan
2.4267151 0.75077951 1.9494131 nan
2.4267046 0.74651855 1.9494131 nan
2.4266944 0.7422576 1.9494131 nan
2.4266839 0.7379967 1.9494131 nan
2.4266734 0.73373574 1.9494131 nan
2.4126508 0.72448254 1.9449731 nan
2.4126403 0.72024828 1.9449731 nan
2.3976171 0.71072233 1.9402159 nan
2.3976068 0.70651662 1.9402159 nan
2.4126093 0.7075454 1.9449731 nan
2.3975861 0.69810522 1.9402159 nan
2.4125884 0.69907689 1.9449731 nan
2.4125781 0.69484264 1.9449731 nan
2.3975551 0.6854881 1.9402159 nan
2.4265687 0.69112635 1.9494131 nan
2.4265583 0.68686539 1.9494131 nan
2.4265478 0.68260443 1.9494131 nan
2.4265373 0.67834353 1.9494131 nan
2.4415393 0.67906004 1.9541702 nan
2.4415288 0.67477053 1.9541702 nan
2.4415181 0.67048097 1.9541702 nan
2.4415076 0.66619146 1.9541702 -3.3972501e+38
2.4414971 0.66190195 1.9541702 -3.3570085e+38
2.4264746 0.65277785 1.9494131 -3.3297459e+38
2.4414761 0.65332294 1.9541702 -2.7966498e+38
2.4414654 0.64903343 1.9541702 -2.2639629e+38
2.4414549 0.64474392 1.9541702 -2.3154093e+38
2.4414444 0.64045441 1.9541702 -2.3683208e+38
2.4554446 0.64054388 1.9586103 -2.4084593e+38
2.4554341 0.63622767 1.9586103 -2.4485963e+38
2.4704349 0.63654608 1.9633675 -2.4751815e+38
2.4864366 0.63711435 1.9684417 -2.4885778e+38
2.4864259 0.63273913 1.9684417 -2.5021819e+38
2.5014262 0.63291276 1.9731989 -2.5291297e+38
2.5164263 0.63302922 1.9779559 -2.5424215e+38
2.5164156 0.62859684 1.9779559 -2.5558696e+38
2.5324163 0.6289252 1.9830303 -2.5555059e+38
2.5324056 0.62446237 1.9830303 -2.5684345e+38
2.5323946 0.61999953 1.9830303 -2.5284015e+38
2.5323837 0.61553669 1.9830303 -2.4882136e+38
2.5323727 0.61107385 1.9830303 -2.4884734e+38
2.548373 0.61121923 1.9881046 -2.4752847e+38
2.548362 0.60672593 1.9881046 -2.4886807e+38
2.5653629 0.60706413 1.9934959 -2.5019212e+38
2.581363 0.60705531 1.9985702 -2.4753886e+38
2.5813518 0.60249913 1.9985702 -2.4487e+38
2.5983522 0.60267735 2.0039616 -2.4088749e+38
2.6153524 0.60279089 2.0093532 -2.3690499e+38
2.6153412 0.59816998 2.0093532 -2.3689978e+38
2.6153297 0.59354901 2.0093532 -2.3689461e+38
2.6153183 0.5889281 2.0093532 -2.3822386e+38
2.6153071 0.58430713 2.0093532 -2.3822388e+38
2.6152956 0.57968622 2.0093532 -2.3822909e+38
2.6322956 0.57957304 2.0147445 -2.3956353e+38
2.6322842 0.5749197 2.0147445 -2.4221679e+38
2.6322727 0.57026637 2.0147445 -2.4487523e+38
2.6492722 0.5700236 2.0201359 -2.448804e+38
2.6492605 0.5653379 2.0201359 -2.4621484e+38
2.6492491 0.56065226 2.0201359 -2.4621486e+38
2.6492376 0.55596656 2.0201359 -2.4755454e+38
2.649226 0.5512808 2.0201359 -2.4888383e+38
2.6672256 0.55109382 2.0258446 -2.5023384e+38
2.6672139 0.54637378 2.0258446 -2.5289232e+38
2.6672025 0.54165387 2.0258446 -2.5555589e+38
2.6671908 0.53693384 2.0258446 -2.4754407e+38
2.6671791 0.53221387 2.0258446 -2.3953808e+38
2.3981543 0.9294188 1.9360102 -2.8619062e+38
2.398144 0.9252131 1.9360102 -2.8085296e+38
2.4421504 0.92785156 1.9498807 -2.6353653e+38
2.4421399 0.92356211 1.9498807 -2.6086767e+38
2.4421294 0.9192726 1.9498807 -2.5952284e+38
2.4271026 0.90843427 1.9451522 -2.5819359e+38
2.4421082 0.91069359 1.9498807 -2.581884e+38
2.4270816 0.89991236 1.9451522 -2.581884e+38
2.4130566 0.88961917 1.9407388 -2.6085205e+38
2.4130461 0.88538492 1.9407388 -2.6348966e+38
2.4130356 0.8811506 1.9407388 -2.6211881e+38
2.3980098 0.87053901 1.9360102 -2.5956489e+38
2.3979993 0.86633331 1.9360102 -3.0367416e+38
2.397989 0.86212754 1.9360102 nan
2.3979788 0.85792184 1.9360102 nan
2.3979683 0.85371619 1.9360102 nan
2.397958 0.84951049 1.9360102 nan
2.3979478 0.84530479 1.9360102 nan
2.3979373 0.84109908 1.9360102 nan
2.397927 0.83689338 1.9360102 nan
2.3979168 0.83268768 1.9360102 nan
2.3979063 0.82848197 1.9360102 nan
2.3978961 0.82427627 1.9360102 nan
2.3978858 0.82007056 1.9360102 nan
2.3978753 0.81586486 1.9360102 nan
2.3978651 0.81165916 1.9360102 nan
2.3978548 0.80745345 1.9360102 nan
2.3978443 0.80324775 1.9360102 nan
2.3978341 0.79904205 1.9360102 nan
2.3978238 0.7948364 1.9360102 nan
2.3978133 0.79063064 1.9360102 nan
2.3978031 0.78642493 1.9360102 nan
2.3977928 0.78221923 1.9360102 nan
2.3977823 0.77801359 1.9360102 nan
2.3977721 0.77380788 1.9360102 nan
2.3977618 0.76960212 1.9360102 nan
2.3977513 0.76539642 1.9360102 nan
2.4127548 0.76682526 1.9407388 nan
2.3977308 0.75698507 1.9360102 nan
2.3977203 0.75277936 1.9360102 nan
2.4267361 0.75930136 1.9451522 nan
2.4267256 0.75504047 1.9451522 nan
2.4267151 0.75077951 1.9451522 nan
2.4267046 0.74651855 1.9451522 nan
2.4266944 0.7422576 1.9451522 nan
2.4126716 0.7329511 1.9407388 nan
2.4266734 0.73373574 1.9451522 nan
2.4126508 0.72448254 1.9407388 nan
2.4126403 0.72024828 1.9407388 nan
2.4126301 0.71601397 1.9407388 nan
2.4126196 0.71177971 1.9407388 nan
2.4126093 0.7075454 1.9407388 nan
2.4125988 0.70331115 1.9407388 nan
2.4125884 0.69907689 1.9407388 nan
2.4265897 0.69964826 1.9451522 nan
2.4265792 0.6953873 1.9451522 nan
2.4265687 0.69112635 1.9451522 nan
2.4265583 0.68686539 1.9451522 nan
2.4415603 0.687639 1.9498807 nan
2.4415498 0.68334949 1.9498807 nan
2.4415393 0.67906004 1.9498807 nan
2.4415288 0.67477053 1.9498807 nan
2.4415181 0.67048097 1.9498807 -3.3840115e+38
2.4415076 0.66619146 1.9498807 -3.3305806e+38
2.4414971 0.66190195 1.9498807 -3.237273e+38
2.4264746 0.65277785 1.9451522 -3.130152e+38
2.4414761 0.65332294 1.9498807 -2.5170418e+38
2.4414654 0.64903343 1.9498807 -1.904344e+38
2.4414549 0.64474392 1.9498807 -2.1817098e+38
2.4414444 0.64045441 1.9498807 -2.4614718e+38
2.4554446 0.64054388 1.9542941 -2.4616807e+38
2.4554341 0.63622767 1.9542941 -2.4484925e+38
2.4704349 0.63654608 1.9590226 -2.4617852e+38
2.4864366 0.63711435 1.9640665 -2.462149e+38
2.4864259 0.63273913 1.9640665 -2.4891494e+38
2.5014262 0.63291276 1.9687951 -2.5024936e+38
2.5164263 0.63302922 1.9735236 -2.5425781e+38
2.5164156 0.62859684 1.9735236 -2.5691106e+38
2.5324163 0.6289252 1.9785674 -2.5690065e+38
2.5324056 0.62446237 1.9785674 -2.5554023e+38
2.5323946 0.61999953 1.9785674 -2.5286098e+38
2.5323837 0.61553669 1.9785674 -2.4885774e+38
2.5323727 0.61107385 1.9785674 -2.4752853e+38
2.548373 0.61121923 1.9836112 -2.4620448e+38
2.5653741 0.61158985 1.9889703 -2.475389e+38
2.5653629 0.60706413 1.9889703 -2.4753888e+38
2.581363 0.60705531 1.994014 -2.4620444e+38
2.5983634 0.60726595 1.9993731 -2.4354596e+38
2.6153638 0.6074118 2.0047321 -2.4088747e+38
2.6153524 0.60279089 2.0047321 -2.3689459e+38
2.6153412 0.59816998 2.0047321 -2.3822382e+38
2.6153297 0.59354901 2.0047321 -2.3822384e+38
2.6153183 0.5889281 2.0047321 -2.3689463e+38
2.6153071 0.58430713 2.0047321 -2.355654e+38
2.6323068 0.58422631 2.0100913 -2.3689465e+38
2.6322956 0.57957304 2.0100913 -2.3689467e+38
2.6322842 0.5749197 2.0100913 -2.3955313e+38
2.6322727 0.57026637 2.0100913 -2.4221677e+38
2.6492722 0.5700236 2.0154502 -2.4354598e+38
2.6492605 0.5653379 2.0154502 -2.4355639e+38
2.6492491 0.56065226 2.0154502 -2.4620967e+38
2.6492376 0.55596656 2.0154502 -2.4886815e+38
2.649226 0.5512808 2.0154502 -2.4886819e+38
2.6672256 0.55109382 2.0211246 -2.4889938e+38
2.6672139 0.54637378 2.0211246 -2.5156307e+38
2.6672025 0.54165387 2.0211246 -2.5288709e+38
2.6671908 0.53693384 2.0211246 -2.475546e+38
2.6671791 0.53221387 2.0211246 -2.4091391e+38
2.6671677 0.52749383 2.0211246 -2.7018835e+38
2.3981543 0.9294188 1.9318045 -2.8219781e+38
2.398144 0.9252131 1.9318045 -2.7818933e+38
2.4271548 0.92973888 1.9408913 -2.6886395e+38
2.4421504 0.92785156 1.9455912 -2.622073e+38
2.4421399 0.92356211 1.9455912 -2.5954363e+38
2.4421294 0.9192726 1.9455912 -2.5953321e+38
2.4271026 0.90843427 1.9408913 -2.5951763e+38
2.4270921 0.90417331 1.9408913 -2.5685915e+38
2.4270816 0.89991236 1.9408913 -2.542007e+38
2.4130566 0.88961917 1.9365046 -2.5685915e+38
2.4130461 0.88538492 1.9365046 -2.6084676e+38
2.4130356 0.8811506 1.9365046 -2.6480318e+38
2.4130254 0.87691641 1.9365046 -2.7017277e+38
2.4130149 0.87268209 1.9365046 -3.0897555e+38
2.4130044 0.86844784 1.9365046 nan
2.4129941 0.86421353 1.9365046 nan
2.3979683 0.85371619 1.9318045 nan
2.397958 0.84951049 1.9318045 nan
2.3979478 0.84530479 1.9318045 nan
2.3979063 0.82848197 1.9318045 nan
2.3978961 0.82427627 1.9318045 nan
2.3978858 0.82007056 1.9318045 nan
2.3978753 0.81586486 1.9318045 nan
2.3978651 0.81165916 1.9318045 nan
2.3978548 0.80745345 1.9318045 nan
2.3978443 0.80324775 1.9318045 nan
2.3978341 0.79904205 1.9318045 nan
2.3978238 0.7948364 1.9318045 nan
2.3978133 0.79063064 1.9318045 nan
2.3978031 0.78642493 1.9318045 nan
2.3977928 0.78221923 1.9318045 nan
2.3977721 0.77380788 1.9318045 nan
2.3977618 0.76960212 1.9318045 nan
2.3977513 0.76539642 1.9318045 nan
2.4127548 0.76682526 1.9365046 nan
2.3977308 0.75698507 1.9318045 nan
2.412734 0.75835675 1.9365046 nan
2.4267361 0.75930136 1.9408913 nan
2.4127133 0.74988818 1.9365046 nan
2.4127028 0.74565387 1.9365046 nan
2.4126925 0.74141961 1.9365046 nan
2.4266944 0.7422576 1.9408913 nan
2.4126716 0.7329511 1.9365046 nan
2.4266734 0.73373574 1.9408913 nan
2.4126508 0.72448254 1.9365046 nan
2.4126403 0.72024828 1.9365046 nan
2.4126301 0.71601397 1.9365046 nan
2.4126196 0.71177971 1.9365046 nan
2.4126093 0.7075454 1.9365046 nan
2.4125988 0.70331115 1.9365046 nan
2.4125884 0.69907689 1.9365046 nan
2.4265897 0.69964826 1.9408913 nan
2.4265792 0.6953873 1.9408913 nan
2.4265687 0.69112635 1.9408913 nan
2.4265583 0.68686539 1.9408913 nan
2.4415603 0.687639 1.9455912 nan
2.4415498 0.68334949 1.9455912 nan
2.4415393 0.67906004 1.9455912 nan
2.4415288 0.67477053 1.9455912 -3.3973563e+38
2.4415181 0.67048097 1.9455912 -3.3307392e+38
2.4415076 0.66619146 1.9455912 -3.2770997e+38
2.4414971 0.66190195 1.9455912 -3.2372196e+38
2.4414866 0.65761244 1.9455912 -3.2105787e+38
2.4414761 0.65332294 1.9455912 -2.57026e+38
2.4414654 0.64903343 1.9455912 -1.9307205e+38
2.4414549 0.64474392 1.9455912 -2.1958349e+38
2.4414444 0.64045441 1.9455912 -2.4619403e+38
2.4554446 0.64054388 1.9499779 -2.4618367e+38
2.4554341 0.63622767 1.9499779 -2.4485446e+38
2.4704349 0.63654608 1.9546778 -2.4619407e+38
2.4864366 0.63711435 1.9596913 -2.4755452e+38
2.4864259 0.63273913 1.9596913 -2.5021821e+38
2.5014262 0.63291276 1.9643912 -2.5155786e+38
2.5014153 0.62850893 1.9643912 -2.5290268e+38
2.5164156 0.62859684 1.9690912 -2.5424228e+38
2.5164046 0.62416446 1.9690912 -2.5290782e+38
2.5163937 0.61973214 1.9690912 -2.5156818e+38
2.5323946 0.61999953 1.9741045 -2.5021816e+38
2.5323837 0.61553669 1.9741045 -2.4887338e+38
2.5483842 0.61571258 1.9791179 -2.4754415e+38
2.5653851 0.61611557 1.9844446 -2.4753896e+38
2.5653741 0.61158985 1.9844446 -2.4753894e+38
2.5653629 0.60706413 1.9844446 -2.4886813e+38
2.5983746 0.61185449 1.9947846 -2.4620444e+38
2.5983634 0.60726595 1.9947846 -2.4486998e+38
2.6153638 0.6074118 2.0001111 -2.4354071e+38
2.632364 0.60749292 2.0054379 -2.422011e+38
2.6323526 0.60283959 2.0054379 -2.4087706e+38
2.6153297 0.59354901 2.0001111 -2.3954266e+38
2.6153183 0.5889281 2.0001111 -2.3821865e+38
2.6153071 0.58430713 2.0001111 -2.3688944e+38
2.6323068 0.58422631 2.0054379 -2.3821867e+38
2.6322956 0.57957304 2.0054379 -2.3954791e+38
2.6322842 0.5749197 2.0054379 -2.4088233e+38
2.6322727 0.57026637 2.0054379 -2.4221156e+38
2.6322613 0.56561303 2.0054379 -2.4355117e+38
2.6322498 0.56095976 2.0054379 -2.4622004e+38
2.6492491 0.56065226 2.0107646 -2.4885774e+38
2.6492376 0.55596656 2.0107646 -2.5282985e+38
2.649226 0.5512808 2.0107646 -2.5553502e+38
2.6492145 0.5465951 2.0107646 -2.5689027e+38
2.6672139 0.54637378 2.0164046 -2.5689552e+38
2.6672025 0.54165387 2.0164046 -2.5820925e+38
2.6852016 0.54132962 2.0220447 -2.5422165e+38
2.6671791 0.53221387 2.0164046 -2.5023916e+38
2.6671677 0.52749383 2.0164046 -2.6752429e+38
2.3981543 0.9294188 1.9275988 -2.7819972e+38
2.398144 0.9252131 1.9275988 -2.7552047e+38
2.3981338 0.92100739 1.9275988 -2.7285161e+38
2.4271548 0.92973888 1.9366302 -2.6752951e+38
2.4271443 0.92547798 1.9366302 -2.6221251e+38
2.427134 0.92121708 1.9366302 -2.6088322e+38
2.4271235 0.91695613 1.9366302 -2.5821436e+38
2.4271131 0.91269523 1.9366302 -2.595384e+38
2.4271026 0.90843427 1.9366302 -2.5951761e+38
2.4270921 0.90417331 1.9366302 -2.5551954e+38
2.4270816 0.89991236 1.9366302 -2.5020782e+38
2.4130566 0.88961917 1.9322703 -2.542007e+38
2.4130461 0.88538492 1.9322703 -2.5683303e+38
2.4130356 0.8811506 1.9322703 -2.6873361e+38
2.3980098 0.87053901 1.9275988 -2.7953965e+38
2.3979993 0.86633331 1.9275988 -3.1573083e+38
2.397989 0.86212754 1.9275988 nan
2.3979788 0.85792184 1.9275988 nan
2.3979683 0.85371619 1.9275988 nan
2.397958 0.84951049 1.9275988 nan
2.3979478 0.84530479 1.9275988 nan
2.3979373 0.84109908 1.9275988 nan
2.3979168 0.83268768 1.9275988 nan
2.4129212 0.83457363 1.9322703 nan
2.3978961 0.82427627 1.9275988 nan
2.3978858 0.82007056 1.9275988 nan
2.3978753 0.81586486 1.9275988 nan
2.3978651 0.81165916 1.9275988 nan
2.3978548 0.80745345 1.9275988 nan
2.3978443 0.80324775 1.9275988 nan
2.3978341 0.79904205 1.9275988 nan
2.3978238 0.7948364 1.9275988 nan
2.3978133 0.79063064 1.9275988 nan
2.3978031 0.78642493 1.9275988 nan
2.3977928 0.78221923 1.9275988 nan
2.3977823 0.77801359 1.9275988 nan
2.3977721 0.77380788 1.9275988 nan
2.3977618 0.76960212 1.9275988 nan
2.4127653 0.77105951 1.9322703 nan
2.3977411 0.76119071 1.9275988 nan
2.4127445 0.76259094 1.9322703 nan
2.412734 0.75835675 1.9322703 nan
2.4127235 0.75412244 1.9322703 nan
2.4127133 0.74988818 1.9322703 nan
2.4127028 0.74565387 1.9322703 nan
2.4126925 0.74141961 1.9322703 nan
2.4126821 0.73718536 1.9322703 nan
2.4126716 0.7329511 1.9322703 nan
2.4126613 0.72871679 1.9322703 nan
2.4126508 0.72448254 1.9322703 nan
2.4126403 0.72024828 1.9322703 nan
2.4126301 0.71601397 1.9322703 nan
2.4126196 0.71177971 1.9322703 nan
2.4126093 0.7075454 1.9322703 nan
2.4125988 0.70331115 1.9322703 nan
2.4125884 0.69907689 1.9322703 nan
2.4265897 0.69964826 1.9366302 nan
2.4265792 0.6953873 1.9366302 nan
2.4415815 0.69621807 1.9413017 nan
2.4265583 0.68686539 1.9366302 nan
2.4415603 0.687639 1.9413017 nan
2.4415498 0.68334949 1.9413017 nan
2.4415393 0.67906004 1.9413017 -3.3972519e+38
2.4415288 0.67477053 1.9413017 -3.3441347e+38
2.4415181 0.67048097 1.9413017 -3.2776733e+38
2.4415076 0.66619146 1.9413017 -3.2109509e+38
2.4414971 0.66190195 1.9413017 -3.2505147e+38
2.4414866 0.65761244 1.9413017 -3.2762622e+38
2.4414761 0.65332294 1.9413017 -2.6225977e+38
2.4414654 0.64903343 1.9413017 -1.9569412e+38
2.4414549 0.64474392 1.9413017 -2.2089193e+38
2.4414444 0.64045441 1.9413017 -2.4618365e+38
2.4554446 0.64054388 1.9456617 -2.4618888e+38
2.4704456 0.64089084 1.9503331 -2.4485965e+38
2.4704349 0.63654608 1.9503331 -2.4751292e+38
2.4864366 0.63711435 1.9553159 -2.4886296e+38
2.4864259 0.63273913 1.9553159 -2.5151626e+38
2.5014262 0.63291276 1.9599874 -2.5287149e+38
2.5014153 0.62850893 1.9599874 -2.5288711e+38
2.5164156 0.62859684 1.9646587 -2.5156824e+38
2.5164046 0.62416446 1.9646587 -2.5024938e+38
2.5163937 0.61973214 1.9646587 -2.4758571e+38
2.5323946 0.61999953 1.9696417 -2.4757531e+38
2.5323837 0.61553669 1.9696417 -2.4755973e+38
2.5483842 0.61571258 1.9746245 -2.4755454e+38
2.5653851 0.61611557 1.9799188 -2.4754413e+38
2.5653741 0.61158985 1.9799188 -2.4887336e+38
2.5813742 0.61161155 1.9849017 -2.488733e+38
2.5983746 0.61185449 1.990196 -2.4753882e+38
2.6153753 0.61203277 1.9954903 -2.4620438e+38
2.6323755 0.61214626 2.0007844 -2.4619916e+38
2.632364 0.60749292 2.0007844 -2.4619397e+38
2.6323526 0.60283959 2.0007844 -2.4354071e+38
2.6323411 0.59818631 2.0007844 -2.3954785e+38
2.6323297 0.59353298 2.0007844 -2.3954787e+38
2.6153071 0.58430713 1.9954903 -2.3821867e+38
2.6323068 0.58422631 2.0007844 -2.3954789e+38
2.6322956 0.57957304 2.0007844 -2.4088233e+38
2.6322842 0.5749197 2.0007844 -2.4221158e+38
2.6322727 0.57026637 2.0007844 -2.4221677e+38
2.6322613 0.56561303 2.0007844 -2.4488562e+38
2.6492605 0.5653379 2.0060787 -2.4752851e+38
2.6492491 0.56065226 2.0060787 -2.5282468e+38
2.6492376 0.55596656 2.0060787 -2.5684873e+38
2.649226 0.5512808 2.0060787 -2.6089353e+38
2.6492145 0.5465951 2.0060787 -2.6488642e+38
2.6492031 0.54190946 2.0060787 -2.6357281e+38
2.6672025 0.54165387 2.0116844 -2.6221768e+38
2.6852016 0.54132962 2.0172901 -2.6087296e+38
2.68519 0.53657532 2.0172901 -2.5951258e+38
2.6671677 0.52749383 2.0116844 -2.6608085e+38
2.3981543 0.9294188 1.9233931 -2.8083219e+38
2.398144 0.9252131 1.9233931 -2.7683929e+38
2.3981338 0.92100739 1.9233931 -2.7151717e+38
2.4271548 0.92973888 1.9323692 -2.6752427e+38
2.4271443 0.92547798 1.9323692 -2.6353653e+38
2.427134 0.92121708 1.9323692 -2.6219683e+38
2.4271235 0.91695613 1.9323692 -2.5952799e+38
2.4271131 0.91269523 1.9323692 -2.595228e+38
2.4271026 0.90843427 1.9323692 -2.5818319e+38
2.4270921 0.90417331 1.9323692 -2.5419029e+38
2.4270816 0.89991236 1.9323692 -2.5153703e+38
2.4130566 0.88961917 1.928036 -2.4886819e+38
2.4130461 0.88538492 1.928036 -2.4753354e+38
2.4130356 0.8811506 1.928036 -2.6613211e+38
2.4130254 0.87691641 1.928036 -2.8344943e+38
2.3979993 0.86633331 1.9233931 -3.2228881e+38
2.397989 0.86212754 1.9233931 nan
2.3979788 0.85792184 1.9233931 nan
2.3979683 0.85371619 1.9233931 nan
2.397958 0.84951049 1.9233931 nan
2.3979478 0.84530479 1.9233931 nan
2.3979373 0.84109908 1.9233931 nan
2.3979168 0.83268768 1.9233931 nan
2.3979063 0.82848197 1.9233931 nan
2.3978961 0.82427627 1.9233931 nan
2.3978858 0.82007056 1.9233931 nan
2.3978753 0.81586486 1.9233931 nan
2.3978651 0.81165916 1.9233931 nan
2.3978548 0.80745345 1.9233931 nan
2.3978443 0.80324775 1.9233931 nan
2.3978341 0.79904205 1.9233931 nan
2.3978238 0.7948364 1.9233931 nan
2.3978133 0.79063064 1.9233931 nan
2.3978031 0.78642493 1.9233931 nan
2.3977928 0.78221923 1.9233931 nan
2.3977823 0.77801359 1.9233931 nan
2.3977721 0.77380788 1.9233931 nan
2.3977618 0.76960212 1.9233931 nan
2.3977513 0.76539642 1.9233931 nan
2.3977411 0.76119071 1.9233931 nan
2.4127445 0.76259094 1.928036 nan
2.412734 0.75835675 1.928036 nan
2.4127235 0.75412244 1.928036 nan
2.4127133 0.74988818 1.928036 nan
2.4127028 0.74565387 1.928036 nan
2.4126925 0.74141961 1.928036 nan
2.4266944 0.7422576 1.9323692 nan
2.4126716 0.7329511 1.928036 nan
2.4266734 0.73373574 1.9323692 nan
2.4126508 0.72448254 1.928036 nan
2.4266524 0.72521383 1.9323692 nan
2.4266419 0.72095287 1.9323692 nan
2.4266315 0.71669197 1.9323692 nan
2.426621 0.71243101 1.9323692 nan
2.4266105 0.70817006 1.9323692 nan
2.4266 0.7039091 1.9323692 nan
2.4265897 0.69964826 1.9323692 nan
2.4265792 0.6953873 1.9323692 nan
2.4415815 0.69621807 1.9370122 nan
2.4415708 0.69192857 1.9370122 nan
2.4415603 0.687639 1.9370122 nan
2.4415498 0.68334949 1.9370122 nan
2.4415393 0.67906004 1.9370122 -3.3839592e+38
2.4415288 0.67477053 1.9370122 -3.3573744e+38
2.4415181 0.67048097 1.9370122 -3.2776725e+38
2.4415076 0.66619146 1.9370122 -3.2113673e+38
2.4414971 0.66190195 1.9370122 -3.2241926e+38
2.4414866 0.65761244 1.9370122 -3.2503539e+38
2.4414761 0.65332294 1.9370122 -2.7159027e+38
2.4414654 0.64903343 1.9370122 -2.1821307e+38
2.4414549 0.64474392 1.9370122 -2.3287571e+38
2.4554553 0.64485997 1.9413455 -2.4886285e+38
2.4414339 0.6361649 1.9370122 -2.4619927e+38
2.4704456 0.64089084 1.9459884 -2.4354081e+38
2.4864473 0.64148957 1.9509407 -2.4619927e+38
2.4864366 0.63711435 1.9509407 -2.4886296e+38
2.4864259 0.63273913 1.9509407 -2.5152143e+38
2.5014262 0.63291276 1.9555836 -2.5419553e+38
2.5014153 0.62850893 1.9555836 -2.5420595e+38
2.5014045 0.6241051 1.9555836 -2.5421631e+38
2.5164046 0.62416446 1.9602264 -2.5422668e+38
2.5163937 0.61973214 1.9602264 -2.5423185e+38
2.5323946 0.61999953 1.9651788 -2.5288703e+38
2.5483952 0.62020594 1.9701312 -2.5154741e+38
2.5483842 0.61571258 1.9701312 -2.502078e+38
2.5653851 0.61611557 1.9753931 -2.4886298e+38
2.5813854 0.61616772 1.9803455 -2.4753892e+38
2.5813742 0.61161155 1.9803455 -2.4754924e+38
2.6153865 0.61665374 1.9908693 -2.4620955e+38
2.6153753 0.61203277 1.9908693 -2.4620436e+38
2.6323755 0.61214626 1.9961312 -2.4486992e+38
2.632364 0.60749292 1.9961312 -2.4485953e+38
2.6323526 0.60283959 1.9961312 -2.4087185e+38
2.6323411 0.59818631 1.9961312 -2.3820824e+38
2.6323297 0.59353298 1.9961312 -2.3821345e+38
2.6153071 0.58430713 1.9908693 -2.3688944e+38
2.6323068 0.58422631 1.9961312 -2.3822386e+38
2.6322956 0.57957304 1.9961312 -2.3955832e+38
2.6322842 0.5749197 1.9961312 -2.4221679e+38
2.6322727 0.57026637 1.9961312 -2.4487525e+38
2.6322613 0.56561303 1.9961312 -2.4753371e+38
2.6492605 0.5653379 2.0013931 -2.5017661e+38
2.6492491 0.56065226 2.0013931 -2.541695e+38
2.6492376 0.55596656 2.0013931 -2.5818838e+38
2.649226 0.5512808 2.0013931 -2.5955398e+38
2.6492145 0.5465951 2.0013931 -2.6224359e+38
2.6492031 0.54190946 2.0013931 -2.6090914e+38
2.6672025 0.54165387 2.0069647 -2.6089882e+38
2.6852016 0.54132962 2.012536 -2.6220734e+38
2.68519 0.53657532 2.012536 -2.6483988e+38
2.6671677 0.52749383 2.0069647 -2.7015162e+38
2.3981543 0.9294188 1.9191873 -2.8349065e+38
2.398144 0.9252131 1.9191873 -2.7682889e+38
2.4271548 0.92973888 1.9281083 -2.675087e+38
2.427134 0.92121708 1.9281083 -2.6351574e+38
2.4271235 0.91695613 1.9281083 -2.6085207e+38
2.4421294 0.9192726 1.9327226 -2.5951242e+38
2.4271026 0.90843427 1.9281083 -2.5684356e+38
2.4270921 0.90417331 1.9281083 -2.541695e+38
2.4270816 0.89991236 1.9281083 -2.5152143e+38
2.4130566 0.88961917 1.9238017 -2.4485973e+38
2.4270606 0.8913905 1.9281083 -2.3821867e+38
2.4130356 0.8811506 1.9238017 -2.6348428e+38
2.4130254 0.87691641 1.9238017 -2.8754626e+38
2.3979993 0.86633331 1.9191873 -3.3035244e+38
2.397989 0.86212754 1.9191873 nan
2.3979788 0.85792184 1.9191873 nan
2.3979683 0.85371619 1.9191873 nan
2.397958 0.84951049 1.9191873 nan
2.3979478 0.84530479 1.9191873 nan
2.3979373 0.84109908 1.9191873 nan
2.3979168 0.83268768 1.9191873 nan
2.3979063 0.82848197 1.9191873 nan
2.3978858 0.82007056 1.9191873 nan
2.3978753 0.81586486 1.9191873 nan
2.3978651 0.81165916 1.9191873 nan
2.3978548 0.80745345 1.9191873 nan
2.3978443 0.80324775 1.9191873 nan
2.3978341 0.79904205 1.9191873 nan
2.3978238 0.7948364 1.9191873 nan
2.3978133 0.79063064 1.9191873 nan
2.3978031 0.78642493 1.9191873 nan
2.3977928 0.78221923 1.9191873 nan
2.3977823 0.77801359 1.9191873 nan
2.412786 0.77952802 1.9238017 nan
2.3977618 0.76960212 1.9191873 nan
2.4127653 0.77105951 1.9238017 nan
2.3977411 0.76119071 1.9191873 nan
2.4127445 0.76259094 1.9238017 nan
2.412734 0.75835675 1.9238017 nan
2.4127235 0.75412244 1.9238017 nan
2.4127133 0.74988818 1.9238017 nan
2.4127028 0.74565387 1.9238017 nan
2.4126925 0.74141961 1.9238017 nan
2.4126821 0.73718536 1.9238017 nan
2.4126716 0.7329511 1.9238017 nan
2.4126613 0.72871679 1.9238017 nan
2.4126508 0.72448254 1.9238017 nan
2.4126403 0.72024828 1.9238017 nan
2.4126301 0.71601397 1.9238017 nan
2.4266315 0.71669197 1.9281083 nan
2.426621 0.71243101 1.9281083 nan
2.4266105 0.70817006 1.9281083 nan
2.4266 0.7039091 1.9281083 nan
2.4416025 0.70479703 1.9327226 nan
2.441592 0.70050758 1.9327226 nan
2.4415815 0.69621807 1.9327226 nan
2.4415708 0.69192857 1.9327226 -3.3705118e+38
2.4415603 0.687639 1.9327226 -3.3837519e+38
2.4415498 0.68334949 1.9327226 -3.3971476e+38
2.4415393 0.67906004 1.9327226 -3.3839069e+38
2.4415288 0.67477053 1.9327226 -3.3573219e+38
2.4415181 0.67048097 1.9327226 -3.2775159e+38
2.4415076 0.66619146 1.9327226 -3.1978143e+38
2.4414971 0.66190195 1.9327226 -3.211107e+38
2.4414866 0.65761244 1.9327226 -3.2096974e+38
2.4414761 0.65332294 1.9327226 -2.808533e+38
2.4414654 0.64903343 1.9327226 -2.395639e+38
2.4414549 0.64474392 1.9327226 -2.4485458e+38
2.4414444 0.64045441 1.9327226 -2.5019744e+38
2.4554446 0.64054388 1.9370294 -2.4620971e+38
2.4704456 0.64089084 1.9416436 -2.4088759e+38
2.4864473 0.64148957 1.9465655 -2.4487523e+38
2.4864366 0.63711435 1.9465655 -2.4885774e+38
2.4864259 0.63273913 1.9465655 -2.5151624e+38
2.5014262 0.63291276 1.9511797 -2.5419031e+38
2.5014153 0.62850893 1.9511797 -2.5552997e+38
2.5014045 0.6241051 1.9511797 -2.5686958e+38
2.5013938 0.61970139 1.9511797 -2.5821438e+38
2.5163937 0.61973214 1.9557941 -2.5953319e+38
2.5323946 0.61999953 1.960716 -2.5685913e+38
2.5483952 0.62020594 1.9656379 -2.5419546e+38
2.5653963 0.62064129 1.9708674 -2.5152662e+38
2.5653851 0.61611557 1.9708674 -2.4886293e+38
2.5813854 0.61616772 1.9757893 -2.4752847e+38
2.598386 0.6164431 1.9810188 -2.4488034e+38
2.6153865 0.61665374 1.9862483 -2.4620953e+38
2.6323869 0.61679959 1.9914778 -2.4620434e+38
2.6323755 0.61214626 1.9914778 -2.4487511e+38
2.632364 0.60749292 1.9914778 -2.4220106e+38
2.6323526 0.60283959 1.9914778 -2.3953739e+38
2.6323411 0.59818631 1.9914778 -2.3687895e+38
2.6323297 0.59353298 1.9914778 -2.3688416e+38
2.6323183 0.58887964 1.9914778 -2.3556015e+38
2.6323068 0.58422631 1.9914778 -2.3689459e+38
2.6322956 0.57957304 1.9914778 -2.3822386e+38
2.6322842 0.5749197 1.9914778 -2.4221158e+38
2.6322727 0.57026637 1.9914778 -2.4620444e+38
2.6322613 0.56561303 1.9914778 -2.5018693e+38
2.6492605 0.5653379 1.9967074 -2.5284019e+38
2.6492491 0.56065226 1.9967074 -2.5548829e+38
2.6492376 0.55596656 1.9967074 -2.5817274e+38
2.649226 0.5512808 1.9967074 -2.5820913e+38
2.6492145 0.5465951 1.9967074 -2.5824028e+38
2.6672139 0.54637378 2.0022445 -2.595799e+38
2.6672025 0.54165387 2.0022445 -2.5957479e+38
2.6852016 0.54132962 2.0077817 -2.6488139e+38
2.68519 0.53657532 2.0077817 -2.6885875e+38
2.6851783 0.53182107 2.0077817 -2.7551536e+38
2.3981543 0.9294188 1.9149816 -2.7815816e+38
2.427134 0.92121708 1.9238474 -2.6351061e+38
2.4271235 0.91695613 1.9238474 -2.6217613e+38
2.4421294 0.9192726 1.9284332 -2.5950722e+38
2.4421189 0.91498315 1.9284332 -2.5815719e+38
2.4270921 0.90417331 1.9238474 -2.5417985e+38
2.4270816 0.89991236 1.9238474 -2.5019738e+38
2.4270711 0.89565146 1.9238474 -2.4219607e+38
2.4130461 0.88538492 1.9195673 -2.3554475e+38
2.4130356 0.8811506 1.9195673 -2.6617411e+38
2.4130254 0.87691641 1.9195673 -2.9549059e+38
2.3979993 0.86633331 1.9149816 -3.289661e+38
2.397989 0.86212754 1.9149816 nan
2.3979788 0.85792184 1.9149816 nan
2.3979683 0.85371619 1.9149816 nan
2.397958 0.84951049 1.9149816 nan
2.3979478 0.84530479 1.9149816 nan
2.3979373 0.84109908 1.9149816 nan
2.3978858 0.82007056 1.9149816 nan
2.3978753 0.81586486 1.9149816 nan
2.3978651 0.81165916 1.9149816 nan
2.3978443 0.80324775 1.9149816 nan
2.3978341 0.79904205 1.9149816 nan
2.3978238 0.7948364 1.9149816 nan
2.3978133 0.79063064 1.9149816 nan
2.4128172 0.7922309 1.9195673 nan
2.4128067 0.78799659 1.9195673 nan
2.4127965 0.78376234 1.9195673 nan
2.412786 0.77952802 1.9195673 nan
2.4127758 0.77529383 1.9195673 nan
2.4127653 0.77105951 1.9195673 nan
2.4127548 0.76682526 1.9195673 nan
2.4127445 0.76259094 1.9195673 nan
2.412734 0.75835675 1.9195673 nan
2.4127235 0.75412244 1.9195673 nan
2.4127133 0.74988818 1.9195673 nan
2.4267151 0.75077951 1.9238474 nan
2.4126925 0.74141961 1.9195673 nan
2.4266944 0.7422576 1.9238474 nan
2.4126716 0.7329511 1.9195673 nan
2.4126613 0.72871679 1.9195673 nan
2.3976378 0.71913373 1.9149816 nan
2.3976274 0.71492803 1.9149816 nan
2.3976171 0.71072233 1.9149816 nan
2.4266315 0.71669197 1.9238474 nan
2.426621 0.71243101 1.9238474 nan
2.4416234 0.7133761 1.9284332 nan
2.441613 0.7090866 1.9284332 nan
2.4416025 0.70479703 1.9284332 nan
2.441592 0.70050758 1.9284332 nan
2.4415815 0.69621807 1.9284332 nan
2.4415708 0.69192857 1.9284332 -3.3970961e+38
2.4415603 0.687639 1.9284332 -3.3970961e+38
2.4415498 0.68334949 1.9284332 nan
2.4415393 0.67906004 1.9284332 -3.3839584e+38
2.4415288 0.67477053 1.9284332 -3.3706655e+38
2.4415181 0.67048097 1.9284332 -3.2775668e+38
2.4415076 0.66619146 1.9284332 -3.1976576e+38
2.4414971 0.66190195 1.9284332 -3.1974501e+38
2.4414866 0.65761244 1.9284332 -3.2098526e+38
2.4414761 0.65332294 1.9284332 -2.6759733e+38
2.4414654 0.64903343 1.9284332 -2.1432424e+38
2.4554658 0.64917618 1.932713 -2.3026966e+38
2.4554553 0.64485997 1.932713 -2.4623066e+38
2.4554446 0.64054388 1.932713 -2.4488574e+38
2.4554341 0.63622767 1.932713 -2.4354606e+38
2.4704349 0.63654608 1.9372988 -2.4619927e+38
2.4864366 0.63711435 1.9421902 -2.5017659e+38
2.4864259 0.63273913 1.9421902 -2.5151622e+38
2.4864151 0.62836385 1.9421902 -2.5286106e+38
2.4864042 0.62398863 1.9421902 -2.5286628e+38
2.4863935 0.61961347 1.9421902 -2.5287668e+38
2.5013938 0.61970139 1.9467759 -2.5420593e+38
2.5013828 0.61529756 1.9467759 -2.5685917e+38
2.5163829 0.61529976 1.9513617 -2.5287145e+38
2.5483952 0.62020594 1.9611444 -2.5020778e+38
2.5483842 0.61571258 1.9611444 -2.4887332e+38
2.5653851 0.61611557 1.9663417 -2.4753367e+38
2.5813854 0.61616772 1.9712331 -2.4620438e+38
2.598386 0.6164431 1.9764302 -2.448803e+38
2.6153865 0.61665374 1.9816275 -2.4487507e+38
2.6323869 0.61679959 1.9868245 -2.4354067e+38
2.6323755 0.61214626 1.9868245 -2.4220625e+38
2.6493757 0.61219496 1.9920217 -2.4085621e+38
2.6323526 0.60283959 1.9868245 -2.382081e+38
2.6493528 0.6028235 1.9920217 -2.3687889e+38
2.6323297 0.59353298 1.9868245 -2.3687891e+38
2.6323183 0.58887964 1.9868245 -2.3688414e+38
2.6323068 0.58422631 1.9868245 -2.3688936e+38
2.6322956 0.57957304 1.9868245 -2.3822384e+38
2.6322842 0.5749197 1.9868245 -2.4088233e+38
2.6322727 0.57026637 1.9868245 -2.4354596e+38
2.6492722 0.5700236 1.9920217 -2.4752841e+38
2.6492605 0.5653379 1.9920217 -2.5285052e+38
2.6492491 0.56065226 1.9920217 -2.5415898e+38
2.6492376 0.55596656 1.9920217 -2.5682269e+38
2.649226 0.5512808 1.9920217 -2.5553506e+38
2.6492145 0.5465951 1.9920217 -2.5558181e+38
2.6672139 0.54637378 1.9975245 -2.5691623e+38
2.6672025 0.54165387 1.9975245 -2.5825594e+38
2.6852016 0.54132962 2.0030274 -2.6222294e+38
2.68519 0.53657532 2.0030274 -2.6620555e+38
2.6851783 0.53182107 2.0030274 -2.6488681e+38
2.6851666 0.52706677 2.0030274 -2.649233e+38
2.3981543 0.9294188 1.9107759 -2.7151711e+38
2.4421504 0.92785156 1.9241436 -2.6350537e+38
2.4421399 0.92356211 1.9241436 -2.635001e+38
2.4561443 0.92541152 1.9283969 -2.608312e+38
2.4561338 0.92109537 1.9283969 -2.5816751e+38
2.4421082 0.91069359 1.9241436 -2.5285575e+38
2.4420977 0.90640408 1.9241436 -2.4751797e+38
2.4420872 0.90211457 1.9241436 -2.408354e+38
2.4270606 0.8913905 1.9195864 -2.3289658e+38
2.39802 0.87474471 1.9107759 -2.6884308e+38
2.4130254 0.87691641 1.915333 -3.0353352e+38
2.3979993 0.86633331 1.9107759 -3.2767843e+38
2.397989 0.86212754 1.9107759 nan
2.3979788 0.85792184 1.9107759 nan
2.3979683 0.85371619 1.9107759 nan
2.397958 0.84951049 1.9107759 nan
2.3979478 0.84530479 1.9107759 nan
2.3979373 0.84109908 1.9107759 nan
2.397927 0.83689338 1.9107759 nan
2.3979168 0.83268768 1.9107759 nan
2.3979063 0.82848197 1.9107759 nan
2.3978961 0.82427627 1.9107759 nan
2.3978858 0.82007056 1.9107759 nan
2.3978753 0.81586486 1.9107759 nan
2.3978651 0.81165916 1.9107759 nan
2.3978548 0.80745345 1.9107759 nan
2.3978443 0.80324775 1.9107759 nan
2.3978341 0.79904205 1.9107759 nan
2.412838 0.80069941 1.915333 nan
2.4128277 0.79646522 1.915333 nan
2.4128172 0.7922309 1.915333 nan
2.3977928 0.78221923 1.9107759 nan
2.4127965 0.78376234 1.915333 nan
2.412786 0.77952802 1.915333 nan
