# .PCD v0.7 - Point Cloud Data file format
VERSION 0.7
FIELDS x y z rgb
SIZE 4 4 4 4
TYPE F F F F
COUNT 1 1 1 1
WIDTH 1052
HEIGHT 1
VIEWPOINT 0 0 0 1 0 0 0
POINTS 1052
DATA ascii
-0.16518858 -0.61776006 2.3760002 -2.2356093e+38
-0.16066287 -0.61776006 2.3760002 -2.2621939e+38
-0.15502001 -0.61334002 2.3590002 -2.3020186e+38
-0.15052667 -0.61334002 2.3590002 -2.302122e+38
-0.1350143 -0.56706005 2.181 -2.3022261e+38
-0.13086002 -0.56706005 2.181 -2.3155703e+38
-0.12670572 -0.56706005 2.181 -2.3156226e+38
-0.12255143 -0.56706005 2.181 -2.1957848e+38
-0.11839715 -0.56706005 2.181 -2.0765178e+38
-0.11424287 -0.56706005 2.181 -2.195006e+38
-0.11008858 -0.56706005 2.181 -2.31391e+38
-0.10593429 -0.56706005 2.181 -2.6749308e+38
-0.10178 -0.56706005 2.181 -3.0335179e+38
-0.097625718 -0.56706005 2.181 nan
-0.093471438 -0.56706005 2.181 nan
-0.08931715 -0.56706005 2.181 nan
-0.085162863 -0.56706005 2.181 nan
-0.081491433 -0.57044005 2.194 nan
-0.076854289 -0.56706005 2.181 nan
-0.073133335 -0.57044005 2.194 nan
-0.068954289 -0.57044005 2.194 nan
-0.064775243 -0.57044005 2.194 nan
-0.060596194 -0.57044005 2.194 nan
-0.056417145 -0.57044005 2.194 -3.1536535e+38
-0.052571431 -0.57408005 2.2080002 -2.6608593e+38
-0.048365716 -0.57408005 2.2080002 -2.5552027e+38
-0.044160005 -0.57408005 2.2080002 -2.4491239e+38
-0.040479049 -0.58162004 2.237 -2.4493312e+38
-0.036930479 -0.59306002 2.2810001 -2.4626234e+38
-0.032585718 -0.59306002 2.2810001 -2.4760194e+38
-0.029206669 -0.61334002 2.3590002 -2.5027603e+38
-0.024891431 -0.61776006 2.3760002 -2.5292933e+38
-0.020365715 -0.61776006 2.3760002 -2.569327e+38
-0.015840001 -0.61776006 2.3760002 -2.5828278e+38
-0.011314287 -0.61776006 2.3760002 -2.6097249e+38
-0.0067885718 -0.61776006 2.3760002 -2.6365181e+38
-0.0022628573 -0.61776006 2.3760002 -2.6767079e+38
0.0022942859 -0.62634003 2.4090002 -2.7299302e+38
0.0068342863 -0.62192005 2.3920002 -2.7834125e+38
0.011471429 -0.62634003 2.4090002 -2.8103102e+38
0.01606 -0.62634003 2.4090002 -2.8510713e+38
0.020648573 -0.62634003 2.4090002 -2.877865e+38
0.025237145 -0.62634003 2.4090002 -2.9046585e+38
0.029825715 -0.62634003 2.4090002 -2.9048674e+38
0.034657147 -0.63076001 2.4260001 -2.9053355e+38
0.039278097 -0.63076001 2.4260001 -2.8522708e+38
0.043899052 -0.63076001 2.4260001 -2.799626e+38
0.048520003 -0.63076001 2.4260001 -3.2933147e+38
0.053140957 -0.63076001 2.4260001 nan
0.057761908 -0.63076001 2.4260001 nan
0.061945718 -0.62634003 2.4090002 nan
-0.42636287 -0.6836943 2.6490002 nan
-0.42131716 -0.6836943 2.6490002 nan
-0.41627145 -0.6836943 2.6490002 nan
-0.40812099 -0.67853242 2.6290002 nan
-0.40004671 -0.67337054 2.6090002 nan
-0.39507717 -0.67337054 2.6090002 -3.3705061e+38
-0.38711718 -0.6682086 2.5890002 -1.8243324e+38
-0.38218573 -0.6682086 2.5890002 -2.1019527e+38
-0.37448573 -0.66330481 2.5700002 -2.381926e+38
-0.36685812 -0.65840101 2.5510001 -2.3692094e+38
-0.35674858 -0.64885145 2.5140002 -2.3557617e+38
-0.34944001 -0.64420575 2.4960001 -2.382295e+38
-0.34468573 -0.64420575 2.4960001 -2.3962099e+38
-0.33748001 -0.63956004 2.4780002 -2.4362423e+38
-0.33034289 -0.63491434 2.46 -2.475963e+38
-0.3234067 -0.63052672 2.4430001 -2.4491705e+38
-0.31875336 -0.63052672 2.4430001 -2.4223253e+38
-0.31410003 -0.63052672 2.4430001 -2.3955321e+38
-0.30944669 -0.63052672 2.4430001 -2.3688429e+38
-0.30479336 -0.63052672 2.4430001 -2.3422058e+38
-0.30014002 -0.63052672 2.4430001 -2.3155691e+38
-0.29343051 -0.6261391 2.4260001 -2.3022766e+38
-0.29083335 -0.63052672 2.4430001 -2.275744e+38
-0.28618002 -0.63052672 2.4430001 -2.2624519e+38
-0.28152668 -0.63052672 2.4430001 -2.249056e+38
-0.27687335 -0.63052672 2.4430001 -2.222368e+38
-0.27032572 -0.6261391 2.4260001 -2.1957836e+38
-0.26570478 -0.6261391 2.4260001 -2.1824917e+38
-0.25925431 -0.62175149 2.4090002 -2.1691997e+38
-0.25646287 -0.6261391 2.4260001 -2.1824921e+38
-0.25184193 -0.6261391 2.4260001 -2.1957321e+38
-0.24722096 -0.6261391 2.4260001 -2.2355566e+38
-0.24090001 -0.62175149 2.4090002 -2.262245e+38
-0.23797907 -0.6261391 2.4260001 -2.2489527e+38
-0.23172288 -0.62175149 2.4090002 -2.2356606e+38
-0.2271343 -0.62175149 2.4090002 -2.2224205e+38
-0.22254573 -0.62175149 2.4090002 -2.2091801e+38
-0.21795715 -0.62175149 2.4090002 -2.2092842e+38
-0.21186288 -0.61736387 2.3920002 -2.2091284e+38
-0.20730668 -0.61736387 2.3920002 -2.2223688e+38
-0.20275049 -0.61736387 2.3920002 -2.2223686e+38
-0.1981943 -0.61736387 2.3920002 -2.2222645e+38
-0.1936381 -0.61736387 2.3920002 -2.2222647e+38
-0.18908192 -0.61736387 2.3920002 -2.2222649e+38
-0.18329144 -0.61323434 2.3760002 -2.2222651e+38
-0.17876573 -0.61323434 2.3760002 -2.2222653e+38
-0.17424001 -0.61323434 2.3760002 -2.2222653e+38
-0.1697143 -0.61323434 2.3760002 -2.2222651e+38
-0.16518858 -0.61323434 2.3760002 -2.2223171e+38
-0.16066287 -0.61323434 2.3760002 -2.2489016e+38
-0.15502001 -0.60884672 2.3590002 -2.2755379e+38
-0.15052667 -0.60884672 2.3590002 -2.2756417e+38
-0.13581906 -0.56626099 2.194 -2.2756937e+38
-0.13164 -0.56626099 2.194 -2.2757458e+38
-0.12670572 -0.56290573 2.181 -2.2753819e+38
-0.12176477 -0.55929244 2.1670001 -2.0223607e+38
-0.11763715 -0.55929244 2.1670001 -1.7691849e+38
-0.11424287 -0.56290573 2.181 -2.0604216e+38
-0.11008858 -0.56290573 2.181 -2.3563884e+38
-0.10593429 -0.56290573 2.181 -3.3311961e+38
-0.10178 -0.56290573 2.181 nan
-0.097625718 -0.56290573 2.181 nan
-0.093471438 -0.56290573 2.181 nan
-0.08931715 -0.56290573 2.181 nan
-0.085162863 -0.56290573 2.181 nan
-0.081491433 -0.56626099 2.194 nan
-0.076854289 -0.56290573 2.181 nan
-0.072700001 -0.56290573 2.181 nan
-0.068545721 -0.56290573 2.181 nan
-0.064775243 -0.56626099 2.194 nan
-0.060596194 -0.56626099 2.194 nan
-0.056417145 -0.56626099 2.194 nan
-0.052571431 -0.56987435 2.2080002 -3.0615015e+38
-0.048365716 -0.56987435 2.2080002 -2.7812739e+38
-0.044460002 -0.57374573 2.223 -2.5024482e+38
-0.040479049 -0.57735908 2.237 -2.4895199e+38
-0.03668762 -0.58484387 2.266 -2.4760196e+38
-0.032371432 -0.58484387 2.266 -2.502552e+38
-0.028439049 -0.59284478 2.2970002 -2.5291891e+38
-0.024713336 -0.60884672 2.3590002 -2.5423779e+38
-0.020365715 -0.61323434 2.3760002 -2.5560345e+38
-0.015840001 -0.61323434 2.3760002 -2.5827758e+38
-0.011314287 -0.61323434 2.3760002 -2.5963285e+38
-0.0067885718 -0.61323434 2.3760002 -2.6231737e+38
-0.0022628573 -0.61323434 2.3760002 -2.649967e+38
0.0022942859 -0.62175149 2.4090002 -2.703241e+38
0.0068342863 -0.61736387 2.3920002 -2.7566705e+38
0.011390476 -0.61736387 2.3920002 -2.7700675e+38
0.015946668 -0.61736387 2.3920002 -2.7839335e+38
0.020648573 -0.62175149 2.4090002 -2.7976957e+38
0.025237145 -0.62175149 2.4090002 -2.8114042e+38
0.030036192 -0.6261391 2.4260001 -2.8515417e+38
0.034657147 -0.6261391 2.4260001 -2.8783341e+38
0.039278097 -0.6261391 2.4260001 -2.8119251e+38
0.043899052 -0.6261391 2.4260001 -2.7329018e+38
0.048520003 -0.6261391 2.4260001 -2.9997895e+38
0.053140957 -0.6261391 2.4260001 -3.2674041e+38
0.058166672 -0.63052672 2.4430001 nan
0.062382862 -0.6261391 2.4260001 nan
-0.42131716 -0.67864859 2.6490002 nan
-0.41627145 -0.67864859 2.6490002 nan
-0.41122574 -0.67864859 2.6490002 nan
-0.40311337 -0.6735248 2.6290002 nan
-0.39507717 -0.668401 2.6090002 -3.3431952e+38
-0.39010763 -0.668401 2.6090002 -1.782433e+38
-0.38218573 -0.66327721 2.5890002 -2.1155608e+38
-0.37448573 -0.6584096 2.5700002 -2.4485978e+38
-0.36685812 -0.65354192 2.5510001 -2.4354641e+38
-0.35674858 -0.64406288 2.5140002 -2.422016e+38
-0.34944001 -0.63945144 2.4960001 -2.4625157e+38
-0.34220001 -0.63484007 2.4780002 -2.5030678e+38
-0.33502859 -0.63022864 2.46 -2.4895159e+38
-0.33034289 -0.63022864 2.46 -2.4892559e+38
-0.3234067 -0.62587339 2.4430001 -2.4489632e+38
-0.31875336 -0.62587339 2.4430001 -2.4220657e+38
-0.31410003 -0.62587339 2.4430001 -2.3954276e+38
-0.30944669 -0.62587339 2.4430001 -2.3554461e+38
-0.30479336 -0.62587339 2.4430001 -2.3288605e+38
-0.30014002 -0.62587339 2.4430001 -2.3022758e+38
-0.29343051 -0.62151814 2.4260001 -2.2889833e+38
-0.29083335 -0.62587339 2.4430001 -2.2757955e+38
-0.28618002 -0.62587339 2.4430001 -2.2624e+38
-0.28152668 -0.62587339 2.4430001 -2.2624004e+38
-0.27494669 -0.62151814 2.4260001 -2.2356602e+38
-0.27032572 -0.62151814 2.4260001 -2.2223164e+38
-0.26570478 -0.62151814 2.4260001 -2.2090246e+38
-0.25925431 -0.61716288 2.4090002 -2.2089726e+38
-0.25646287 -0.62151814 2.4260001 -2.2090246e+38
-0.25184193 -0.62151814 2.4260001 -2.2089722e+38
-0.24722096 -0.62151814 2.4260001 -2.2222641e+38
-0.24260001 -0.62151814 2.4260001 -2.2356085e+38
-0.23797907 -0.62151814 2.4260001 -2.248901e+38
-0.23172288 -0.61716288 2.4090002 -2.2489014e+38
-0.2271343 -0.61716288 2.4090002 -2.2356613e+38
-0.22254573 -0.61716288 2.4090002 -2.2224213e+38
-0.21795715 -0.61716288 2.4090002 -2.2357138e+38
-0.21186288 -0.61280763 2.3920002 -2.2356615e+38
-0.20730668 -0.61280763 2.3920002 -2.2356611e+38
-0.20275049 -0.61280763 2.3920002 -2.2489531e+38
-0.1981943 -0.61280763 2.3920002 -2.2356087e+38
-0.1936381 -0.61280763 2.3920002 -2.235557e+38
-0.18781716 -0.60870862 2.3760002 -2.2222649e+38
-0.18329144 -0.60870862 2.3760002 -2.2222134e+38
-0.17876573 -0.60870862 2.3760002 -2.2222136e+38
-0.17424001 -0.60870862 2.3760002 -2.2222653e+38
-0.1697143 -0.60870862 2.3760002 -2.2222651e+38
-0.16518858 -0.60870862 2.3760002 -2.2223171e+38
-0.15951334 -0.60435337 2.3590002 -2.2356093e+38
-0.15502001 -0.60435337 2.3590002 -2.2622458e+38
-0.13999811 -0.56208193 2.194 -2.2756419e+38
-0.13581906 -0.56208193 2.194 -2.2756941e+38
-0.13164 -0.56208193 2.194 -2.1424599e+38
-0.12670572 -0.55875146 2.181 -1.9960357e+38
-0.12176477 -0.55516481 2.1670001 -2.2614126e+38
-0.11763715 -0.55516481 2.1670001 -2.5125654e+38
-0.11350953 -0.55516481 2.1670001 -3.0081195e+38
-0.10938191 -0.55516481 2.1670001 nan
-0.10525429 -0.55516481 2.1670001 nan
-0.10112667 -0.55516481 2.1670001 nan
-0.096999057 -0.55516481 2.1670001 nan
-0.093471438 -0.55875146 2.181 nan
-0.08931715 -0.55875146 2.181 nan
-0.085162863 -0.55875146 2.181 nan
-0.081008576 -0.55875146 2.181 nan
-0.076854289 -0.55875146 2.181 nan
-0.072700001 -0.55875146 2.181 nan
-0.068545721 -0.55875146 2.181 nan
-0.064775243 -0.56208193 2.194 nan
-0.060596194 -0.56208193 2.194 nan
-0.056417145 -0.56208193 2.194 nan
-0.052571431 -0.56566858 2.2080002 nan
-0.048365716 -0.56566858 2.2080002 -3.1008581e+38
-0.044460002 -0.56951147 2.223 -2.5822012e+38
-0.040479049 -0.57309812 2.237 -2.5692219e+38
-0.036460955 -0.57694101 2.2520001 -2.5556177e+38
-0.032371432 -0.58052766 2.266 -2.555773e+38
-0.028240955 -0.58437049 2.2810001 -2.569014e+38
-0.024220955 -0.5923124 2.312 -2.5691702e+38
-0.020220002 -0.60435337 2.3590002 -2.5694306e+38
-0.015840001 -0.60870862 2.3760002 -2.5827756e+38
-0.011314287 -0.60870862 2.3760002 -2.5962247e+38
-0.0067885718 -0.60870862 2.3760002 -2.6230178e+38
-0.0022628573 -0.60870862 2.3760002 -2.6498106e+38
0.0022942859 -0.61716288 2.4090002 -2.6766554e+38
0.0068342863 -0.61280763 2.3920002 -2.716844e+38
0.011390476 -0.61280763 2.3920002 -2.7433766e+38
0.015946668 -0.61280763 2.3920002 -2.7567245e+38
0.020648573 -0.61716288 2.4090002 -2.7839877e+38
0.025237145 -0.61716288 2.4090002 -2.8245401e+38
0.029825715 -0.61716288 2.4090002 -2.8511253e+38
0.034414288 -0.61716288 2.4090002 -2.8914175e+38
0.039278097 -0.62151814 2.4260001 -2.864833e+38
0.043899052 -0.62151814 2.4260001 -2.8386139e+38
0.048520003 -0.62151814 2.4260001 -2.7593813e+38
0.053140957 -0.62151814 2.4260001 -2.6940683e+38
0.057761908 -0.62151814 2.4260001 nan
0.062382862 -0.62151814 2.4260001 nan
0.066534288 -0.61716288 2.4090002 nan
-0.42449811 -0.67868865 2.6690001 nan
-0.41627145 -0.67360288 2.6490002 nan
-0.41122574 -0.67360288 2.6490002 nan
-0.40311337 -0.66851717 2.6290002 nan
-0.39810574 -0.66851717 2.6290002 -3.3289669e+38
-0.39010763 -0.66343147 2.6090002 -1.7304043e+38
-0.38513812 -0.66343147 2.6090002 -2.1159222e+38
-0.37448573 -0.65351433 2.5700002 -2.5018174e+38
-0.36959049 -0.65351433 2.5700002 -2.4886326e+38
-0.35674858 -0.6392743 2.5140002 -2.4754961e+38
-0.34944001 -0.6346972 2.4960001 -2.5426323e+38
-0.34220001 -0.63012004 2.4780002 -2.5960093e+38
-0.33502859 -0.62554288 2.46 -2.5428406e+38
-0.33034289 -0.62554288 2.46 -2.489048e+38
-0.3234067 -0.62122005 2.4430001 -2.4619438e+38
-0.31875336 -0.62122005 2.4430001 -2.422014e+38
-0.31410003 -0.62122005 2.4430001 -2.3819804e+38
-0.30944669 -0.62122005 2.4430001 -2.3421023e+38
-0.30479336 -0.62122005 2.4430001 -2.3155168e+38
-0.29805145 -0.61689717 2.4260001 -2.2889322e+38
-0.29343051 -0.61689717 2.4260001 -2.2756397e+38
-0.29083335 -0.62122005 2.4430001 -2.2623998e+38
-0.28618002 -0.62122005 2.4430001 -2.2622961e+38
-0.28152668 -0.62122005 2.4430001 -2.2622963e+38
-0.27494669 -0.61689717 2.4260001 -2.2489004e+38
-0.27032572 -0.61689717 2.4260001 -2.2355562e+38
-0.26570478 -0.61689717 2.4260001 -2.2488487e+38
-0.26108384 -0.61689717 2.4260001 -2.2488487e+38
-0.25646287 -0.61689717 2.4260001 -2.2355564e+38
-0.25184193 -0.61689717 2.4260001 -2.2089716e+38
-0.24722096 -0.61689717 2.4260001 -2.2089716e+38
-0.24260001 -0.61689717 2.4260001 -2.2089716e+38
-0.23797907 -0.61689717 2.4260001 -2.2355564e+38
-0.23172288 -0.61257434 2.4090002 -2.2621931e+38
-0.2271343 -0.61257434 2.4090002 -2.248901e+38
-0.22254573 -0.61257434 2.4090002 -2.2356608e+38
-0.21795715 -0.61257434 2.4090002 -2.2489533e+38
-0.21186288 -0.60825145 2.3920002 -2.262245e+38
-0.20730668 -0.60825145 2.3920002 -2.2622446e+38
-0.20275049 -0.60825145 2.3920002 -2.2621927e+38
-0.1981943 -0.60825145 2.3920002 -2.2488485e+38
-0.1936381 -0.60825145 2.3920002 -2.2355566e+38
-0.18781716 -0.6041829 2.3760002 -2.2222647e+38
-0.18329144 -0.6041829 2.3760002 -2.2089207e+38
-0.17876573 -0.6041829 2.3760002 -2.208869e+38
-0.17424001 -0.6041829 2.3760002 -2.2089209e+38
-0.1697143 -0.6041829 2.3760002 -2.2089731e+38
-0.16518858 -0.6041829 2.3760002 -2.2090252e+38
-0.16066287 -0.6041829 2.3760002 -2.2356099e+38
-0.15613715 -0.6041829 2.3760002 -2.2489543e+38
-0.13999811 -0.55790287 2.194 -2.2622988e+38
-0.1350143 -0.5545972 2.181 -2.2753833e+38
-0.13086002 -0.5545972 2.181 -1.9957782e+38
-0.12589239 -0.55103719 2.1670001 -1.7164328e+38
-0.12176477 -0.55103719 2.1670001 -2.4881119e+38
-0.11763715 -0.55103719 2.1670001 -3.2618226e+38
-0.11350953 -0.55103719 2.1670001 nan
-0.10938191 -0.55103719 2.1670001 nan
-0.10525429 -0.55103719 2.1670001 nan
-0.10112667 -0.55103719 2.1670001 nan
-0.096999057 -0.55103719 2.1670001 nan
-0.092871435 -0.55103719 2.1670001 nan
-0.08931715 -0.5545972 2.181 nan
-0.084616199 -0.55103719 2.1670001 nan
-0.081008576 -0.5545972 2.181 nan
-0.076360956 -0.55103719 2.1670001 nan
-0.072700001 -0.5545972 2.181 nan
-0.068545721 -0.5545972 2.181 nan
-0.064775243 -0.55790287 2.194 nan
-0.060596194 -0.55790287 2.194 nan
-0.056417145 -0.55790287 2.194 nan
-0.052571431 -0.56146288 2.2080002 nan
-0.048365716 -0.56146288 2.2080002 nan
-0.044460002 -0.56527716 2.223 -2.6618496e+38
-0.040479049 -0.56883717 2.237 -2.6494429e+38
-0.036460955 -0.57265145 2.2520001 -2.6358906e+38
-0.032371432 -0.57621145 2.266 -2.6224941e+38
-0.028055239 -0.57621145 2.266 -2.5957541e+38
-0.023896191 -0.58002573 2.2810001 -2.5824623e+38
-0.019945716 -0.59172291 2.3270001 -2.5693264e+38
-0.015726667 -0.59986001 2.3590002 -2.5826714e+38
-0.011233334 -0.59986001 2.3590002 -2.582828e+38
-0.0067885718 -0.6041829 2.3760002 -2.6094655e+38
-0.0022628573 -0.6041829 2.3760002 -2.6363622e+38
0.0022780953 -0.60825145 2.3920002 -2.6632071e+38
0.0068342863 -0.60825145 2.3920002 -2.6766556e+38
0.011390476 -0.60825145 2.3920002 -2.7033442e+38
0.015946668 -0.60825145 2.3920002 -2.7301381e+38
0.020648573 -0.61257434 2.4090002 -2.7836204e+38
0.025237145 -0.61257434 2.4090002 -2.8237584e+38
0.029825715 -0.61257434 2.4090002 -2.8635848e+38
0.034414288 -0.61257434 2.4090002 -2.8905853e+38
0.039002858 -0.61257434 2.4090002 -2.917378e+38
0.043899052 -0.61689717 2.4260001 -2.9442751e+38
0.048520003 -0.61689717 2.4260001 -2.5315922e+38
0.053140957 -0.61689717 2.4260001 -2.1083234e+38
0.057761908 -0.61689717 2.4260001 nan
0.062382862 -0.61689717 2.4260001 nan
0.067003816 -0.61689717 2.4260001 nan
-0.42449811 -0.67360479 2.6690001 nan
-0.41627145 -0.66855717 2.6490002 nan
-0.41122574 -0.66855717 2.6490002 nan
-0.40311337 -0.66350955 2.6290002 nan
-0.39810574 -0.66350955 2.6290002 -3.3152057e+38
-0.39010763 -0.65846193 2.6090002 -1.728066e+38
-0.38513812 -0.65846193 2.6090002 -2.0889203e+38
-0.37725431 -0.65341431 2.5890002 -2.4621989e+38
-0.36959049 -0.64861912 2.5700002 -2.4354629e+38
-0.35674858 -0.63448578 2.5140002 -2.4088783e+38
-0.34944001 -0.62994289 2.4960001 -2.4627741e+38
-0.34220001 -0.62540007 2.4780002 -2.5031187e+38
-0.33748001 -0.62540007 2.4780002 -2.4760672e+38
-0.33034289 -0.62085718 2.46 -2.4622034e+38
-0.32565716 -0.62085718 2.46 -2.4220665e+38
-0.32097146 -0.62085718 2.46 -2.3820854e+38
-0.31410003 -0.61656672 2.4430001 -2.3553964e+38
-0.30944669 -0.61656672 2.4430001 -2.3154665e+38
-0.30479336 -0.61656672 2.4430001 -2.2889326e+38
-0.29805145 -0.61227626 2.4260001 -2.2756403e+38
-0.29343051 -0.61227626 2.4260001 -2.2624e+38
-0.28880954 -0.61227626 2.4260001 -2.2491077e+38
-0.2841886 -0.61227626 2.4260001 -2.2622961e+38
-0.27956763 -0.61227626 2.4260001 -2.2755365e+38
-0.27494669 -0.61227626 2.4260001 -2.2621403e+38
-0.27032572 -0.61227626 2.4260001 -2.2620365e+38
-0.26570478 -0.61227626 2.4260001 -2.2620882e+38
-0.26108384 -0.61227626 2.4260001 -2.2620363e+38
-0.25646287 -0.61227626 2.4260001 -2.2355037e+38
-0.25184193 -0.61227626 2.4260001 -2.2222635e+38
-0.24722096 -0.61227626 2.4260001 -2.2089712e+38
-0.24260001 -0.61227626 2.4260001 -2.2089712e+38
-0.23797907 -0.61227626 2.4260001 -2.2222635e+38
-0.23172288 -0.60798573 2.4090002 -2.2356079e+38
-0.2271343 -0.60798573 2.4090002 -2.2356079e+38
-0.22254573 -0.60798573 2.4090002 -2.2355562e+38
-0.21795715 -0.60798573 2.4090002 -2.2356081e+38
-0.21186288 -0.60369527 2.3920002 -2.2356075e+38
-0.20730668 -0.60369527 2.3920002 -2.2488992e+38
-0.20275049 -0.60369527 2.3920002 -2.2621397e+38
-0.1981943 -0.60369527 2.3920002 -2.2487957e+38
-0.1936381 -0.60369527 2.3920002 -2.2355043e+38
-0.18908192 -0.60369527 2.3920002 -2.2221607e+38
-0.18329144 -0.59965718 2.3760002 -2.2221607e+38
-0.17876573 -0.59965718 2.3760002 -2.2221607e+38
-0.17424001 -0.59965718 2.3760002 -2.2222132e+38
-0.1697143 -0.59965718 2.3760002 -2.2089733e+38
-0.16518858 -0.59965718 2.3760002 -2.1957333e+38
-0.16066287 -0.59965718 2.3760002 -2.209026e+38
-0.14509715 -0.55725718 2.2080002 -2.2223706e+38
-0.13999811 -0.55372387 2.194 -2.1157212e+38
-0.1350143 -0.55044287 2.181 -2.0094347e+38
-0.13086002 -0.55044287 2.181 -2.2748128e+38
-0.12589239 -0.54690957 2.1670001 -2.5390504e+38
-0.12176477 -0.54690957 2.1670001 -3.2486313e+38
-0.11763715 -0.54690957 2.1670001 nan
-0.11350953 -0.54690957 2.1670001 nan
-0.10938191 -0.54690957 2.1670001 nan
-0.10525429 -0.54690957 2.1670001 nan
-0.10112667 -0.54690957 2.1670001 nan
-0.096999057 -0.54690957 2.1670001 nan
-0.092871435 -0.54690957 2.1670001 nan
-0.088743813 -0.54690957 2.1670001 nan
-0.084616199 -0.54690957 2.1670001 nan
-0.080488577 -0.54690957 2.1670001 nan
-0.076360956 -0.54690957 2.1670001 nan
-0.072233342 -0.54690957 2.1670001 nan
-0.068545721 -0.55044287 2.181 nan
-0.064775243 -0.55372387 2.194 nan
-0.060596194 -0.55372387 2.194 nan
-0.056417145 -0.55372387 2.194 nan
-0.052571431 -0.55725718 2.2080002 nan
-0.048365716 -0.55725718 2.2080002 -3.2874121e+38
-0.044160005 -0.55725718 2.2080002 -2.2629241e+38
-0.040479049 -0.56457621 2.237 -2.4499546e+38
-0.036460955 -0.56836194 2.2520001 -2.6362539e+38
-0.032171432 -0.56836194 2.2520001 -2.6094093e+38
-0.028055239 -0.5718953 2.266 -2.5825136e+38
-0.023896191 -0.57568097 2.2810001 -2.5692217e+38
-0.019817144 -0.5835048 2.312 -2.5426378e+38
-0.015620001 -0.59132862 2.3430002 -2.5560343e+38
-0.011157144 -0.59132862 2.3430002 -2.5561391e+38
-0.0067885718 -0.59965718 2.3760002 -2.5961206e+38
-0.0022628573 -0.59965718 2.3760002 -2.6362581e+38
0.0022780953 -0.60369527 2.3920002 -2.6496031e+38
0.0068342863 -0.60369527 2.3920002 -2.6631037e+38
0.011390476 -0.60369527 2.3920002 -2.6898964e+38
0.015946668 -0.60369527 2.3920002 -2.7166363e+38
0.020502858 -0.60369527 2.3920002 -2.7567723e+38
0.025237145 -0.60798573 2.4090002 -2.7966516e+38
0.029825715 -0.60798573 2.4090002 -2.8101021e+38
0.034414288 -0.60798573 2.4090002 -2.8233954e+38
0.039002858 -0.60798573 2.4090002 -2.8771367e+38
0.043591432 -0.60798573 2.4090002 -2.9311366e+38
0.048520003 -0.61227626 2.4260001 -2.4779008e+38
0.053140957 -0.61227626 2.4260001 -2.0385373e+38
0.057761908 -0.61227626 2.4260001 nan
0.062382862 -0.61227626 2.4260001 nan
0.067003816 -0.61227626 2.4260001 nan
-0.42449811 -0.66852099 2.6690001 nan
-0.41627145 -0.66351146 2.6490002 nan
-0.41122574 -0.66351146 2.6490002 nan
-0.40311337 -0.65850192 2.6290002 nan
-0.39810574 -0.65850192 2.6290002 -3.2865381e+38
-0.39309812 -0.65850192 2.6290002 -1.7161728e+38
-0.38513812 -0.65349245 2.6090002 -2.075992e+38
-0.37725431 -0.64848292 2.5890002 -2.4220627e+38
-0.36959049 -0.64372385 2.5700002 -2.3821901e+38
-0.35674858 -0.6296972 2.5140002 -2.3426248e+38
-0.34944001 -0.62518859 2.4960001 -2.3831249e+38
-0.34220001 -0.62068003 2.4780002 -2.4097614e+38
-0.33502859 -0.61617148 2.46 -2.4226904e+38
-0.33034289 -0.61617148 2.46 -2.4222744e+38
-0.3234067 -0.61191338 2.4430001 -2.3820335e+38
-0.31875336 -0.61191338 2.4430001 -2.3421042e+38
-0.31410003 -0.61191338 2.4430001 -2.3154671e+38
-0.30944669 -0.61191338 2.4430001 -2.2889336e+38
-0.30267239 -0.60765529 2.4260001 -2.2756407e+38
-0.29805145 -0.60765529 2.4260001 -2.2491079e+38
-0.29343051 -0.60765529 2.4260001 -2.2491079e+38
-0.28880954 -0.60765529 2.4260001 -2.2357635e+38
-0.28618002 -0.61191338 2.4430001 -2.2622442e+38
-0.27956763 -0.60765529 2.4260001 -2.2754326e+38
-0.27494669 -0.60765529 2.4260001 -2.2885689e+38
-0.27032572 -0.60765529 2.4260001 -2.2886207e+38
-0.26570478 -0.60765529 2.4260001 -2.2886724e+38
-0.25925431 -0.60339719 2.4090002 -2.2753801e+38
-0.25646287 -0.60765529 2.4260001 -2.2487953e+38
-0.25184193 -0.60765529 2.4260001 -2.222211e+38
-0.24722096 -0.60765529 2.4260001 -2.2089187e+38
-0.24090001 -0.60339719 2.4090002 -2.1956266e+38
-0.23631145 -0.60339719 2.4090002 -2.1956268e+38
-0.23172288 -0.60339719 2.4090002 -2.1956789e+38
-0.2271343 -0.60339719 2.4090002 -2.2223156e+38
-0.22254573 -0.60339719 2.4090002 -2.2356596e+38
-0.21795715 -0.60339719 2.4090002 -2.2223671e+38
-0.21186288 -0.59913909 2.3920002 -2.2090745e+38
-0.20730668 -0.59913909 2.3920002 -2.2356067e+38
-0.20275049 -0.59913909 2.3920002 -2.2620359e+38
-0.1981943 -0.59913909 2.3920002 -2.2485882e+38
-0.1936381 -0.59913909 2.3920002 -2.2354002e+38
-0.18781716 -0.59513146 2.3760002 -2.2353485e+38
-0.18329144 -0.59513146 2.3760002 -2.2221605e+38
-0.17876573 -0.59513146 2.3760002 -2.2221607e+38
-0.17424001 -0.59513146 2.3760002 -2.2222128e+38
-0.1697143 -0.59513146 2.3760002 -2.2089209e+38
-0.16400668 -0.59087336 2.3590002 -2.1823885e+38
-0.15031715 -0.55680859 2.223 -2.1823889e+38
-0.14417715 -0.54954481 2.194 -2.1820761e+38
-0.13999811 -0.54954481 2.194 -1.9554833e+38
-0.1350143 -0.54628861 2.181 -1.7297247e+38
-0.13086002 -0.54628861 2.181 -2.5416985e+38
-0.12589239 -0.54278195 2.1670001 -3.3551306e+38
-0.12176477 -0.54278195 2.1670001 nan
-0.11763715 -0.54278195 2.1670001 nan
-0.11350953 -0.54278195 2.1670001 nan
-0.10938191 -0.54278195 2.1670001 nan
-0.10525429 -0.54278195 2.1670001 nan
-0.10112667 -0.54278195 2.1670001 nan
-0.096999057 -0.54278195 2.1670001 nan
-0.092871435 -0.54278195 2.1670001 nan
-0.088743813 -0.54278195 2.1670001 nan
-0.084616199 -0.54278195 2.1670001 nan
-0.080488577 -0.54278195 2.1670001 nan
-0.076360956 -0.54278195 2.1670001 nan
-0.072233342 -0.54278195 2.1670001 nan
-0.068545721 -0.54628861 2.181 nan
-0.064775243 -0.54954481 2.194 nan
-0.060596194 -0.54954481 2.194 nan
-0.056417145 -0.54954481 2.194 nan
-0.052238099 -0.54954481 2.194 nan
-0.048365716 -0.55305147 2.2080002 -3.1653436e+38
-0.044460002 -0.55680859 2.223 -1.8642094e+38
-0.040479049 -0.56031525 2.237 -2.2511945e+38
-0.036460955 -0.56407243 2.2520001 -2.623222e+38
-0.032371432 -0.56757909 2.266 -2.5963772e+38
-0.028055239 -0.56757909 2.266 -2.5694811e+38
-0.023739049 -0.56757909 2.266 -2.5426369e+38
-0.019688573 -0.57534385 2.2970002 -2.5160526e+38
-0.015513334 -0.58285815 2.3270001 -2.5293453e+38
-0.011080953 -0.58285815 2.3270001 -2.529398e+38
-0.0067400006 -0.59087336 2.3590002 -2.5825679e+38
-0.0022466667 -0.59087336 2.3590002 -2.6226016e+38
0.0022780953 -0.59913909 2.3920002 -2.6357908e+38
0.0068342863 -0.59913909 2.3920002 -2.6496029e+38
0.011390476 -0.59913909 2.3920002 -2.6765516e+38
0.015946668 -0.59913909 2.3920002 -2.6901034e+38
0.020502858 -0.59913909 2.3920002 -2.7302401e+38
0.025237145 -0.60339719 2.4090002 -2.7701186e+38
0.029825715 -0.60339719 2.4090002 -2.756776e+38
0.034414288 -0.60339719 2.4090002 -2.7435366e+38
0.039002858 -0.60339719 2.4090002 -2.8366357e+38
0.043591432 -0.60339719 2.4090002 -2.9165444e+38
0.048180003 -0.60339719 2.4090002 -2.4368275e+38
0.053140957 -0.60765529 2.4260001 -1.9600805e+38
0.057761908 -0.60765529 2.4260001 nan
0.062382862 -0.60765529 2.4260001 nan
0.067003816 -0.60765529 2.4260001 nan
-0.42449811 -0.66343719 2.6690001 nan
-0.41627145 -0.65846574 2.6490002 nan
-0.41122574 -0.65846574 2.6490002 nan
-0.40618002 -0.65846574 2.6490002 nan
-0.39810574 -0.65349436 2.6290002 -3.3013818e+38
-0.39309812 -0.65349436 2.6290002 -1.7147163e+38
-0.38809049 -0.65349436 2.6290002 -2.0753696e+38
-0.37725431 -0.64355147 2.5890002 -2.4487515e+38
-0.37232289 -0.64355147 2.5890002 -2.4088266e+38
-0.35930288 -0.62938291 2.5320001 -2.369054e+38
-0.34944001 -0.62043434 2.4960001 -2.3963138e+38
-0.34220001 -0.61596006 2.4780002 -2.43645e+38
-0.33502859 -0.61148578 2.46 -2.4359825e+38
-0.33034289 -0.61148578 2.46 -2.4222223e+38
-0.32565716 -0.61148578 2.46 -2.382085e+38
-0.31875336 -0.60726005 2.4430001 -2.3420518e+38
-0.31410003 -0.60726005 2.4430001 -2.3155184e+38
-0.30944669 -0.60726005 2.4430001 -2.2889336e+38
-0.30267239 -0.60303432 2.4260001 -2.2623486e+38
-0.29805145 -0.60303432 2.4260001 -2.2491081e+38
-0.29343051 -0.60303432 2.4260001 -2.2357637e+38
-0.29083335 -0.60726005 2.4430001 -2.2356598e+38
-0.2841886 -0.60303432 2.4260001 -2.2356077e+38
-0.27956763 -0.60303432 2.4260001 -2.2355556e+38
-0.27494669 -0.60303432 2.4260001 -2.262088e+38
-0.27032572 -0.60303432 2.4260001 -2.2753801e+38
-0.26570478 -0.60303432 2.4260001 -2.2620874e+38
-0.25925431 -0.59880859 2.4090002 -2.248743e+38
-0.25646287 -0.60303432 2.4260001 -2.2355024e+38
-0.25184193 -0.60303432 2.4260001 -2.2355026e+38
-0.24722096 -0.60303432 2.4260001 -2.2222104e+38
-0.24090001 -0.59880859 2.4090002 -2.2089185e+38
-0.23631145 -0.59880859 2.4090002 -2.1956266e+38
-0.23172288 -0.59880859 2.4090002 -2.195627e+38
-0.2271343 -0.59880859 2.4090002 -2.2090234e+38
-0.22254573 -0.59880859 2.4090002 -2.2357111e+38
-0.21641906 -0.59458292 2.3920002 -2.2223663e+38
-0.21186288 -0.59458292 2.3920002 -2.2223663e+38
-0.20730668 -0.59458292 2.3920002 -2.2222623e+38
-0.20275049 -0.59458292 2.3920002 -2.2353994e+38
-0.1981943 -0.59458292 2.3920002 -2.2221597e+38
-0.1936381 -0.59458292 2.3920002 -2.2088674e+38
-0.18908192 -0.59458292 2.3920002 -2.2089191e+38
-0.18452573 -0.59458292 2.3920002 -2.222212e+38
-0.17876573 -0.59060574 2.3760002 -2.235453e+38
-0.17424001 -0.59060574 2.3760002 -2.2487452e+38
-0.1697143 -0.59060574 2.3760002 -2.2487972e+38
-0.16518858 -0.59060574 2.3760002 -2.2489014e+38
-0.14930287 -0.54884577 2.2080002 -2.1955767e+38
-0.14417715 -0.54536575 2.194 -2.1421454e+38
-0.13999811 -0.54536575 2.194 -2.2477019e+38
-0.1350143 -0.54213434 2.181 -2.352955e+38
-0.13086002 -0.54213434 2.181 -3.1819622e+38
-0.12589239 -0.53865433 2.1670001 nan
-0.12176477 -0.53865433 2.1670001 nan
-0.11763715 -0.53865433 2.1670001 nan
-0.11424287 -0.54213434 2.181 nan
-0.10938191 -0.53865433 2.1670001 nan
-0.10525429 -0.53865433 2.1670001 nan
-0.10112667 -0.53865433 2.1670001 nan
-0.096999057 -0.53865433 2.1670001 nan
-0.092871435 -0.53865433 2.1670001 nan
-0.088743813 -0.53865433 2.1670001 nan
-0.084616199 -0.53865433 2.1670001 nan
-0.080488577 -0.53865433 2.1670001 nan
-0.076360956 -0.53865433 2.1670001 nan
-0.072233342 -0.53865433 2.1670001 nan
-0.068545721 -0.54213434 2.181 nan
-0.064391434 -0.54213434 2.181 nan
-0.060596194 -0.54536575 2.194 nan
-0.056417145 -0.54536575 2.194 nan
-0.052238099 -0.54536575 2.194 nan
-0.048365716 -0.54884577 2.2080002 -3.0874616e+38
-0.044160005 -0.54884577 2.2080002 -1.8510226e+38
-0.040479049 -0.55605429 2.237 -2.2508321e+38
-0.036460955 -0.55978292 2.2520001 -2.6501189e+38
-0.032171432 -0.55978292 2.2520001 -2.6231699e+38
-0.028055239 -0.56326288 2.266 -2.6096176e+38
-0.023739049 -0.56326288 2.266 -2.5695326e+38
-0.01955143 -0.56699145 2.2810001 -2.5293445e+38
-0.015413335 -0.5746972 2.312 -2.5293447e+38
-0.011009525 -0.5746972 2.312 -2.5426378e+38
-0.0066485717 -0.57842577 2.3270001 -2.5692229e+38
-0.0022314286 -0.58240288 2.3430002 -2.5959123e+38
0.0022628573 -0.59060574 2.3760002 -2.6093612e+38
0.0068342863 -0.59458292 2.3920002 -2.6363098e+38
0.011390476 -0.59458292 2.3920002 -2.6365701e+38
0.015946668 -0.59458292 2.3920002 -2.6503305e+38
0.020502858 -0.59458292 2.3920002 -2.6769675e+38
0.025237145 -0.59880859 2.4090002 -2.7170529e+38
0.029825715 -0.59880859 2.4090002 -2.7302419e+38
0.034414288 -0.59880859 2.4090002 -2.7434835e+38
0.039002858 -0.59880859 2.4090002 -2.7434847e+38
0.043591432 -0.59880859 2.4090002 -2.7569835e+38
0.048180003 -0.59880859 2.4090002 -2.3435195e+38
0.052768573 -0.59880859 2.4090002 -1.9307428e+38
0.057357147 -0.59880859 2.4090002 -3.3594142e+38
0.061945718 -0.59880859 2.4090002 nan
0.066534288 -0.59880859 2.4090002 nan
-0.42449811 -0.65835339 2.6690001 nan
-0.41627145 -0.65342003 2.6490002 nan
-0.41122574 -0.65342003 2.6490002 nan
-0.40618002 -0.65342003 2.6490002 nan
-0.39810574 -0.64848673 2.6290002 -3.3133803e+38
-0.39309812 -0.64848673 2.6290002 -1.7027766e+38
-0.38809049 -0.64848673 2.6290002 -2.0886113e+38
-0.38016859 -0.64355338 2.6090002 -2.4616809e+38
-0.37232289 -0.63862002 2.5890002 -2.4219631e+38
-0.35674858 -0.62012005 2.5140002 -2.3825018e+38
-0.34944001 -0.61568004 2.4960001 -2.423106e+38
-0.34220001 -0.61124003 2.4780002 -2.4628263e+38
-0.33502859 -0.60680002 2.46 -2.4492218e+38
-0.33034289 -0.60680002 2.46 -2.4222213e+38
-0.3234067 -0.60260671 2.4430001 -2.3819806e+38
-0.31875336 -0.60260671 2.4430001 -2.3287589e+38
-0.31410003 -0.60260671 2.4430001 -2.3022259e+38
-0.30944669 -0.60260671 2.4430001 -2.2755892e+38
-0.30267239 -0.59841335 2.4260001 -2.2622448e+38
-0.29805145 -0.59841335 2.4260001 -2.2357122e+38
-0.29343051 -0.59841335 2.4260001 -2.2357122e+38
-0.29083335 -0.60260671 2.4430001 -2.23566e+38
-0.28618002 -0.60260671 2.4430001 -2.2223158e+38
-0.27956763 -0.59841335 2.4260001 -2.1956789e+38
-0.27494669 -0.59841335 2.4260001 -2.2355556e+38
-0.27032572 -0.59841335 2.4260001 -2.262088e+38
-0.26570478 -0.59841335 2.4260001 -2.2487955e+38
-0.26108384 -0.59841335 2.4260001 -2.2222108e+38
-0.25646287 -0.59841335 2.4260001 -2.2355031e+38
-0.25007716 -0.59422004 2.4090002 -2.2355028e+38
-0.24548858 -0.59422004 2.4090002 -2.2221586e+38
-0.24090001 -0.59422004 2.4090002 -2.2088668e+38
-0.23631145 -0.59422004 2.4090002 -2.1955749e+38
-0.23008764 -0.59002668 2.3920002 -2.1823347e+38
-0.22553144 -0.59002668 2.3920002 -2.2089712e+38
-0.22097525 -0.59002668 2.3920002 -2.2223152e+38
-0.21641906 -0.59002668 2.3920002 -2.2222112e+38
-0.21186288 -0.59002668 2.3920002 -2.2222629e+38
-0.20730668 -0.59002668 2.3920002 -2.2089185e+38
-0.20275049 -0.59002668 2.3920002 -2.1956264e+38
-0.1981943 -0.59002668 2.3920002 -2.1824382e+38
-0.1936381 -0.59002668 2.3920002 -2.1690942e+38
-0.18908192 -0.59002668 2.3920002 -2.1957307e+38
-0.18452573 -0.59002668 2.3920002 -2.222212e+38
-0.17876573 -0.58608001 2.3760002 -2.2486931e+38
-0.16089335 -0.54118669 2.194 -2.2620375e+38
-0.15671429 -0.54118669 2.194 -2.2886223e+38
-0.15253524 -0.54118669 2.194 -2.3019661e+38
-0.14747715 -0.53798002 2.181 -2.2088676e+38
-0.14332287 -0.53798002 2.181 -2.1017509e+38
-0.13916858 -0.53798002 2.181 -2.5402408e+38
-0.13414763 -0.53452671 2.1670001 -2.9679893e+38
-0.13002001 -0.53452671 2.1670001 nan
-0.12589239 -0.53452671 2.1670001 nan
-0.12176477 -0.53452671 2.1670001 nan
-0.11763715 -0.53452671 2.1670001 nan
-0.11424287 -0.53798002 2.181 nan
-0.10938191 -0.53452671 2.1670001 nan
-0.10525429 -0.53452671 2.1670001 nan
-0.10112667 -0.53452671 2.1670001 nan
-0.096999057 -0.53452671 2.1670001 nan
-0.092871435 -0.53452671 2.1670001 nan
-0.088743813 -0.53452671 2.1670001 nan
-0.084616199 -0.53452671 2.1670001 nan
-0.080488577 -0.53452671 2.1670001 nan
-0.076360956 -0.53452671 2.1670001 nan
-0.072233342 -0.53452671 2.1670001 nan
-0.068545721 -0.53798002 2.181 nan
-0.064391434 -0.53798002 2.181 nan
-0.060596194 -0.54118669 2.194 nan
-0.056417145 -0.54118669 2.194 nan
-0.052571431 -0.54464006 2.2080002 nan
-0.048365716 -0.54464006 2.2080002 -3.004225e+38
-0.044460002 -0.54834002 2.223 -1.8369494e+38
-0.040479049 -0.5517934 2.237 -2.2643323e+38
-0.036460955 -0.55549335 2.2520001 -2.6764443e+38
-0.032171432 -0.55549335 2.2520001 -2.6631514e+38
-0.027881907 -0.55549335 2.2520001 -2.6363583e+38
-0.023739049 -0.55894673 2.266 -2.5831365e+38
-0.01955143 -0.56264669 2.2810001 -2.5296041e+38
-0.015313335 -0.56659335 2.2970002 -2.5426371e+38
-0.010938096 -0.56659335 2.2970002 -2.5426376e+38
-0.0066057146 -0.57029337 2.312 -2.5558266e+38
-0.002201905 -0.57029337 2.312 -2.5692233e+38
0.0022314286 -0.57794005 2.3430002 -2.5959125e+38
0.0067400006 -0.58188671 2.3590002 -2.6094131e+38
0.011314287 -0.58608001 2.3760002 -2.6097253e+38
0.015840001 -0.58608001 2.3760002 -2.6101413e+38
0.020502858 -0.59002668 2.3920002 -2.6368822e+38
0.02505905 -0.59002668 2.3920002 -2.6503826e+38
0.02961524 -0.59002668 2.3920002 -2.69026e+38
0.034414288 -0.59422004 2.4090002 -2.730086e+38
0.039002858 -0.59422004 2.4090002 -2.663366e+38
0.043591432 -0.59422004 2.4090002 -2.5832987e+38
0.048180003 -0.59422004 2.4090002 -2.2362953e+38
0.052768573 -0.59422004 2.4090002 -1.8925243e+38
0.057357147 -0.59422004 2.4090002 -3.2541633e+38
0.061945718 -0.59422004 2.4090002 nan
0.066064768 -0.59002668 2.3920002 nan
-0.41122574 -0.64837432 2.6490002 nan
-0.40618002 -0.64837432 2.6490002 nan
-0.39810574 -0.64347911 2.6290002 -3.3415785e+38
-0.39309812 -0.64347911 2.6290002 -1.728066e+38
-0.38809049 -0.64347911 2.6290002 -2.1015935e+38
-0.38016859 -0.63858384 2.6090002 -2.4752336e+38
-0.37232289 -0.63368863 2.5890002 -2.4353071e+38
-0.35674858 -0.61533147 2.5140002 -2.3956903e+38
-0.34944001 -0.61092573 2.4960001 -2.4093981e+38
-0.34220001 -0.60652006 2.4780002 -2.4227933e+38
-0.33502859 -0.60211432 2.46 -2.4091363e+38
-0.33034289 -0.60211432 2.46 -2.395584e+38
-0.3234067 -0.59795338 2.4430001 -2.3554471e+38
-0.31875336 -0.59795338 2.4430001 -2.3154143e+38
-0.31410003 -0.59795338 2.4430001 -2.2888813e+38
-0.30944669 -0.59795338 2.4430001 -2.2621929e+38
-0.30267239 -0.59379244 2.4260001 -2.2356602e+38
-0.29805145 -0.59379244 2.4260001 -2.2224201e+38
-0.29343051 -0.59379244 2.4260001 -2.2224201e+38
-0.29083335 -0.59795338 2.4430001 -2.2091278e+38
-0.28618002 -0.59795338 2.4430001 -2.1957315e+38
-0.27956763 -0.59379244 2.4260001 -2.1956272e+38
-0.27687335 -0.59795338 2.4430001 -2.2089191e+38
-0.27032572 -0.59379244 2.4260001 -2.2354517e+38
-0.26570478 -0.59379244 2.4260001 -2.2221593e+38
-0.26108384 -0.59379244 2.4260001 -2.2088672e+38
-0.25646287 -0.59379244 2.4260001 -2.2222114e+38
-0.25007716 -0.58963144 2.4090002 -2.2221591e+38
-0.24548858 -0.58963144 2.4090002 -2.2221067e+38
-0.24090001 -0.58963144 2.4090002 -2.2087631e+38
-0.23631145 -0.58963144 2.4090002 -2.1955232e+38
-0.23008764 -0.5854705 2.3920002 -2.1822828e+38
-0.22553144 -0.5854705 2.3920002 -2.1956787e+38
-0.22097525 -0.5854705 2.3920002 -2.1956789e+38
-0.21641906 -0.5854705 2.3920002 -2.1956789e+38
-0.21186288 -0.5854705 2.3920002 -2.2090229e+38
-0.20730668 -0.5854705 2.3920002 -2.1956785e+38
-0.20275049 -0.5854705 2.3920002 -2.1823861e+38
-0.1981943 -0.5854705 2.3920002 -2.1690936e+38
-0.1936381 -0.5854705 2.3920002 -2.1558017e+38
-0.18781716 -0.58155435 2.3760002 -2.1956787e+38
-0.18452573 -0.5854705 2.3920002 -2.235556e+38
-0.1650724 -0.53700763 2.194 -2.2620371e+38
-0.16089335 -0.53700763 2.194 -2.2886221e+38
-0.15671429 -0.53700763 2.194 -2.315207e+38
-0.15253524 -0.53700763 2.194 -2.3418423e+38
-0.14747715 -0.53382576 2.181 -2.1547105e+38
-0.14240287 -0.53039908 2.1670001 -1.9676876e+38
-0.13916858 -0.53382576 2.181 -2.8213566e+38
-0.13414763 -0.53039908 2.1670001 nan
-0.13002001 -0.53039908 2.1670001 nan
-0.12589239 -0.53039908 2.1670001 nan
-0.12176477 -0.53039908 2.1670001 nan
-0.11763715 -0.53039908 2.1670001 nan
-0.11350953 -0.53039908 2.1670001 nan
-0.10938191 -0.53039908 2.1670001 nan
-0.10525429 -0.53039908 2.1670001 nan
-0.10112667 -0.53039908 2.1670001 nan
-0.096999057 -0.53039908 2.1670001 nan
-0.092871435 -0.53039908 2.1670001 nan
-0.088743813 -0.53039908 2.1670001 nan
-0.084616199 -0.53039908 2.1670001 nan
-0.080488577 -0.53039908 2.1670001 nan
-0.076854289 -0.53382576 2.181 nan
-0.072233342 -0.53039908 2.1670001 nan
-0.068545721 -0.53382576 2.181 nan
-0.064775243 -0.53700763 2.194 nan
-0.060596194 -0.53700763 2.194 nan
-0.056777146 -0.5404343 2.2080002 nan
-0.052571431 -0.5404343 2.2080002 nan
-0.04869429 -0.54410577 2.223 -3.1270188e+38
-0.044460002 -0.54410577 2.223 -1.8098958e+38
-0.040479049 -0.54753244 2.237 -2.2370208e+38
-0.036460955 -0.55120385 2.2520001 -2.676185e+38
-0.032171432 -0.55120385 2.2520001 -2.6363597e+38
-0.028055239 -0.55463052 2.266 -2.6097222e+38
-0.023739049 -0.55463052 2.266 -2.5830326e+38
-0.01955143 -0.55830193 2.2810001 -2.5562408e+38
-0.015206668 -0.55830193 2.2810001 -2.556189e+38
-0.010861905 -0.55830193 2.2810001 -2.5560337e+38
-0.0066057146 -0.56588954 2.312 -2.5558262e+38
-0.002201905 -0.56588954 2.312 -2.555723e+38
0.0022161906 -0.569561 2.3270001 -2.5690676e+38
0.0066942861 -0.57347721 2.3430002 -2.5824124e+38
0.011233334 -0.57739335 2.3590002 -2.5828284e+38
0.015840001 -0.58155435 2.3760002 -2.583504e+38
0.020365715 -0.58155435 2.3760002 -2.5968486e+38
0.02505905 -0.5854705 2.3920002 -2.6237451e+38
0.02961524 -0.5854705 2.3920002 -2.6635702e+38
0.034171432 -0.5854705 2.3920002 -2.7035519e+38
0.038727622 -0.5854705 2.3920002 -2.6766566e+38
0.043591432 -0.58963144 2.4090002 -2.6498615e+38
0.048180003 -0.58963144 2.4090002 -2.263292e+38
0.052768573 -0.58963144 2.4090002 -1.8902366e+38
0.057357147 -0.58963144 2.4090002 -3.1052969e+38
0.061945718 -0.58963144 2.4090002 nan
0.066534288 -0.58963144 2.4090002 nan
-0.44439337 -0.59330004 2.4430001 nan
-0.43974003 -0.59330004 2.4430001 nan
-0.41312858 -0.63847148 2.6290002 nan
-0.40812099 -0.63847148 2.6290002 nan
-0.40311337 -0.63847148 2.6290002 nan
-0.39810574 -0.63847148 2.6290002 -3.3675931e+38
-0.39309812 -0.63847148 2.6290002 -1.7427602e+38
-0.38809049 -0.63847148 2.6290002 -2.1145211e+38
-0.38016859 -0.6336143 2.6090002 -2.4746097e+38
-0.37232289 -0.62875718 2.5890002 -2.4483396e+38
-0.35930288 -0.6149143 2.5320001 -2.4088264e+38
-0.34944001 -0.60617149 2.4960001 -2.3958978e+38
-0.33971432 -0.59742862 2.46 -2.3824489e+38
-0.33502859 -0.59742862 2.46 -2.3689483e+38
-0.33034289 -0.59742862 2.46 -2.3555516e+38
-0.3234067 -0.59330004 2.4430001 -2.3288107e+38
-0.31875336 -0.59330004 2.4430001 -2.2888817e+38
-0.31410003 -0.59330004 2.4430001 -2.2622971e+38
-0.30944669 -0.59330004 2.4430001 -2.2356604e+38
-0.30479336 -0.59330004 2.4430001 -2.2224199e+38
-0.29805145 -0.58917147 2.4260001 -2.2090757e+38
-0.29343051 -0.58917147 2.4260001 -2.1957836e+38
-0.29083335 -0.59330004 2.4430001 -2.1824392e+38
-0.28618002 -0.59330004 2.4430001 -2.1823354e+38
-0.27956763 -0.58917147 2.4260001 -2.1823349e+38
-0.27687335 -0.59330004 2.4430001 -2.195627e+38
-0.27032572 -0.58917147 2.4260001 -2.2088674e+38
-0.26570478 -0.58917147 2.4260001 -2.2088155e+38
-0.25925431 -0.58504289 2.4090002 -2.195627e+38
-0.25646287 -0.58917147 2.4260001 -2.2089712e+38
-0.25007716 -0.58504289 2.4090002 -2.208867e+38
-0.24548858 -0.58504289 2.4090002 -2.2087627e+38
-0.24090001 -0.58504289 2.4090002 -2.2087629e+38
-0.23464383 -0.58091432 2.3920002 -2.1954706e+38
-0.23008764 -0.58091432 2.3920002 -2.182282e+38
-0.22553144 -0.58091432 2.3920002 -2.1823857e+38
-0.22097525 -0.58091432 2.3920002 -2.1690419e+38
-0.21641906 -0.58091432 2.3920002 -2.1823345e+38
-0.21186288 -0.58091432 2.3920002 -2.1823343e+38
-0.20730668 -0.58091432 2.3920002 -2.1823343e+38
-0.20275049 -0.58091432 2.3920002 -2.1690421e+38
-0.1981943 -0.58091432 2.3920002 -2.1558017e+38
-0.1936381 -0.58091432 2.3920002 -2.1291652e+38
-0.18908192 -0.58091432 2.3920002 -2.1955749e+38
-0.16824858 -0.52967149 2.181 -2.2487444e+38
-0.1640943 -0.52967149 2.181 -2.2885695e+38
-0.15994 -0.52967149 2.181 -2.3152064e+38
-0.15578572 -0.52967149 2.181 -2.3550318e+38
-0.15163144 -0.52967149 2.181 -2.3809906e+38
-0.14747715 -0.52967149 2.181 -2.1136883e+38
-0.14240287 -0.52627146 2.1670001 -1.8364799e+38
-0.13827525 -0.52627146 2.1670001 -3.117999e+38
-0.13328096 -0.52287143 2.1530001 nan
-0.13002001 -0.52627146 2.1670001 nan
-0.12589239 -0.52627146 2.1670001 nan
-0.12176477 -0.52627146 2.1670001 nan
-0.11763715 -0.52627146 2.1670001 nan
-0.11350953 -0.52627146 2.1670001 nan
-0.10938191 -0.52627146 2.1670001 nan
-0.10525429 -0.52627146 2.1670001 nan
-0.10112667 -0.52627146 2.1670001 nan
-0.096999057 -0.52627146 2.1670001 nan
-0.092871435 -0.52627146 2.1670001 nan
-0.088743813 -0.52627146 2.1670001 nan
-0.084616199 -0.52627146 2.1670001 nan
-0.080488577 -0.52627146 2.1670001 nan
-0.076854289 -0.52967149 2.181 nan
-0.072700001 -0.52967149 2.181 nan
-0.068954289 -0.53282863 2.194 nan
-0.064775243 -0.53282863 2.194 nan
-0.060982861 -0.5362286 2.2080002 nan
-0.056777146 -0.5362286 2.2080002 nan
-0.052571431 -0.5362286 2.2080002 nan
-0.04869429 -0.53987145 2.223 -3.2453529e+38
-0.044460002 -0.53987145 2.223 -1.7700714e+38
-0.040479049 -0.54327148 2.237 -2.2242475e+38
-0.036460955 -0.54691434 2.2520001 -2.6627887e+38
-0.032171432 -0.54691434 2.2520001 -2.6229117e+38
-0.027881907 -0.54691434 2.2520001 -2.5830342e+38
-0.023739049 -0.55031431 2.266 -2.5829819e+38
-0.019422859 -0.55031431 2.266 -2.5829815e+38
-0.015206668 -0.55395716 2.2810001 -2.5831371e+38
-0.010861905 -0.55395716 2.2810001 -2.5693258e+38
-0.0065628574 -0.55784291 2.2970002 -2.5556181e+38
-0.002201905 -0.56148577 2.312 -2.5290857e+38
0.0022161906 -0.56512862 2.3270001 -2.5422224e+38
0.0066942861 -0.56901431 2.3430002 -2.5556191e+38
0.011233334 -0.57290006 2.3590002 -2.5555678e+38
0.015726667 -0.57290006 2.3590002 -2.5561396e+38
0.020365715 -0.57702863 2.3760002 -2.5697959e+38
0.02505905 -0.58091432 2.3920002 -2.5834003e+38
0.02961524 -0.58091432 2.3920002 -2.6233814e+38
0.034171432 -0.58091432 2.3920002 -2.6633108e+38
0.039002858 -0.58504289 2.4090002 -2.6898962e+38
0.043591432 -0.58504289 2.4090002 -2.7028747e+38
0.048180003 -0.58504289 2.4090002 -2.3033254e+38
0.052768573 -0.58504289 2.4090002 -1.8919474e+38
0.057357147 -0.58504289 2.4090002 -2.9588166e+38
0.061945718 -0.58504289 2.4090002 nan
0.066064768 -0.58091432 2.3920002 nan
-0.44439337 -0.58864671 2.4430001 nan
-0.41312858 -0.63346386 2.6290002 nan
-0.40812099 -0.63346386 2.6290002 nan
-0.40004671 -0.62864482 2.6090002 nan
-0.39810574 -0.63346386 2.6290002 -3.3685807e+38
-0.39010763 -0.62864482 2.6090002 -1.7414619e+38
-0.38513812 -0.62864482 2.6090002 -2.1144678e+38
-0.38016859 -0.62864482 2.6090002 -2.4881608e+38
-0.37232289 -0.62382573 2.5890002 -2.4616314e+38
-0.35930288 -0.61009145 2.5320001 -2.4352548e+38
-0.34944001 -0.60141718 2.4960001 -2.4353586e+38
-0.34220001 -0.59708005 2.4780002 -2.4219104e+38
-0.33502859 -0.59274292 2.46 -2.3955333e+38
-0.33034289 -0.59274292 2.46 -2.3820844e+38
-0.3234067 -0.58864671 2.4430001 -2.3421029e+38
-0.31875336 -0.58864671 2.4430001 -2.3020703e+38
-0.31410003 -0.58864671 2.4430001 -2.2622454e+38
-0.30944669 -0.58864671 2.4430001 -2.2356606e+38
-0.30267239 -0.5845505 2.4260001 -2.222368e+38
-0.29805145 -0.5845505 2.4260001 -2.2090238e+38
-0.29343051 -0.5845505 2.4260001 -2.1956796e+38
-0.29083335 -0.58864671 2.4430001 -2.1823354e+38
-0.28618002 -0.58864671 2.4430001 -2.1823351e+38
-0.27956763 -0.5845505 2.4260001 -2.1823349e+38
-0.27494669 -0.5845505 2.4260001 -2.1955751e+38
-0.27032572 -0.5845505 2.4260001 -2.2087637e+38
-0.26570478 -0.5845505 2.4260001 -2.2088159e+38
-0.25925431 -0.58045435 2.4090002 -2.222212e+38
-0.25466573 -0.58045435 2.4090002 -2.2088157e+38
-0.25007716 -0.58045435 2.4090002 -2.1954711e+38
-0.24548858 -0.58045435 2.4090002 -2.1954706e+38
-0.24090001 -0.58045435 2.4090002 -2.1955224e+38
-0.23464383 -0.57635814 2.3920002 -2.1689374e+38
-0.23008764 -0.57635814 2.3920002 -2.1556968e+38
-0.22553144 -0.57635814 2.3920002 -2.1424042e+38
-0.22097525 -0.57635814 2.3920002 -2.1291125e+38
-0.21641906 -0.57635814 2.3920002 -2.1158208e+38
-0.21186288 -0.57635814 2.3920002 -2.1158208e+38
-0.20730668 -0.57635814 2.3920002 -2.1291131e+38
-0.20275049 -0.57635814 2.3920002 -2.1424056e+38
-0.19686858 -0.57250291 2.3760002 -2.1424058e+38
-0.19234286 -0.57250291 2.3760002 -2.1424058e+38
-0.17129621 -0.52214384 2.1670001 -2.1822307e+38
-0.16824858 -0.52551717 2.181 -2.2221077e+38
-0.1640943 -0.52551717 2.181 -2.2486925e+38
-0.15994 -0.52551717 2.181 -2.2753294e+38
-0.15578572 -0.52551717 2.181 -2.2085569e+38
-0.1506581 -0.52214384 2.1670001 -2.1284876e+38
-0.14653048 -0.52214384 2.1670001 -2.4339981e+38
-0.14240287 -0.52214384 2.1670001 -2.7252472e+38
-0.13738191 -0.51877052 2.1530001 nan
-0.13328096 -0.51877052 2.1530001 nan
-0.12918001 -0.51877052 2.1530001 nan
-0.12507905 -0.51877052 2.1530001 nan
-0.12176477 -0.52214384 2.1670001 nan
-0.11763715 -0.52214384 2.1670001 nan
-0.11350953 -0.52214384 2.1670001 nan
-0.10938191 -0.52214384 2.1670001 nan
-0.10525429 -0.52214384 2.1670001 nan
-0.10112667 -0.52214384 2.1670001 nan
-0.096999057 -0.52214384 2.1670001 nan
-0.092871435 -0.52214384 2.1670001 nan
-0.08931715 -0.52551717 2.181 nan
-0.085162863 -0.52551717 2.181 nan
-0.081008576 -0.52551717 2.181 nan
-0.077312388 -0.52864957 2.194 nan
-0.072700001 -0.52551717 2.181 nan
-0.068954289 -0.52864957 2.194 nan
-0.064775243 -0.52864957 2.194 nan
-0.060982861 -0.53202289 2.2080002 nan
-0.056777146 -0.53202289 2.2080002 nan
-0.052928574 -0.5356372 2.223 nan
-0.04869429 -0.5356372 2.223 -3.2745869e+38
-0.044740003 -0.53901052 2.237 -1.7547029e+38
-0.040750477 -0.54262477 2.2520001 -2.2095012e+38
-0.036460955 -0.54262477 2.2520001 -2.662581e+38
-0.032171432 -0.54262477 2.2520001 -2.6361001e+38
-0.027881907 -0.54262477 2.2520001 -2.6095675e+38
-0.023739049 -0.54599816 2.266 -2.5962233e+38
-0.019422859 -0.54599816 2.266 -2.583034e+38
-0.015206668 -0.5496124 2.2810001 -2.5695852e+38
-0.010861905 -0.5496124 2.2810001 -2.5559294e+38
-0.0065628574 -0.55346763 2.2970002 -2.5292927e+38
-0.002201905 -0.55708194 2.312 -2.5026043e+38
0.0022161906 -0.56069624 2.3270001 -2.5023964e+38
0.0066485717 -0.56069624 2.3270001 -2.5022932e+38
0.011157144 -0.56455147 2.3430002 -2.5022938e+38
0.015620001 -0.56455147 2.3430002 -2.5157427e+38
0.020220002 -0.5684067 2.3590002 -2.5161587e+38
0.02505905 -0.57635814 2.3920002 -2.5299191e+38
0.02961524 -0.57635814 2.3920002 -2.5697446e+38
0.034171432 -0.57635814 2.3920002 -2.6098814e+38
0.039002858 -0.58045435 2.4090002 -2.6498106e+38
0.043591432 -0.58045435 2.4090002 -2.689842e+38
0.048180003 -0.58045435 2.4090002 -2.3833393e+38
0.052396193 -0.57635814 2.3920002 -2.0901869e+38
0.057357147 -0.58045435 2.4090002 -3.0102664e+38
0.061508577 -0.57635814 2.3920002 nan
0.066064768 -0.57635814 2.3920002 nan
-0.45370004 -0.58399338 2.4430001 nan
-0.4490467 -0.58399338 2.4430001 nan
-0.44439337 -0.58399338 2.4430001 nan
-0.43974003 -0.58399338 2.4430001 nan
-0.4350867 -0.58399338 2.4430001 nan
-0.43342859 -0.58805716 2.46 nan
-0.43188003 -0.59236002 2.4780002 nan
-0.42716002 -0.59236002 2.4780002 nan
-0.40998575 -0.62367529 2.6090002 nan
-0.40501621 -0.62367529 2.6090002 nan
-0.40311337 -0.62845623 2.6290002 nan
-0.39810574 -0.62845623 2.6290002 -3.3677523e+38
