# .PCD v0.7 - Point Cloud Data file format
VERSION 0.7
FIELDS x y z rgb
SIZE 4 4 4 4
TYPE F F F F
COUNT 1 1 1 1
WIDTH 1067
HEIGHT 1
VIEWPOINT 0 0 0 1 0 0 0
POINTS 1067
DATA ascii
6.3089385 -1.1850681 2.3189549 -2.5558181e+38
6.3089094 -1.1967329 2.3189549 -2.5690063e+38
6.4198289 -1.2290778 2.3385122 -2.5557136e+38
6.3088508 -1.2200623 2.3189549 -2.5555581e+38
6.4197693 -1.2528301 2.3385122 -2.5422139e+38
6.3087926 -1.2433919 2.3189549 -2.5421617e+38
6.3087635 -1.2550566 2.3189549 -2.5154212e+38
6.4196801 -1.2884586 2.3385122 -2.4887326e+38
6.4196506 -1.3003347 2.3385122 -2.4754401e+38
6.419621 -1.3122109 2.3385122 -2.4620442e+38
6.4195914 -1.3240871 2.3385122 -2.4752328e+38
6.3086176 -1.3133801 2.3189549 -2.5018695e+38
6.3085885 -1.3250449 2.3189549 -2.515162e+38
6.3085594 -1.3367096 2.3189549 -2.5419011e+38
6.3085303 -1.3483744 2.3189549 -2.3420482e+38
6.3085012 -1.3600391 2.3189549 -2.1423585e+38
6.3084717 -1.3717037 2.3189549 -2.9162764e+38
6.3084426 -1.3833685 2.3189549 nan
6.2024708 -1.372054 2.3002787 nan
6.2024422 -1.3835168 2.3002787 nan
6.653707 -0.87824899 2.3672447 nan
6.653676 -0.89056891 2.3672447 nan
6.653645 -0.90288883 2.3672447 nan
6.6536145 -0.91520888 2.3672447 -1.9570959e+38
6.6535835 -0.9275288 2.3672447 -2.3286015e+38
6.653553 -0.93984872 2.3672447 -2.6880129e+38
6.5345626 -0.93589139 2.3465047 -2.6218118e+38
6.5345325 -0.94798464 2.3465047 -2.5420583e+38
6.534502 -0.96007794 2.3465047 -2.5687469e+38
6.534472 -0.97217125 2.3465047 -2.5820392e+38
6.4204817 -0.96780246 2.3266358 -2.5820394e+38
6.4204521 -0.97967863 2.3266358 -2.5690075e+38
6.4204226 -0.9915548 2.3266358 -2.5956967e+38
6.4203925 -1.003431 2.3266358 -2.609145e+38
6.4203629 -1.0153071 2.3266358 -2.6357817e+38
6.4203334 -1.0271832 2.3266358 -2.6624184e+38
6.4203038 -1.0390594 2.3266358 -2.689055e+38
6.4202738 -1.0509355 2.3266358 -2.71564e+38
6.3092885 -1.0450914 2.3072903 -2.7289848e+38
6.4202147 -1.0746877 2.3266358 -2.7287761e+38
6.3092299 -1.0684209 2.3072903 -2.621814e+38
6.3092008 -1.0800856 2.3072903 -2.5162106e+38
6.3091717 -1.0917504 2.3072903 -3.0366424e+38
6.3091426 -1.103415 2.3072903 nan
6.3091135 -1.1150798 2.3072903 -2.7157504e+38
6.3090844 -1.1267445 2.3072903 -1.8649345e+38
6.3090549 -1.1384093 2.3072903 -2.2230933e+38
6.3090258 -1.150074 2.3072903 -2.5825059e+38
6.3089967 -1.1617388 2.3072903 -2.5962673e+38
6.3089676 -1.1734035 2.3072903 -2.5959553e+38
6.3089385 -1.1850681 2.3072903 -2.5824032e+38
6.3089094 -1.1967329 2.3072903 -2.5558187e+38
6.3088803 -1.2083976 2.3072903 -2.5425781e+38
6.3088508 -1.2200623 2.3072903 -2.5291818e+38
6.4197693 -1.2528301 2.3266358 -2.5159414e+38
6.4197397 -1.2647063 2.3266358 -2.502337e+38
6.4197102 -1.2765825 2.3266358 -2.4889405e+38
6.4196801 -1.2884586 2.3266358 -2.4621999e+38
6.4196506 -1.3003347 2.3266358 -2.4487517e+38
6.419621 -1.3122109 2.3266358 -2.4354075e+38
6.4195914 -1.3240871 2.3266358 -2.4751288e+38
6.3086176 -1.3133801 2.3072903 -2.5017653e+38
6.3085885 -1.3250449 2.3072903 -2.52835e+38
6.3085594 -1.3367096 2.3072903 -2.5416411e+38
6.3085303 -1.3483744 2.3072903 -2.4219053e+38
6.3085012 -1.3600391 2.3072903 -2.2889868e+38
6.3084717 -1.3717037 2.3072903 -2.7416035e+38
6.3084426 -1.3833685 2.3072903 -3.1838402e+38
6.2024708 -1.372054 2.288816 nan
6.2024422 -1.3835168 2.288816 nan
6.5347438 -0.86333156 2.3344111 nan
6.653676 -0.89056891 2.3549247 nan
6.653645 -0.90288883 2.3549247 -3.3278635e+38
6.6536145 -0.91520888 2.3549247 -2.048167e+38
6.5346231 -0.91170478 2.3344111 -2.3686325e+38
6.5345926 -0.92379802 2.3344111 -2.6882717e+38
6.5345626 -0.93589139 2.3344111 -2.6217596e+38
6.5345325 -0.94798464 2.3344111 -2.568435e+38
6.534502 -0.96007794 2.3344111 -2.568539e+38
6.534472 -0.97217125 2.3344111 -2.5817796e+38
6.4204817 -0.96780246 2.3147597 -2.5686952e+38
6.4204521 -0.97967863 2.3147597 -2.5689556e+38
6.4204226 -0.9915548 2.3147597 -2.608989e+38
6.4203925 -1.003431 2.3147597 -2.63573e+38
6.4203629 -1.0153071 2.3147597 -2.6623149e+38
6.4203334 -1.0271832 2.3147597 -2.6756078e+38
6.4203038 -1.0390594 2.3147597 -2.6889524e+38
6.3093176 -1.0334268 2.2956254 -2.7022968e+38
6.3092885 -1.0450914 2.2956254 -2.702297e+38
6.4202147 -1.0746877 2.3147597 -2.7155903e+38
6.3092299 -1.0684209 2.2956254 -2.649078e+38
6.3092008 -1.0800856 2.2956254 -2.5827742e+38
6.3091717 -1.0917504 2.2956254 -2.8224005e+38
6.3091426 -1.103415 2.2956254 -3.0615009e+38
6.3091135 -1.1150798 2.2956254 -2.6489679e+38
6.3090844 -1.1267445 2.2956254 -2.2494736e+38
6.3090549 -1.1384093 2.2956254 -2.4228971e+38
6.3090258 -1.150074 2.2956254 -2.5964239e+38
6.3089967 -1.1617388 2.2956254 -2.5961123e+38
6.3089676 -1.1734035 2.2956254 -2.5959562e+38
6.3089385 -1.1850681 2.2956254 -2.5824558e+38
6.3089094 -1.1967329 2.2956254 -2.5824041e+38
6.3088803 -1.2083976 2.2956254 -2.5557676e+38
6.3088508 -1.2200623 2.2956254 -2.5424749e+38
6.4197693 -1.2528301 2.3147597 -2.5290784e+38
6.3087926 -1.2433919 2.2956254 -2.5022336e+38
6.3087635 -1.2550566 2.2956254 -2.4755963e+38
6.4196801 -1.2884586 2.3147597 -2.462148e+38
6.4196506 -1.3003347 2.3147597 -2.4487517e+38
6.419621 -1.3122109 2.3147597 -2.4486479e+38
6.4195914 -1.3240871 2.3147597 -2.4750245e+38
6.3086176 -1.3133801 2.2956254 -2.488317e+38
6.3085885 -1.3250449 2.2956254 -2.5149535e+38
6.3085594 -1.3367096 2.2956254 -2.5415368e+38
6.3085303 -1.3483744 2.2956254 -2.4484375e+38
6.3085012 -1.3600391 2.2956254 -2.3552382e+38
6.3084717 -1.3717037 2.2956254 -2.4356174e+38
6.3084426 -1.3833685 2.2956254 -2.5309062e+38
6.3084135 -1.3950332 2.2956254 nan
6.3083844 -1.406698 2.2956254 nan
6.3083553 -1.4183626 2.2956254 nan
6.653707 -0.87824899 2.3426046 nan
6.653676 -0.89056891 2.3426046 nan
6.653645 -0.90288883 2.3426046 -3.2049053e+38
6.6536145 -0.91520888 2.3426046 -2.1419385e+38
6.5346231 -0.91170478 2.3223178 -2.4093939e+38
6.5345926 -0.92379802 2.3223178 -2.6750839e+38
6.5345626 -0.93589139 2.3223178 -2.6351554e+38
6.4205709 -0.93217403 2.3028836 -2.5951225e+38
6.4205413 -0.94405013 2.3028836 -2.5817264e+38
6.4205112 -0.95592636 2.3028836 -2.5683828e+38
6.4204817 -0.96780246 2.3028836 -2.5684873e+38
6.4204521 -0.97967863 2.3028836 -2.5688516e+38
6.4204226 -0.9915548 2.3028836 -2.6222292e+38
6.4203925 -1.003431 2.3028836 -2.6622105e+38
6.4203629 -1.0153071 2.3028836 -2.6755034e+38
6.4203334 -1.0271832 2.3028836 -2.6888478e+38
6.4203038 -1.0390594 2.3028836 -2.6889001e+38
6.4202738 -1.0509355 2.3028836 -2.6756599e+38
6.4202442 -1.0628117 2.3028836 -2.6889524e+38
6.4202147 -1.0746877 2.3028836 -2.6891088e+38
6.4201851 -1.0865639 2.3028836 -2.6627323e+38
6.420155 -1.0984402 2.3028836 -2.6357849e+38
6.4201255 -1.1103163 2.3028836 -2.6085779e+38
6.4200959 -1.1221924 2.3028836 -2.5691661e+38
6.3091135 -1.1150798 2.2839608 -2.5958004e+38
6.4200363 -1.1459447 2.3028836 -2.6222294e+38
6.3090549 -1.1384093 2.2839608 -2.6225413e+38
6.3090258 -1.150074 2.2839608 -2.609249e+38
6.3089967 -1.1617388 2.2839608 -2.6090413e+38
6.3089676 -1.1734035 2.2839608 -2.5957485e+38
6.3089385 -1.1850681 2.2839608 -2.595644e+38
6.3089094 -1.1967329 2.2839608 -2.5955923e+38
6.3088803 -1.2083976 2.2839608 -2.5822483e+38
6.3088508 -1.2200623 2.2839608 -2.5556633e+38
6.3088217 -1.231727 2.2839608 -2.5290264e+38
6.3087926 -1.2433919 2.2839608 -2.5022857e+38
6.3087635 -1.2550566 2.2839608 -2.4757007e+38
6.4196801 -1.2884586 2.3028836 -2.4488562e+38
6.4196506 -1.3003347 2.3028836 -2.4619923e+38
6.419621 -1.3122109 2.3028836 -2.4616805e+38
6.4195914 -1.3240871 2.3028836 -2.474713e+38
6.3086176 -1.3133801 2.2839608 -2.4749207e+38
6.3085885 -1.3250449 2.2839608 -2.5015054e+38
6.3085594 -1.3367096 2.2839608 -2.5282973e+38
6.3085303 -1.3483744 2.2839608 -2.475128e+38
6.3085012 -1.3600391 2.2839608 -2.4215441e+38
6.3084717 -1.3717037 2.2839608 -2.1413162e+38
6.3084426 -1.3833685 2.2839608 -1.865097e+38
6.3084135 -1.3950332 2.2839608 -3.3593473e+38
6.3083844 -1.406698 2.2839608 nan
6.3083553 -1.4183626 2.2839608 nan
6.3083262 -1.4300275 2.2839608 nan
6.6537375 -0.86592895 2.3302846 nan
6.653707 -0.87824899 2.3302846 nan
6.653676 -0.89056891 2.3302846 nan
6.653645 -0.90288883 2.3302846 -3.1005352e+38
6.5346532 -0.89961147 2.3102245 -2.3407499e+38
6.5346231 -0.91170478 2.3102245 -2.5018184e+38
6.5345926 -0.92379802 2.3102245 -2.6616884e+38
6.4206004 -0.92029786 2.2910075 -2.6218105e+38
6.4205709 -0.93217403 2.2910075 -2.5951217e+38
6.4205413 -0.94405013 2.2910075 -2.5815694e+38
6.4205112 -0.95592636 2.2910075 -2.5681226e+38
6.4204817 -0.96780246 2.2910075 -2.5684352e+38
6.4204521 -0.97967863 2.2910075 -2.5687994e+38
6.4204226 -0.9915548 2.2910075 -2.6087807e+38
6.4203925 -1.003431 2.2910075 -2.6488141e+38
6.4203629 -1.0153071 2.2910075 -2.648815e+38
6.4203334 -1.0271832 2.2910075 -2.6621072e+38
6.4203038 -1.0390594 2.2910075 -2.6622111e+38
6.4202738 -1.0509355 2.2910075 -2.6622634e+38
6.4202442 -1.0628117 2.2910075 -2.6756597e+38
6.4202147 -1.0746877 2.2910075 -2.6759193e+38
6.4201851 -1.0865639 2.2910075 -2.6757636e+38
6.420155 -1.0984402 2.2910075 -2.6623668e+38
6.4201255 -1.1103163 2.2910075 -2.6355221e+38
6.4200959 -1.1221924 2.2910075 -2.6089379e+38
6.3091135 -1.1150798 2.272296 -2.6222825e+38
6.3090844 -1.1267445 2.272296 -2.6488669e+38
6.3090549 -1.1384093 2.272296 -2.6355742e+38
6.3090258 -1.150074 2.272296 -2.6221781e+38
6.3089967 -1.1617388 2.272296 -2.6089375e+38
6.3089676 -1.1734035 2.272296 -2.6089369e+38
6.3089385 -1.1850681 2.272296 -2.6088842e+38
6.3089094 -1.1967329 2.272296 -2.6088326e+38
6.3088803 -1.2083976 2.272296 -2.5955406e+38
6.3088508 -1.2200623 2.272296 -2.582196e+38
6.3088217 -1.231727 2.272296 -2.5555069e+38
6.3087926 -1.2433919 2.272296 -2.5287666e+38
6.3087635 -1.2550566 2.272296 -2.4755456e+38
6.4196801 -1.2884586 2.2910075 -2.4355124e+38
6.4196506 -1.3003347 2.2910075 -2.4219596e+38
6.419621 -1.3122109 2.2910075 -2.4215441e+38
6.4195914 -1.3240871 2.2910075 -2.4216475e+38
6.4195614 -1.3359631 2.2910075 -2.4350958e+38
6.4195318 -1.3478394 2.2910075 -2.4750764e+38
6.4195023 -1.3597156 2.2910075 -2.5018695e+38
6.3085303 -1.3483744 2.272296 -2.5018184e+38
6.3085012 -1.3600391 2.272296 -2.5018689e+38
6.3084717 -1.3717037 2.272296 -2.1949508e+38
6.3084426 -1.3833685 2.272296 -1.8878903e+38
6.3084135 -1.3950332 2.272296 -3.3173414e+38
6.3083844 -1.406698 2.272296 nan
6.3083553 -1.4183626 2.272296 nan
6.4208083 -0.83716482 2.2791312 nan
6.5347438 -0.86333156 2.2981312 nan
6.5347137 -0.87542486 2.2981312 nan
6.5346832 -0.88751817 2.2981312 -2.9934226e+38
6.5346532 -0.89961147 2.2981312 -2.5281423e+38
6.5346231 -0.91170478 2.2981312 -2.5953842e+38
6.5345926 -0.92379802 2.2981312 -2.6484487e+38
6.4206004 -0.92029786 2.2791312 -2.6218112e+38
6.4205709 -0.93217403 2.2791312 -2.5816743e+38
6.4205413 -0.94405013 2.2791312 -2.5680179e+38
6.4205112 -0.95592636 2.2791312 -2.5548822e+38
6.4204817 -0.96780246 2.2791312 -2.5683832e+38
6.4204521 -0.97967863 2.2791312 -2.5684877e+38
6.4204226 -0.9915548 2.2791312 -2.608469e+38
6.4203925 -1.003431 2.2791312 -2.6352618e+38
6.4203629 -1.0153071 2.2791312 -2.6353144e+38
6.4203334 -1.0271832 2.2791312 -2.6221259e+38
6.4203038 -1.0390594 2.2791312 -2.6354703e+38
6.4202738 -1.0509355 2.2791312 -2.6488667e+38
6.4202442 -1.0628117 2.2791312 -2.6622632e+38
6.4202147 -1.0746877 2.2791312 -2.6623153e+38
6.4201851 -1.0865639 2.2791312 -2.675504e+38
6.420155 -1.0984402 2.2791312 -2.6888478e+38
6.4201255 -1.1103163 2.2791312 -2.6755032e+38
6.3091426 -1.103415 2.2606311 -2.6488667e+38
6.3091135 -1.1150798 2.2606311 -2.662159e+38
6.3090844 -1.1267445 2.2606311 -2.6621066e+38
6.3090549 -1.1384093 2.2606311 -2.6487101e+38
6.3090258 -1.150074 2.2606311 -2.6355215e+38
6.3089967 -1.1617388 2.2606311 -2.6222292e+38
6.3089676 -1.1734035 2.2606311 -2.6088848e+38
6.3089385 -1.1850681 2.2606311 -2.6087807e+38
6.3089094 -1.1967329 2.2606311 -2.6087805e+38
6.3088803 -1.2083976 2.2606311 -2.6087805e+38
6.3088508 -1.2200623 2.2606311 -2.595384e+38
6.4197693 -1.2528301 2.2791312 -2.5819873e+38
6.4197397 -1.2647063 2.2791312 -2.5552986e+38
6.4197102 -1.2765825 2.2791312 -2.4887851e+38
6.4196801 -1.2884586 2.2791312 -2.4088229e+38
6.4196506 -1.3003347 2.2791312 -2.39527e+38
6.419621 -1.3122109 2.2791312 -2.3685299e+38
6.4195914 -1.3240871 2.2791312 -2.3818743e+38
6.4195614 -1.3359631 2.2791312 -2.3952189e+38
6.4195318 -1.3478394 2.2791312 -2.4351479e+38
6.4195023 -1.3597156 2.2791312 -2.4752332e+38
6.3085303 -1.3483744 2.2606311 -2.5284549e+38
6.3085012 -1.3600391 2.2606311 -2.5682782e+38
6.3084717 -1.3717037 2.2606311 -2.2487426e+38
6.3084426 -1.3833685 2.2606311 -1.917224e+38
6.3084135 -1.3950332 2.2606311 -3.2790174e+38
6.4193239 -1.4309725 2.2791312 nan
6.4208083 -0.83716482 2.2672551 nan
6.5347438 -0.86333156 2.2860379 nan
6.5347137 -0.87542486 2.2860379 -2.7281563e+38
6.5346832 -0.88751817 2.2860379 -2.6615353e+38
6.5346532 -0.89961147 2.2860379 -2.6084179e+38
6.5346231 -0.91170478 2.2860379 -2.6218655e+38
6.5345926 -0.92379802 2.2860379 -2.6350531e+38
6.5345626 -0.93589139 2.2860379 -2.6084156e+38
6.4205709 -0.93217403 2.2672551 -2.5816747e+38
6.4205413 -0.94405013 2.2672551 -2.5681222e+38
6.534472 -0.97217125 2.2860379 -2.5548305e+38
6.4204817 -0.96780246 2.2672551 -2.5682273e+38
6.4204521 -0.97967863 2.2672551 -2.5815201e+38
6.4204226 -0.9915548 2.2672551 -2.6083649e+38
6.4203925 -1.003431 2.2672551 -2.6350537e+38
6.4203629 -1.0153071 2.2672551 -2.6219174e+38
6.4203334 -1.0271832 2.2672551 -2.6220734e+38
6.4203038 -1.0390594 2.2672551 -2.6354178e+38
6.4202738 -1.0509355 2.2672551 -2.6355221e+38
6.4202442 -1.0628117 2.2672551 -2.6622109e+38
6.4202147 -1.0746877 2.2672551 -2.6755036e+38
6.4201851 -1.0865639 2.2672551 -2.688796e+38
6.420155 -1.0984402 2.2672551 -2.7020881e+38
6.4201255 -1.1103163 2.2672551 -2.6754514e+38
6.4200959 -1.1221924 2.2672551 -2.6622109e+38
6.3091135 -1.1150798 2.2489665 -2.6488143e+38
6.3090844 -1.1267445 2.2489665 -2.6354176e+38
6.3090549 -1.1384093 2.2489665 -2.6222286e+38
6.3090258 -1.150074 2.2489665 -2.6089882e+38
6.3089967 -1.1617388 2.2489665 -2.595644e+38
6.3089676 -1.1734035 2.2489665 -2.5955923e+38
6.3089385 -1.1850681 2.2489665 -2.5955406e+38
6.3089094 -1.1967329 2.2489665 -2.5954882e+38
6.3088803 -1.2083976 2.2489665 -2.5954359e+38
6.3088508 -1.2200623 2.2489665 -2.5953317e+38
6.3088217 -1.231727 2.2489665 -2.5553504e+38
6.4197397 -1.2647063 2.2672551 -2.5286096e+38
6.4197102 -1.2765825 2.2672551 -2.4754401e+38
6.4196801 -1.2884586 2.2672551 -2.4088219e+38
6.4196506 -1.3003347 2.2672551 -2.3819765e+38
6.419621 -1.3122109 2.2672551 -2.355237e+38
6.3086467 -1.3017154 2.2489665 -2.3685818e+38
6.3086176 -1.3133801 2.2489665 -2.3952708e+38
6.3085885 -1.3250449 2.2489665 -2.4352e+38
6.4195023 -1.3597156 2.2672551 -2.4619929e+38
6.3085303 -1.3483744 2.2489665 -2.5152664e+38
6.3085012 -1.3600391 2.2489665 -2.5685895e+38
6.3084717 -1.3717037 2.2489665 -2.2751191e+38
6.4193835 -1.4072201 2.2672551 -1.9811904e+38
6.419354 -1.4190962 2.2672551 -3.196974e+38
6.4193239 -1.4309725 2.2672551 nan
6.4208083 -0.83716482 2.2553787 nan
6.4207788 -0.84904093 2.2553787 nan
6.4207487 -0.86091709 2.2553787 -1.9965063e+38
6.5346832 -0.88751817 2.2739444 -2.3426228e+38
6.5346532 -0.89961147 2.2739444 -2.688378e+38
6.42066 -0.89654559 2.2553787 -2.6618975e+38
6.42063 -0.9084217 2.2553787 -2.6218124e+38
6.5345626 -0.93589139 2.2739444 -2.6083637e+38
6.4205709 -0.93217403 2.2553787 -2.5816226e+38
6.534502 -0.96007794 2.2739444 -2.5680179e+38
6.5344415 -0.98426455 2.2739444 -2.5680721e+38
6.5344114 -0.99635786 2.2739444 -2.581727e+38
6.5343814 -1.0084511 2.2739444 -2.6084667e+38
6.4203925 -1.003431 2.2553787 -2.62176e+38
6.4203629 -1.0153071 2.2553787 -2.6218132e+38
6.4203334 -1.0271832 2.2553787 -2.6219692e+38
6.4203038 -1.0390594 2.2553787 -2.6220215e+38
6.4202738 -1.0509355 2.2553787 -2.6222296e+38
6.4202442 -1.0628117 2.2553787 -2.6622109e+38
6.4202147 -1.0746877 2.2553787 -2.6887435e+38
6.4201851 -1.0865639 2.2553787 -2.7019839e+38
6.420155 -1.0984402 2.2553787 -2.7019837e+38
6.4201255 -1.1103163 2.2553787 -2.6886395e+38
6.4200959 -1.1221924 2.2553787 -2.6753989e+38
6.3091135 -1.1150798 2.2373018 -2.6355221e+38
6.3090844 -1.1267445 2.2373018 -2.5956446e+38
6.3090549 -1.1384093 2.2373018 -2.5824039e+38
6.3090258 -1.150074 2.2373018 -2.5691116e+38
6.3089967 -1.1617388 2.2373018 -2.5690596e+38
6.3089676 -1.1734035 2.2373018 -2.5690079e+38
6.3089385 -1.1850681 2.2373018 -2.5689041e+38
6.3089094 -1.1967329 2.2373018 -2.5688518e+38
6.3088803 -1.2083976 2.2373018 -2.5820396e+38
6.4197989 -1.240954 2.2553787 -2.5819873e+38
6.4197693 -1.2528301 2.2553787 -2.5420062e+38
6.4197397 -1.2647063 2.2553787 -2.5020768e+38
6.4197102 -1.2765825 2.2553787 -2.4621995e+38
6.4196801 -1.2884586 2.2553787 -2.4086659e+38
6.4196506 -1.3003347 2.2553787 -2.3685287e+38
6.419621 -1.3122109 2.2553787 -2.3286005e+38
6.3086467 -1.3017154 2.2373018 -2.368582e+38
6.3086176 -1.3133801 2.2373018 -2.3952189e+38
6.3085885 -1.3250449 2.2373018 -2.4218558e+38
6.3085594 -1.3367096 2.2373018 -2.4486487e+38
6.3085303 -1.3483744 2.2373018 -2.5019222e+38
6.3085012 -1.3600391 2.2373018 -2.5550382e+38
6.3084717 -1.3717037 2.2373018 -2.3019647e+38
6.4193835 -1.4072201 2.2553787 -2.0501452e+38
6.419354 -1.4190962 2.2553787 -3.1175325e+38
6.4193239 -1.4309725 2.2553787 nan
6.4208083 -0.83716482 2.2435026 nan
6.5347438 -0.86333156 2.2618513 -3.3675816e+38
6.5347137 -0.87542486 2.2618513 -1.9539781e+38
6.5346832 -0.88751817 2.2618513 -2.3020691e+38
6.5346532 -0.89961147 2.2618513 -2.661948e+38
6.5346231 -0.91170478 2.2618513 -2.6352604e+38
6.42063 -0.9084217 2.2435026 -2.6085197e+38
6.5345626 -0.93589139 2.2618513 -2.5951232e+38
6.4205709 -0.93217403 2.2435026 -2.5816224e+38
6.4204226 -0.9915548 2.2435026 -2.8342256e+38
6.4203925 -1.003431 2.2435026 -2.6083627e+38
6.4203629 -1.0153071 2.2435026 -2.6085205e+38
6.4203334 -1.0271832 2.2435026 -2.621917e+38
6.4203038 -1.0390594 2.2435026 -2.622073e+38
6.4202738 -1.0509355 2.2435026 -2.6222813e+38
6.4202442 -1.0628117 2.2435026 -2.6355223e+38
6.4202147 -1.0746877 2.2435026 -2.6621585e+38
6.4201851 -1.0865639 2.2435026 -2.6753985e+38
6.420155 -1.0984402 2.2435026 -2.688691e+38
6.4201255 -1.1103163 2.2435026 -2.6620545e+38
6.4200959 -1.1221924 2.2435026 -2.6487622e+38
6.3091135 -1.1150798 2.225637 -2.6088854e+38
6.3090844 -1.1267445 2.225637 -2.5823006e+38
6.3090549 -1.1384093 2.225637 -2.5691118e+38
6.3090258 -1.150074 2.225637 -2.5425791e+38
6.3089967 -1.1617388 2.225637 -2.5557676e+38
6.3089676 -1.1734035 2.225637 -2.5557156e+38
6.3089385 -1.1850681 2.225637 -2.5556118e+38
6.4198585 -1.2172017 2.2435026 -2.5422151e+38
6.4198289 -1.2290778 2.2435026 -2.5554029e+38
6.4197989 -1.240954 2.2435026 -2.5686428e+38
6.4197693 -1.2528301 2.2435026 -2.5286618e+38
6.4197397 -1.2647063 2.2435026 -2.4886805e+38
6.4197102 -1.2765825 2.2435026 -2.3954262e+38
6.4196801 -1.2884586 2.2435026 -2.30212e+38
6.4196506 -1.3003347 2.2435026 -2.6214974e+38
6.3086758 -1.2900507 2.225637 -2.9264937e+38
6.3086467 -1.3017154 2.225637 -2.6342201e+38
6.3086176 -1.3133801 2.225637 -2.3418942e+38
6.3085885 -1.3250449 2.225637 -2.3952712e+38
6.3085594 -1.3367096 2.225637 -2.4619929e+38
6.3085303 -1.3483744 2.225637 -2.5152143e+38
6.3085012 -1.3600391 2.225637 -2.5552984e+38
6.3084717 -1.3717037 2.225637 -2.3686869e+38
6.4193835 -1.4072201 2.2435026 -2.1689459e+38
6.419354 -1.4190962 2.2435026 -3.063014e+38
6.4193239 -1.4309725 2.2435026 nan
6.4208083 -0.83716482 2.2316265 nan
6.5347438 -0.86333156 2.2497578 -3.2724593e+38
6.5347137 -0.87542486 2.2497578 -1.9028857e+38
6.5346832 -0.88751817 2.2497578 -2.2763145e+38
6.5346532 -0.89961147 2.2497578 -2.6353109e+38
6.5346231 -0.91170478 2.2497578 -2.6086755e+38
6.5345926 -0.92379802 2.2497578 -2.5819868e+38
6.5345626 -0.93589139 2.2497578 -2.5818828e+38
6.5345325 -0.94798464 2.2497578 -2.5808419e+38
6.4203925 -1.003431 2.2316265 -2.5814137e+38
6.4203629 -1.0153071 2.2316265 -2.5953319e+38
6.4203334 -1.0271832 2.2316265 -2.6086245e+38
6.4203038 -1.0390594 2.2316265 -2.608729e+38
6.4202738 -1.0509355 2.2316265 -2.6087813e+38
6.4202442 -1.0628117 2.2316265 -2.6220221e+38
6.4202147 -1.0746877 2.2316265 -2.6221779e+38
6.4201851 -1.0865639 2.2316265 -2.6487626e+38
6.420155 -1.0984402 2.2316265 -2.6620028e+38
6.4201255 -1.1103163 2.2316265 -2.6353661e+38
6.4200959 -1.1221924 2.2316265 -2.6088335e+38
6.3091135 -1.1150798 2.2139721 -2.5954893e+38
6.3090844 -1.1267445 2.2139721 -2.5690081e+38
6.3090549 -1.1384093 2.2139721 -2.5425789e+38
6.3090258 -1.150074 2.2139721 -2.5158905e+38
6.3089967 -1.1617388 2.2139721 -2.5291311e+38
6.3089676 -1.1734035 2.2139721 -2.5423712e+38
6.3089385 -1.1850681 2.2139721 -2.529027e+38
6.4196506 -1.3003347 2.2316265 -2.8622163e+38
6.419621 -1.3122109 2.2316265 nan
6.3086467 -1.3017154 2.2139721 -2.8998031e+38
6.3086176 -1.3133801 2.2139721 -2.2748596e+38
6.3085885 -1.3250449 2.2139721 -2.3818743e+38
6.4195023 -1.3597156 2.2316265 -2.4750764e+38
6.3085303 -1.3483744 2.2139721 -2.5149537e+38
6.3085012 -1.3600391 2.2139721 -2.5549861e+38
6.3084717 -1.3717037 2.2139721 -2.4218556e+38
6.4193835 -1.4072201 2.2316265 -2.2893009e+38
6.419354 -1.4190962 2.2316265 -3.0221985e+38
6.4193239 -1.4309725 2.2316265 nan
6.3083262 -1.4300275 2.2139721 nan
6.4208083 -0.83716482 2.2197504 nan
6.4207788 -0.84904093 2.2197504 -3.0614448e+38
6.4207487 -0.86091709 2.2197504 -2.089289e+38
6.4207191 -0.87279326 2.2197504 -2.3559114e+38
6.4206896 -0.88466936 2.2197504 -2.6221736e+38
6.5346231 -0.91170478 2.2376647 -2.5953826e+38
6.5345926 -0.92379802 2.2376647 -2.5820386e+38
6.653522 -0.95216876 2.2563646 -2.3553429e+38
6.4203925 -1.003431 2.2197504 -2.3550285e+38
6.4203629 -1.0153071 2.2197504 -2.4753377e+38
6.4203334 -1.0271832 2.2197504 -2.5951765e+38
6.4203038 -1.0390594 2.2197504 -2.595281e+38
6.4202738 -1.0509355 2.2197504 -2.5953333e+38
6.4202442 -1.0628117 2.2197504 -2.5953854e+38
6.4202147 -1.0746877 2.2197504 -2.5955416e+38
6.4201851 -1.0865639 2.2197504 -2.5954901e+38
6.420155 -1.0984402 2.2197504 -2.6087819e+38
6.4201255 -1.1103163 2.2197504 -2.5954893e+38
6.4200959 -1.1221924 2.2197504 -2.5954893e+38
6.3091135 -1.1150798 2.2023075 -2.5821968e+38
6.3090844 -1.1267445 2.2023075 -2.5822483e+38
6.3090549 -1.1384093 2.2023075 -2.555715e+38
6.3090258 -1.150074 2.2023075 -2.5290788e+38
6.3089967 -1.1617388 2.2023075 -2.529027e+38
6.3089676 -1.1734035 2.2023075 -2.5156826e+38
6.2029867 -1.1657232 2.1856503 -2.5155786e+38
6.419621 -1.3122109 2.2197504 nan
6.3086467 -1.3017154 2.2023075 -3.0463264e+38
6.3086176 -1.3133801 2.2023075 -2.0341947e+38
6.3085885 -1.3250449 2.2023075 -2.2617757e+38
6.3085594 -1.3367096 2.2023075 -2.4882639e+38
6.3085303 -1.3483744 2.2023075 -2.5017121e+38
6.3085012 -1.3600391 2.2023075 -2.5285048e+38
6.3084717 -1.3717037 2.2023075 -2.421959e+38
6.3084426 -1.3833685 2.2023075 -2.3018641e+38
6.3084135 -1.3950332 2.2023075 -2.7955505e+38
6.3083844 -1.406698 2.2023075 -3.276572e+38
6.3083553 -1.4183626 2.2023075 nan
6.3083262 -1.4300275 2.2023075 nan
6.4208083 -0.83716482 2.2078741 nan
6.4207788 -0.84904093 2.2078741 -2.859927e+38
6.4207487 -0.86091709 2.2078741 -2.2623981e+38
6.4207191 -0.87279326 2.2078741 -2.4358734e+38
6.5346532 -0.89961147 2.2255712 -2.5953816e+38
6.5346231 -0.91170478 2.2255712 -2.5819343e+38
6.5345926 -0.92379802 2.2255712 -2.5683295e+38
6.653522 -0.95216876 2.2440445 -2.1422488e+38
6.6534915 -0.96448869 2.2440445 -1.7039163e+38
6.4203629 -1.0153071 2.2078741 -2.3425185e+38
6.4203334 -1.0271832 2.2078741 -2.5684877e+38
6.4203038 -1.0390594 2.2078741 -2.56854e+38
6.4202738 -1.0509355 2.2078741 -2.5685923e+38
6.4202442 -1.0628117 2.2078741 -2.5686447e+38
6.4202147 -1.0746877 2.2078741 -2.5554562e+38
6.3092299 -1.0684209 2.1906426 -2.5554564e+38
6.3092008 -1.0800856 2.1906426 -2.542268e+38
6.4201255 -1.1103163 2.2078741 -2.555612e+38
6.4200959 -1.1221924 2.2078741 -2.5688522e+38
6.3091135 -1.1150798 2.1906426 -2.5820923e+38
6.3090844 -1.1267445 2.1906426 -2.5821438e+38
6.3090549 -1.1384093 2.1906426 -2.5688513e+38
6.3090258 -1.150074 2.1906426 -2.542267e+38
6.419621 -1.3122109 2.2078741 nan
6.3086467 -1.3017154 2.1906426 -3.177222e+38
6.3086176 -1.3133801 2.1906426 -1.7953999e+38
6.3085885 -1.3250449 2.1906426 -2.1427165e+38
6.4195023 -1.3597156 2.2078741 -2.488316e+38
6.3085303 -1.3483744 2.1906426 -2.5016604e+38
6.3085012 -1.3600391 2.1906426 -2.5018689e+38
6.3084717 -1.3717037 2.1906426 -2.4089276e+38
6.3084426 -1.3833685 2.1906426 -2.3156226e+38
6.3084135 -1.3950332 2.1906426 -2.5682804e+38
6.3083844 -1.406698 2.1906426 -2.8106142e+38
6.3083553 -1.4183626 2.1906426 nan
6.3083262 -1.4300275 2.1906426 nan
6.4208083 -0.83716482 2.195998 -2.5824043e+38
6.4207788 -0.84904093 2.195998 -2.5283942e+38
6.4207487 -0.86091709 2.195998 -2.4752803e+38
6.5346832 -0.88751817 2.2134778 -2.5420565e+38
6.5346532 -0.89961147 2.2134778 -2.6218625e+38
6.5346231 -0.91170478 2.2134778 -2.6084146e+38
6.5345926 -0.92379802 2.2134778 -2.5949647e+38
6.653522 -0.95216876 2.2317245 -2.1681042e+38
6.6534915 -0.96448869 2.2317245 -1.7415631e+38
6.4203334 -1.0271832 2.195998 -2.5683315e+38
6.4203038 -1.0390594 2.195998 -2.5551433e+38
6.3093176 -1.0334268 2.178978 -2.5551956e+38
6.3092885 -1.0450914 2.178978 -2.5420076e+38
6.3092589 -1.0567561 2.178978 -2.5421114e+38
6.3092299 -1.0684209 2.178978 -2.5421631e+38
6.3092008 -1.0800856 2.178978 -2.5289749e+38
6.3091426 -1.103415 2.178978 -2.5555073e+38
6.3086758 -1.2900507 2.178978 nan
6.3086467 -1.3017154 2.178978 -3.1261274e+38
6.3086176 -1.3133801 2.178978 -1.7547949e+38
6.3085885 -1.3250449 2.178978 -2.1154569e+38
6.3085594 -1.3367096 2.178978 -2.4882641e+38
6.3085303 -1.3483744 2.178978 -2.4751278e+38
6.3085012 -1.3600391 2.178978 -2.4620446e+38
6.3084717 -1.3717037 2.178978 -2.3290713e+38
6.3084426 -1.3833685 2.178978 -2.2093872e+38
6.3084135 -1.3950332 2.178978 -2.2621391e+38
6.3083844 -1.406698 2.178978 -2.3301181e+38
6.2024136 -1.3949797 2.1627245 nan
6.2023849 -1.4064425 2.1627245 nan
6.4208083 -0.83716482 2.1841216 -1.7033975e+38
6.5347438 -0.86333156 2.2013845 -2.1959353e+38
6.5347137 -0.87542486 2.2013845 -2.6881665e+38
6.5346832 -0.88751817 2.2013845 -2.661791e+38
6.5346532 -0.89961147 2.2013845 -2.6349984e+38
6.5346231 -0.91170478 2.2013845 -2.6215499e+38
6.653553 -0.93984872 2.2194047 -2.6074755e+38
6.653522 -0.95216876 2.2194047 -2.1936984e+38
6.6534915 -0.96448869 2.2194047 -1.7703284e+38
6.4203629 -1.0153071 2.1841216 -2.1827507e+38
6.4203334 -1.0271832 2.1841216 -2.5549867e+38
6.4203038 -1.0390594 2.1841216 -2.5417465e+38
6.3093176 -1.0334268 2.1673131 -2.5285583e+38
6.3092885 -1.0450914 2.1673131 -2.5286106e+38
6.3092589 -1.0567561 2.1673131 -2.5286626e+38
6.3092299 -1.0684209 2.1673131 -2.5287666e+38
6.3092008 -1.0800856 2.1673131 -2.5154745e+38
6.3086758 -1.2900507 2.1673131 nan
6.3086467 -1.3017154 2.1673131 -3.0840179e+38
6.3086176 -1.3133801 2.1673131 -1.7020929e+38
6.3085885 -1.3250449 2.1673131 -2.0892356e+38
6.3085594 -1.3367096 2.1673131 -2.4749201e+38
6.3085303 -1.3483744 2.1673131 -2.4485436e+38
6.3085012 -1.3600391 2.1673131 -2.4087716e+38
6.3084717 -1.3717037 2.1673131 -2.2625574e+38
6.3084426 -1.3833685 2.1673131 -2.102373e+38
6.3084135 -1.3950332 2.1673131 -1.9673714e+38
6.3083844 -1.406698 2.1673131 -1.8378356e+38
6.0994706 -1.3722584 2.1356645 -3.2931447e+38
6.4208083 -0.83716482 2.1722455 -1.7812274e+38
6.5347438 -0.86333156 2.1892912 -2.2489004e+38
6.5347137 -0.87542486 2.1892912 -2.7151163e+38
6.5346832 -0.88751817 2.1892912 -2.6750314e+38
6.5346532 -0.89961147 2.1892912 -2.6480824e+38
6.5346231 -0.91170478 2.1892912 -2.6346331e+38
6.5345926 -0.92379802 2.1892912 -2.6209212e+38
6.653522 -0.95216876 2.2070847 -2.3003962e+38
6.5345325 -0.94798464 2.1892912 -1.9940128e+38
6.534502 -0.96007794 2.1892912 nan
6.534472 -0.97217125 2.1892912 nan
6.4203334 -1.0271832 2.1722455 -2.5549859e+38
6.4203038 -1.0390594 2.1722455 -2.5417977e+38
6.3093176 -1.0334268 2.1556482 -2.5285575e+38
6.3092885 -1.0450914 2.1556482 -2.5285058e+38
6.2033019 -1.0396322 2.1397989 -2.5284543e+38
6.2032733 -1.051095 2.1397989 -2.5153182e+38
6.3086758 -1.2900507 2.1556482 nan
6.3086467 -1.3017154 2.1556482 -3.1527637e+38
6.3086176 -1.3133801 2.1556482 -1.7014179e+38
6.3085885 -1.3250449 2.1556482 -2.0887681e+38
6.3085594 -1.3367096 2.1556482 -2.4749201e+38
6.3085303 -1.3483744 2.1556482 -2.4617844e+38
6.3085012 -1.3600391 2.1556482 -2.4486483e+38
6.3084717 -1.3717037 2.1556482 -2.3821873e+38
6.3084426 -1.3833685 2.1556482 -2.3024314e+38
6.3084135 -1.3950332 2.1556482 -2.0348701e+38
6.3083844 -1.406698 2.1556482 -1.7678945e+38
6.2024136 -1.3949797 2.1397989 -3.250775e+38
6.4208083 -0.83716482 2.1603694 -1.8491438e+38
6.5347438 -0.86333156 2.1771979 -2.2900248e+38
6.4207487 -0.86091709 2.1603694 -2.7284617e+38
6.5346832 -0.88751817 2.1771979 -2.7016687e+38
6.5346532 -0.89961147 2.1771979 -2.6616353e+38
6.5346231 -0.91170478 2.1771979 -2.6479787e+38
6.5345926 -0.92379802 2.1771979 -2.620664e+38
6.5345626 -0.93589139 2.1771979 -2.419615e+38
6.5345325 -0.94798464 2.1771979 -2.2235153e+38
6.534502 -0.96007794 2.1771979 nan
6.4205112 -0.95592636 2.1603694 nan
6.4204817 -0.96780246 2.1603694 nan
6.4204521 -0.97967863 2.1603694 nan
6.3094339 -0.98676783 2.1439836 -2.1550707e+38
6.3093758 -1.0100973 2.1439836 -2.5551419e+38
6.3093467 -1.021762 2.1439836 -2.5417977e+38
6.3093176 -1.0334268 2.1439836 -2.5152135e+38
6.3092885 -1.0450914 2.1439836 -2.5151099e+38
6.3092589 -1.0567561 2.1439836 -2.5152139e+38
6.3092299 -1.0684209 2.1439836 -2.5020259e+38
6.3092008 -1.0800856 2.1439836 -2.475493e+38
6.3091717 -1.0917504 2.1439836 -2.5021295e+38
6.3091426 -1.103415 2.1439836 -2.5154216e+38
6.3090844 -1.1267445 2.1439836 -2.4887326e+38
6.3090258 -1.150074 2.1439836 -2.4222191e+38
6.2030439 -1.1427975 2.128336 -2.462148e+38
6.1000619 -1.1356592 2.1131313 -2.4885766e+38
6.2029867 -1.1657232 2.128336 -2.4884728e+38
6.2029581 -1.1771861 2.128336 -2.4751805e+38
6.3087344 -1.2667212 2.1439836 nan
6.3087053 -1.278386 2.1439836 nan
6.2027287 -1.2688886 2.128336 nan
6.3086467 -1.3017154 2.1439836 -3.217097e+38
6.3086176 -1.3133801 2.1439836 -1.7021974e+38
6.3085885 -1.3250449 2.1439836 -2.0894435e+38
6.3085594 -1.3367096 2.1439836 -2.4749203e+38
6.3085303 -1.3483744 2.1439836 -2.4883691e+38
6.3085012 -1.3600391 2.1439836 -2.4885251e+38
6.3084717 -1.3717037 2.1439836 -2.5017139e+38
6.3084426 -1.3833685 2.1439836 -2.5016075e+38
6.3084135 -1.3950332 2.1439836 -2.1017462e+38
6.2024422 -1.3835168 2.128336 -1.7041844e+38
6.2024136 -1.3949797 2.128336 -3.2262667e+38
6.4207788 -0.84904093 2.1484931 -2.3024877e+38
6.4207487 -0.86091709 2.1484931 -2.6885859e+38
6.5346832 -0.88751817 2.1651046 -2.6753965e+38
6.5346532 -0.89961147 2.1651046 -2.6621038e+38
6.5346231 -0.91170478 2.1651046 -2.6616878e+38
6.5345926 -0.92379802 2.1651046 -2.6612702e+38
6.5345626 -0.93589139 2.1651046 -2.9406654e+38
6.5345325 -0.94798464 2.1651046 -3.2206473e+38
6.534502 -0.96007794 2.1651046 nan
6.4205112 -0.95592636 2.1484931 nan
6.4204817 -0.96780246 2.1484931 nan
6.4204521 -0.97967863 2.1484931 nan
6.4204226 -0.9915548 2.1484931 -3.1135148e+38
6.3094339 -0.98676783 2.132319 -2.1019549e+38
6.3094049 -0.99843252 2.132319 -2.3289654e+38
6.3093758 -1.0100973 2.132319 -2.5418496e+38
6.3093467 -1.021762 2.132319 -2.5285573e+38
6.3093176 -1.0334268 2.132319 -2.5152135e+38
6.3092885 -1.0450914 2.132319 -2.5152139e+38
6.3092589 -1.0567561 2.132319 -2.515266e+38
6.3092299 -1.0684209 2.132319 -2.5153699e+38
6.3092008 -1.0800856 2.132319 -2.5021812e+38
6.4201255 -1.1103163 2.1484931 -2.5154214e+38
6.3091426 -1.103415 2.132319 -2.5287135e+38
6.3091135 -1.1150798 2.132319 -2.5153169e+38
6.3090844 -1.1267445 2.132319 -2.5019206e+38
6.3090549 -1.1384093 2.132319 -2.4753359e+38
6.3090258 -1.150074 2.132319 -2.4619916e+38
6.2030439 -1.1427975 2.116873 -2.4752839e+38
6.2030153 -1.1542604 2.116873 -2.4884724e+38
6.2029867 -1.1657232 2.116873 -2.4884722e+38
6.2029581 -1.1771861 2.116873 -2.5017642e+38
6.2029295 -1.1886488 2.116873 -2.5284005e+38
6.2029009 -1.2001117 2.116873 -2.5683264e+38
6.2028718 -1.2115746 2.116873 -2.340901e+38
6.3087926 -1.2433919 2.132319 -2.1136445e+38
6.2028146 -1.2345002 2.116873 -3.3294312e+38
6.202786 -1.245963 2.116873 nan
6.2027574 -1.2574258 2.116873 nan
6.2027287 -1.2688886 2.116873 nan
6.3086467 -1.3017154 2.132319 nan
6.3086176 -1.3133801 2.132319 -2.1668047e+38
6.3085885 -1.3250449 2.132319 -2.3680107e+38
6.3085594 -1.3367096 2.132319 -2.5811551e+38
6.3085303 -1.3483744 2.132319 -2.5550901e+38
6.3085012 -1.3600391 2.132319 -2.5286096e+38
6.3084717 -1.3717037 2.132319 -2.5553502e+38
6.3084426 -1.3833685 2.132319 -2.5688994e+38
6.3084135 -1.3950332 2.132319 -2.1417782e+38
6.653645 -0.90288883 2.1701245 -2.6624167e+38
6.6536145 -0.91520888 2.1701245 -2.662261e+38
6.6535835 -0.9275288 2.1701245 -2.6754492e+38
6.5345926 -0.92379802 2.1530113 -2.6888958e+38
6.5345626 -0.93589139 2.1530113 nan
6.5345325 -0.94798464 2.1530113 nan
6.534502 -0.96007794 2.1530113 nan
6.4205112 -0.95592636 2.1366169 nan
6.4204817 -0.96780246 2.1366169 nan
6.4204521 -0.97967863 2.1366169 nan
6.4204226 -0.9915548 2.1366169 -3.13802e+38
6.3094339 -0.98676783 2.1206541 -2.0488878e+38
6.3094049 -0.99843252 2.1206541 -2.2894512e+38
6.3093758 -1.0100973 2.1206541 -2.5285567e+38
6.3093467 -1.021762 2.1206541 -2.5285567e+38
6.3093176 -1.0334268 2.1206541 -2.5152131e+38
6.3092885 -1.0450914 2.1206541 -2.5152135e+38
6.3092589 -1.0567561 2.1206541 -2.5153173e+38
6.3092299 -1.0684209 2.1206541 -2.5286616e+38
6.420155 -1.0984402 2.1366169 -2.5287135e+38
6.4201255 -1.1103163 2.1366169 -2.5287135e+38
6.4200959 -1.1221924 2.1366169 -2.5286094e+38
6.4200664 -1.1340686 2.1366169 -2.5285054e+38
6.3090844 -1.1267445 2.1206541 -2.5152127e+38
6.3090549 -1.1384093 2.1206541 -2.5018681e+38
6.3090258 -1.150074 2.1206541 -2.4885758e+38
6.3089967 -1.1617388 2.1206541 -2.488576e+38
6.2030153 -1.1542604 2.1054103 -2.4752316e+38
6.2029867 -1.1657232 2.1054103 -2.5018162e+38
6.2029581 -1.1771861 2.1054103 -2.5151602e+38
6.2029295 -1.1886488 2.1054103 -2.5949138e+38
6.2029009 -1.2001117 2.1054103 -2.6606968e+38
6.2028718 -1.2115746 2.1054103 -2.5923629e+38
6.3087926 -1.2433919 2.1206541 -2.528406e+38
6.2028146 -1.2345002 2.1054103 nan
6.202786 -1.245963 2.1054103 nan
6.2027574 -1.2574258 2.1054103 nan
6.2027287 -1.2688886 2.1054103 nan
6.3086467 -1.3017154 2.1206541 nan
6.3086176 -1.3133801 2.1206541 -2.6204575e+38
6.3085885 -1.3250449 2.1206541 -2.661117e+38
6.3085594 -1.3367096 2.1206541 -2.6880649e+38
6.3085303 -1.3483744 2.1206541 -2.635415e+38
6.3085012 -1.3600391 2.1206541 -2.5688497e+38
6.3084717 -1.3717037 2.1206541 -2.6087787e+38
6.3084426 -1.3833685 2.1206541 -2.6348937e+38
6.3084135 -1.3950332 2.1206541 -2.1684677e+38
6.6536145 -0.91520888 2.1578045 -2.7155873e+38
6.6535835 -0.9275288 2.1578045 -2.6888991e+38
6.5345926 -0.92379802 2.1409178 -2.6621583e+38
6.5345626 -0.93589139 2.1409178 -3.075153e+38
6.4205709 -0.93217403 2.1247406 nan
6.4205413 -0.94405013 2.1247406 nan
6.4205112 -0.95592636 2.1247406 nan
6.4204817 -0.96780246 2.1247406 nan
6.4204521 -0.97967863 2.1247406 nan
6.4204226 -0.9915548 2.1247406 -3.0064965e+38
6.3094339 -0.98676783 2.1089892 -2.2346666e+38
6.4203629 -1.0153071 2.1247406 -2.3952694e+38
6.3093758 -1.0100973 2.1089892 -2.5417443e+38
6.4203038 -1.0390594 2.1247406 -2.5152119e+38
6.4202738 -1.0509355 2.1247406 -2.5019202e+38
6.4202442 -1.0628117 2.1247406 -2.5019208e+38
6.3092589 -1.0567561 2.1089892 -2.5153169e+38
6.3092299 -1.0684209 2.1089892 -2.5153687e+38
6.420155 -1.0984402 2.1247406 -2.5286611e+38
6.4201255 -1.1103163 2.1247406 -2.5419536e+38
6.4200959 -1.1221924 2.1247406 -2.5418496e+38
6.3091135 -1.1150798 2.1089892 -2.528609e+38
6.3090844 -1.1267445 2.1089892 -2.5152644e+38
6.3090549 -1.1384093 2.1089892 -2.5019196e+38
6.3090258 -1.150074 2.1089892 -2.5018679e+38
6.3089967 -1.1617388 2.1089892 -2.5151082e+38
6.2030153 -1.1542604 2.0939474 -2.5284005e+38
6.2029867 -1.1657232 2.0939474 -2.5417447e+38
6.3089094 -1.1967329 2.1089892 -2.5683812e+38
6.3088803 -1.2083976 2.1089892 -2.6082059e+38
6.2029009 -1.2001117 2.0939474 -2.6611635e+38
6.2028718 -1.2115746 2.0939474 -2.4339966e+38
6.3087926 -1.2433919 2.1089892 -2.2215421e+38
6.2028146 -1.2345002 2.0939474 nan
6.202786 -1.245963 2.0939474 nan
6.2027574 -1.2574258 2.0939474 nan
6.2027287 -1.2688886 2.0939474 nan
6.2027001 -1.2803515 2.0939474 nan
6.3086176 -1.3133801 2.1089892 -2.4193619e+38
6.3085885 -1.3250449 2.1089892 -2.554624e+38
6.3085594 -1.3367096 2.1089892 -2.6884809e+38
6.3085303 -1.3483744 2.1089892 -2.6354667e+38
6.3085012 -1.3600391 2.1089892 -2.5955379e+38
6.3084717 -1.3717037 2.1089892 -2.5555572e+38
6.3084426 -1.3833685 2.1089892 -2.5155751e+38
6.6536145 -0.91520888 2.1454844 -2.7555162e+38
6.6535835 -0.9275288 2.1454844 -2.7023993e+38
6.5345926 -0.92379802 2.1288245 -2.6354172e+38
6.4206004 -0.92029786 2.1128645 -2.7008908e+38
6.4205709 -0.93217403 2.1128645 -2.7708412e+38
6.4205413 -0.94405013 2.1128645 nan
6.4205112 -0.95592636 2.1128645 nan
6.4204817 -0.96780246 2.1128645 nan
6.4204521 -0.97967863 2.1128645 -3.3010167e+38
6.4204226 -0.9915548 2.1128645 -2.8586249e+38
6.4203925 -1.003431 2.1128645 -2.4211246e+38
6.4203629 -1.0153071 2.1128645 -2.4885754e+38
6.4203334 -1.0271832 2.1128645 -2.5551404e+38
6.4203038 -1.0390594 2.1128645 -2.5151598e+38
6.4202738 -1.0509355 2.1128645 -2.475335e+38
6.4202442 -1.0628117 2.1128645 -2.4885756e+38
6.4202147 -1.0746877 2.1128645 -2.5020241e+38
6.4201851 -1.0865639 2.1128645 -2.5153167e+38
6.420155 -1.0984402 2.1128645 -2.5286611e+38
6.4201255 -1.1103163 2.1128645 -2.5420058e+38
6.4200959 -1.1221924 2.1128645 -2.5552459e+38
6.4200664 -1.1340686 2.1128645 -2.5287133e+38
6.3090844 -1.1267445 2.0973246 -2.5020243e+38
6.3090549 -1.1384093 2.0973246 -2.5152121e+38
6.3090258 -1.150074 2.0973246 -2.51516e+38
6.3089967 -1.1617388 2.0973246 -2.5416403e+38
6.3089676 -1.1734035 2.0973246 -2.5683291e+38
6.2029867 -1.1657232 2.0824845 -2.594914e+38
6.3089094 -1.1967329 2.0973246 -2.6082582e+38
6.3088803 -1.2083976 2.0973246 -2.6348426e+38
6.2029009 -1.2001117 2.0824845 -2.6610081e+38
6.2028718 -1.2115746 2.0824845 -2.2875224e+38
6.3087926 -1.2433919 2.0973246 -1.9036688e+38
6.2028146 -1.2345002 2.0824845 -3.198277e+38
6.202786 -1.245963 2.0824845 nan
6.2027574 -1.2574258 2.0824845 nan
6.2027287 -1.2688886 2.0824845 nan
6.2027001 -1.2803515 2.0824845 -3.3916174e+38
6.3086176 -1.3133801 2.0973246 -2.2087627e+38
6.2026429 -1.303277 2.0824845 -2.4495841e+38
6.2026143 -1.3147399 2.0824845 -2.6887928e+38
6.2025857 -1.3262028 2.0824845 -2.6489673e+38
6.3085012 -1.3600391 2.0973246 -2.6088825e+38
6.3084717 -1.3717037 2.0973246 -2.5023364e+38
6.3084426 -1.3833685 2.0973246 -2.3819763e+38
6.4206004 -0.92029786 2.1009884 -2.6087781e+38
6.4205709 -0.93217403 2.1009884 -2.5294495e+38
6.4205413 -0.94405013 2.1009884 nan
6.4205112 -0.95592636 2.1009884 nan
6.4204817 -0.96780246 2.1009884 nan
6.4204521 -0.97967863 2.1009884 -2.8351129e+38
6.4204226 -0.9915548 2.1009884 -2.661115e+38
6.4203925 -1.003431 2.1009884 -2.5014523e+38
6.4203629 -1.0153071 2.1009884 -2.5286601e+38
6.4203334 -1.0271832 2.1009884 -2.5686925e+38
6.4203038 -1.0390594 2.1009884 -2.5421076e+38
6.4202738 -1.0509355 2.1009884 -2.515367e+38
6.4202442 -1.0628117 2.1009884 -2.528763e+38
6.4202147 -1.0746877 2.1009884 -2.5419522e+38
6.3092299 -1.0684209 2.0856597 -2.5553491e+38
6.420155 -1.0984402 2.1009884 -2.5685899e+38
6.4201255 -1.1103163 2.1009884 -2.5686422e+38
6.4200959 -1.1221924 2.1009884 -2.5818828e+38
6.3091135 -1.1150798 2.0856597 -2.5552982e+38
6.3090844 -1.1267445 2.0856597 -2.5418496e+38
6.3090549 -1.1384093 2.0856597 -2.555193e+38
6.3090258 -1.150074 2.0856597 -2.5550885e+38
6.3089967 -1.1617388 2.0856597 -2.5684319e+38
6.3089676 -1.1734035 2.0856597 -2.5683808e+38
6.3089385 -1.1850681 2.0856597 -2.5818297e+38
6.3089094 -1.1967329 2.0856597 -2.5950181e+38
6.3088803 -1.2083976 2.0856597 -2.6218101e+38
6.3088508 -1.2200623 2.0856597 -2.6616833e+38
6.2028718 -1.2115746 2.0710216 -2.4078283e+38
6.3087926 -1.2433919 2.0856597 -2.1670732e+38
6.2028146 -1.2345002 2.0710216 -3.0093273e+38
6.202786 -1.245963 2.0710216 nan
6.2027574 -1.2574258 2.0710216 nan
6.2027287 -1.2688886 2.0710216 nan
6.2027001 -1.2803515 2.0710216 -3.0211996e+38
6.2026715 -1.2918143 2.0710216 -2.4485955e+38
6.2026429 -1.303277 2.0710216 -2.555611e+38
6.2026143 -1.3147399 2.0710216 -2.6756048e+38
6.2025857 -1.3262028 2.0710216 -2.6355718e+38
6.2025571 -1.3376656 2.0710216 -2.6089349e+38
6.5345325 -0.94798464 2.1046379 -2.2773085e+38
6.4205413 -0.94405013 2.0891123 -3.0494595e+38
6.4205112 -0.95592636 2.0891123 nan
6.4204817 -0.96780246 2.0891123 -3.0866294e+38
6.4204521 -0.97967863 2.0891123 -2.3560199e+38
6.4204226 -0.9915548 2.0891123 -2.4758569e+38
6.4203925 -1.003431 2.0891123 -2.5820909e+38
6.4203629 -1.0153071 2.0891123 -2.5824022e+38
6.4203334 -1.0271832 2.0891123 -2.5690055e+38
6.4203038 -1.0390594 2.0891123 -2.5558167e+38
6.4202738 -1.0509355 2.0891123 -2.5423682e+38
6.4202442 -1.0628117 2.0891123 -2.5557641e+38
6.4202147 -1.0746877 2.0891123 -2.5689012e+38
6.4201851 -1.0865639 2.0891123 -2.5821941e+38
6.420155 -1.0984402 2.0891123 -2.5953828e+38
6.4201255 -1.1103163 2.0891123 -2.595331e+38
6.4200959 -1.1221924 2.0891123 -2.5952791e+38
6.4200664 -1.1340686 2.0891123 -2.5952272e+38
6.4200363 -1.1459447 2.0891123 -2.5819345e+38
6.4200068 -1.1578209 2.0891123 -2.5953302e+38
6.3090258 -1.150074 2.0739951 -2.5952777e+38
6.3089967 -1.1617388 2.0739951 -2.5820369e+38
6.3089676 -1.1734035 2.0739951 -2.5687972e+38
6.3089385 -1.1850681 2.0739951 -2.5821939e+38
6.3089094 -1.1967329 2.0739951 -2.5821937e+38
6.3088803 -1.2083976 2.0739951 -2.6222263e+38
6.2029009 -1.2001117 2.0595589 -2.6484456e+38
6.3088217 -1.231727 2.0739951 -2.5415863e+38
6.3087926 -1.2433919 2.0739951 -2.4214946e+38
6.2028146 -1.2345002 2.0595589 -2.8213594e+38
6.202786 -1.245963 2.0595589 -3.2082367e+38
6.2027574 -1.2574258 2.0595589 -2.9148711e+38
6.2027287 -1.2688886 2.0595589 -2.6229046e+38
6.2027001 -1.2803515 2.0595589 -2.6478237e+38
6.2026715 -1.2918143 2.0595589 -2.674877e+38
6.2026429 -1.303277 2.0595589 -2.6620018e+38
6.534502 -0.96007794 2.0925446 -2.9019897e+38
6.4205112 -0.95592636 2.0772359 -3.2738097e+38
6.4204817 -0.96780246 2.0772359 -2.9143466e+38
6.4204521 -0.97967863 2.0772359 -2.5418526e+38
6.4204226 -0.9915548 2.0772359 -2.5823018e+38
6.4203925 -1.003431 2.0772359 -2.6224375e+38
6.4203629 -1.0153071 2.0772359 -2.6223326e+38
6.4203334 -1.0271832 2.0772359 -2.6222801e+38
6.4203038 -1.0390594 2.0772359 -2.608987e+38
6.4202738 -1.0509355 2.0772359 -2.6089349e+38
6.4202442 -1.0628117 2.0772359 -2.6089864e+38
6.3092589 -1.0567561 2.0623302 -2.6089349e+38
6.3092299 -1.0684209 2.0623302 -2.6221754e+38
6.420155 -1.0984402 2.0772359 -2.6220718e+38
6.4201255 -1.1103163 2.0772359 -2.6087276e+38
6.4200959 -1.1221924 2.0772359 -2.5953315e+38
6.4200664 -1.1340686 2.0772359 -2.5953313e+38
6.4200363 -1.1459447 2.0772359 -2.6086235e+38
6.4200068 -1.1578209 2.0772359 -2.5954349e+38
6.3090258 -1.150074 2.0623302 -2.5954864e+38
6.3089967 -1.1617388 2.0623302 -2.5822976e+38
6.3089676 -1.1734035 2.0623302 -2.5825057e+38
6.3089385 -1.1850681 2.0623302 -2.5956945e+38
6.3089094 -1.1967329 2.0623302 -2.6089868e+38
6.3088803 -1.2083976 2.0623302 -2.6355194e+38
6.3088508 -1.2200623 2.0623302 -2.6752405e+38
6.2028718 -1.2115746 2.0480959 -2.5950714e+38
6.2028432 -1.2230372 2.0480959 -2.5281433e+38
6.2028146 -1.2345002 2.0480959 -2.7014107e+38
6.202786 -1.245963 2.0480959 -2.8739489e+38
6.2027574 -1.2574258 2.0480959 -2.7814203e+38
6.0997801 -1.2483255 2.0342646 -2.6880647e+38
6.0997519 -1.2595921 2.0342646 -2.6882221e+38
6.0997238 -1.2708588 2.0342646 -2.6885342e+38
6.0996957 -1.2821254 2.0342646 -2.6752944e+38
6.4205112 -0.95592636 2.0653598 -2.7286717e+38
6.4204817 -0.96780246 2.0653598 -2.728568e+38
6.4204521 -0.97967863 2.0653598 -2.7285688e+38
6.4204226 -0.9915548 2.0653598 -2.6890563e+38
6.4203925 -1.003431 2.0653598 -2.6490226e+38
6.3094049 -0.99843252 2.0506654 -2.6622622e+38
6.3093758 -1.0100973 2.0506654 -2.6622099e+38
6.3093467 -1.021762 2.0506654 -2.6755535e+38
6.3093176 -1.0334268 2.0506654 -2.6755015e+38
6.4202442 -1.0628117 2.0653598 -2.6623129e+38
6.3092589 -1.0567561 2.0506654 -2.6488648e+38
6.3092299 -1.0684209 2.0506654 -2.6488129e+38
6.420155 -1.0984402 2.0653598 -2.6487608e+38
6.4201255 -1.1103163 2.0653598 -2.6221762e+38
6.4200959 -1.1221924 2.0653598 -2.5954876e+38
6.4200664 -1.1340686 2.0653598 -2.6087799e+38
6.4200363 -1.1459447 2.0653598 -2.6220722e+38
6.4200068 -1.1578209 2.0653598 -2.6088318e+38
6.4199772 -1.169697 2.0653598 -2.5823509e+38
6.3089967 -1.1617388 2.0506654 -2.5824546e+38
6.3089676 -1.1734035 2.0506654 -2.5824548e+38
6.3089385 -1.1850681 2.0506654 -2.6090395e+38
6.3089094 -1.1967329 2.0506654 -2.635572e+38
6.3088803 -1.2083976 2.0506654 -2.6621046e+38
6.3088508 -1.2200623 2.0506654 -2.6885851e+38
6.3088217 -1.231727 2.0506654 -2.6618448e+38
6.2028432 -1.2230372 2.036633 -2.635157e+38
6.2028146 -1.2345002 2.036633 -2.5822481e+38
6.202786 -1.245963 2.036633 -2.5289222e+38
6.2027574 -1.2574258 2.036633 -2.6354154e+38
6.2027287 -1.2688886 2.036633 -2.7417025e+38
6.2027001 -1.2803515 2.036633 -2.7151707e+38
6.3095508 -0.9401089 2.0390007 -2.7553615e+38
6.4204817 -0.96780246 2.0534835 -2.7287254e+38
6.4204521 -0.97967863 2.0534835 -2.7154855e+38
6.4204226 -0.9915548 2.0534835 -2.688953e+38
6.4203925 -1.003431 2.0534835 -2.6755561e+38
6.3094049 -0.99843252 2.0390007 -2.6755553e+38
6.3093758 -1.0100973 2.0390007 -2.6887954e+38
6.3093467 -1.021762 2.0390007 -2.6755027e+38
6.3093176 -1.0334268 2.0390007 -2.6622107e+38
6.3092885 -1.0450914 2.0390007 -2.6622107e+38
6.4202147 -1.0746877 2.0534835 -2.6754506e+38
6.4201851 -1.0865639 2.0534835 -2.662106e+38
6.420155 -1.0984402 2.0534835 -2.6620539e+38
6.4201255 -1.1103163 2.0534835 -2.6354172e+38
6.4200959 -1.1221924 2.0534835 -2.6220209e+38
6.4200664 -1.1340686 2.0534835 -2.6220726e+38
6.4200363 -1.1459447 2.0534835 -2.6220728e+38
6.4200068 -1.1578209 2.0534835 -2.6088844e+38
6.4199772 -1.169697 2.0534835 -2.6089884e+38
6.4199476 -1.1815732 2.0534835 -2.6089365e+38
6.3089676 -1.1734035 2.0390007 -2.6088846e+38
6.3089385 -1.1850681 2.0390007 -2.6222805e+38
6.3089094 -1.1967329 2.0390007 -2.6356247e+38
6.3088803 -1.2083976 2.0390007 -2.6488648e+38
6.3088508 -1.2200623 2.0390007 -2.6753973e+38
6.3088217 -1.231727 2.0390007 -2.6620007e+38
6.3087926 -1.2433919 2.0390007 -2.6487093e+38
6.3087635 -1.2550566 2.0390007 -2.608885e+38
6.3087344 -1.2667212 2.0390007 -2.5690601e+38
6.2027574 -1.2574258 2.0251703 -2.6222292e+38
6.2027287 -1.2688886 2.0251703 -2.6888463e+38
6.2027001 -1.2803515 2.0251703 -2.6887423e+38
6.3095508 -0.9401089 2.0273359 -2.7686532e+38
6.3095217 -0.95177364 2.0273359 -2.742069e+38
6.3094926 -0.96343833 2.0273359 -2.7021924e+38
6.4204226 -0.9915548 2.0416074 -2.7022447e+38
6.3094339 -0.98676783 2.0273359 -2.6888999e+38
6.3094049 -0.99843252 2.0273359 -2.7021916e+38
6.3093758 -1.0100973 2.0273359 -2.7021396e+38
6.3093467 -1.021762 2.0273359 -2.675503e+38
6.3093176 -1.0334268 2.0273359 -2.6489184e+38
6.3092885 -1.0450914 2.0273359 -2.6755032e+38
6.3092589 -1.0567561 2.0273359 -2.688795e+38
6.4201851 -1.0865639 2.0416074 -2.6754504e+38
6.420155 -1.0984402 2.0416074 -2.6621058e+38
6.4201255 -1.1103163 2.0416074 -2.6620537e+38
6.4200959 -1.1221924 2.0416074 -2.6487095e+38
6.4200664 -1.1340686 2.0416074 -2.6354172e+38
6.4200363 -1.1459447 2.0416074 -2.608833e+38
6.4200068 -1.1578209 2.0416074 -2.6221779e+38
6.4199772 -1.169697 2.0416074 -2.6354701e+38
6.4199476 -1.1815732 2.0416074 -2.6354184e+38
6.3089676 -1.1734035 2.0273359 -2.6222296e+38
6.3089385 -1.1850681 2.0273359 -2.6222811e+38
6.3089094 -1.1967329 2.0273359 -2.6223328e+38
6.3088803 -1.2083976 2.0273359 -2.6489172e+38
6.3088508 -1.2200623 2.0273359 -2.6621571e+38
6.3088217 -1.231727 2.0273359 -2.6620531e+38
6.2028432 -1.2230372 2.0137074 -2.6487612e+38
6.3087635 -1.2550566 2.0273359 -2.6222807e+38
6.3087344 -1.2667212 2.0273359 -2.5956444e+38
6.3087053 -1.278386 2.0273359 -2.608885e+38
6.2027287 -1.2688886 2.0137074 -2.622229e+38
6.2027001 -1.2803515 2.0137074 -2.6621058e+38
6.3095508 -0.9401089 2.0156713 -2.7819968e+38
6.4204817 -0.96780246 2.0297313 -2.7554124e+38
6.4204521 -0.97967863 2.0297313 -2.7154321e+38
6.4204226 -0.9915548 2.0297313 -2.702192e+38
