# .PCD v0.7 - Point Cloud Data file format
VERSION 0.7
FIELDS x y z rgb
SIZE 4 4 4 4
TYPE F F F F
COUNT 1 1 1 1
WIDTH 1043
HEIGHT 1
VIEWPOINT 0 0 0 1 0 0 0
POINTS 1043
DATA ascii
2.3559 -0.33214876 1.7827464 -2.3955848e+38
2.3558908 -0.33627638 1.7827464 -2.3822923e+38
2.3558812 -0.340404 1.7827464 -2.3822402e+38
2.3558717 -0.3445316 1.7827464 -2.3821883e+38
2.3418665 -0.34685379 1.7792398 -2.3554999e+38
2.341857 -0.35095474 1.7792398 -2.3289153e+38
2.3418477 -0.35505566 1.7792398 -2.3288632e+38
2.3418381 -0.35915661 1.7792398 -2.3155709e+38
2.3418288 -0.36325756 1.7792398 -2.315519e+38
2.3418193 -0.36735848 1.7792398 -2.3022786e+38
2.3417819 -0.38376227 1.7792398 -2.3156232e+38
2.3557677 -0.38993528 1.7827464 -2.3290198e+38
2.3557582 -0.39406291 1.7827464 -2.3289163e+38
2.3557487 -0.3981905 1.7827464 -2.3155725e+38
2.3557394 -0.40231812 1.7827464 -2.2891437e+38
2.3557298 -0.40644574 1.7827464 -2.2892478e+38
2.3557203 -0.41057333 1.7827464 -2.289248e+38
2.3697057 -0.41693303 1.7862531 -2.3290731e+38
2.3557014 -0.41882855 1.7827464 -2.3558656e+38
2.3696868 -0.42524159 1.7862531 -2.3826063e+38
2.3696773 -0.42939585 1.7862531 -2.4091911e+38
2.3696678 -0.43355012 1.7862531 -2.3959511e+38
2.3826532 -0.43990088 1.7895093 -2.3825033e+38
2.3966384 -0.44647199 1.793016 -2.3822439e+38
2.4116228 -0.45326924 1.7967731 -2.382295e+38
2.4406013 -0.46256903 1.8040369 -2.3824501e+38
2.4545858 -0.46933064 1.8075435 -2.3691576e+38
2.454576 -0.47364682 1.8075435 -2.3424688e+38
2.454566 -0.47796297 1.8075435 -2.3160404e+38
2.4545562 -0.48227918 1.8075435 -2.3426775e+38
2.4695401 -0.48935831 1.8113008 -2.3693661e+38
2.4695301 -0.49370307 1.8113008 -2.3827108e+38
2.4695203 -0.49804783 1.8113008 -2.382971e+38
2.4695103 -0.50239259 1.8113008 -2.40966e+38
2.4695003 -0.50673735 1.8113008 -2.4363492e+38
2.4694903 -0.51108211 1.8113008 -2.476279e+38
2.4694805 -0.51542681 1.8113008 -2.5029163e+38
2.4694705 -0.51977158 1.8113008 -2.5295016e+38
2.4854534 -0.52730727 1.8153083 -2.5562943e+38
2.4854434 -0.53168255 1.8153083 -2.569743e+38
2.4854333 -0.53605771 1.8153083 -2.5831916e+38
2.500416 -0.5435102 1.8190655 -2.623277e+38
2.500406 -0.54791397 1.8190655 -2.6499141e+38
2.5153887 -0.55545217 1.8228226 -2.6766031e+38
2.5313709 -0.56325835 1.8268301 -2.7032919e+38
2.5313606 -0.56772119 1.8268301 -2.7299805e+38
2.5313504 -0.57218409 1.8268301 -2.7432728e+38
2.5473323 -0.58011216 1.8308378 -2.7432206e+38
2.547322 -0.58460552 1.8308378 -2.729929e+38
2.5473118 -0.58909881 1.8308378 -2.6899489e+38
2.5642929 -0.5973711 1.8350959 -2.6500203e+38
2.5642824 -0.60189682 1.8350959 -2.3304347e+38
2.5642722 -0.60642254 1.8350959 -1.9984942e+38
2.5642617 -0.6109482 1.8350959 -2.5709481e+38
2.5642514 -0.61547387 1.8350959 -3.1330743e+38
2.5642409 -0.61999959 1.8350959 nan
2.5472395 -0.62055206 1.8308378 nan
2.5642202 -0.62905103 1.8350959 nan
2.547219 -0.62953871 1.8308378 nan
2.5649776 -0.29867467 1.8305702 nan
2.547971 -0.30152619 1.8263445 nan
2.5649569 -0.30772609 1.8305702 nan
2.5649464 -0.31225178 1.8305702 -2.7408188e+38
2.54794 -0.31500617 1.8263445 -1.927551e+38
2.5479298 -0.31949946 1.8263445 -2.1689423e+38
2.5319233 -0.32226467 1.8223674 -2.4089296e+38
2.531913 -0.32672754 1.8223674 -2.3824483e+38
2.4119334 -0.31777245 1.7925389 -2.3559161e+38
2.3969276 -0.32030091 1.7888103 -2.3691047e+38
2.3829215 -0.32288784 1.7853303 -2.3822929e+38
2.3699152 -0.32553899 1.7820988 -2.3823445e+38
2.3699057 -0.32969326 1.7820988 -2.3956367e+38
2.3559 -0.33214876 1.7786188 -2.3955846e+38
2.3558908 -0.33627638 1.7786188 -2.3955325e+38
2.3558812 -0.340404 1.7786188 -2.3821881e+38
2.3418758 -0.34275281 1.7751389 -2.382084e+38
2.3418665 -0.34685379 1.7751389 -2.3553954e+38
2.341857 -0.35095474 1.7751389 -2.3287587e+38
2.3418477 -0.35505566 1.7751389 -2.3155182e+38
2.3418381 -0.35915661 1.7751389 -2.3022259e+38
2.3418288 -0.36325756 1.7751389 -2.3022257e+38
2.3418193 -0.36735848 1.7751389 -2.3154662e+38
2.34181 -0.37145942 1.7751389 -2.3022778e+38
2.3418007 -0.37556037 1.7751389 -2.3023299e+38
2.3417819 -0.38376227 1.7751389 -2.3022269e+38
2.3557677 -0.38993528 1.7786188 -2.3155715e+38
2.3557582 -0.39406291 1.7786188 -2.3289163e+38
2.3557487 -0.3981905 1.7786188 -2.3289169e+38
2.3557394 -0.40231812 1.7786188 -2.3290206e+38
2.3557298 -0.40644574 1.7786188 -2.3290723e+38
2.3557203 -0.41057333 1.7786188 -2.3291244e+38
2.355711 -0.41470096 1.7786188 -2.342365e+38
2.3557014 -0.41882855 1.7786188 -2.3690023e+38
2.3696868 -0.42524159 1.7820988 -2.3823471e+38
2.3696773 -0.42939585 1.7820988 -2.3956398e+38
2.3696678 -0.43355012 1.7820988 -2.3823996e+38
2.3696582 -0.43770441 1.7820988 -2.3690552e+38
2.3826437 -0.44407991 1.7853303 -2.369055e+38
2.3966289 -0.45067772 1.7888103 -2.3822944e+38
2.4256072 -0.45994893 1.7960188 -2.3689491e+38
2.4545858 -0.46933064 1.8032274 -2.3687934e+38
2.454576 -0.47364682 1.8032274 -2.3423127e+38
2.454566 -0.47796297 1.8032274 -2.3290729e+38
2.4695501 -0.48501357 1.8069559 -2.3425214e+38
2.4695401 -0.48935831 1.8069559 -2.3559698e+38
2.4695301 -0.49370307 1.8069559 -2.3694183e+38
2.4695203 -0.49804783 1.8069559 -2.3696264e+38
2.4695103 -0.50239259 1.8069559 -2.4095555e+38
2.4695003 -0.50673735 1.8069559 -2.436245e+38
2.4694903 -0.51108211 1.8069559 -2.4628822e+38
2.4694805 -0.51542681 1.8069559 -2.5028118e+38
2.4694705 -0.51977158 1.8069559 -2.5294489e+38
2.4854534 -0.52730727 1.8109331 -2.5562937e+38
2.4854434 -0.53168255 1.8109331 -2.5695866e+38
2.4854333 -0.53605771 1.8109331 -2.5963281e+38
2.500416 -0.5435102 1.8146617 -2.6098291e+38
2.5153987 -0.55101979 1.8183903 -2.6365703e+38
2.5153887 -0.55545217 1.8183903 -2.6764996e+38
2.5313709 -0.56325835 1.8223674 -2.70324e+38
2.5313606 -0.56772119 1.8223674 -2.7297726e+38
2.5313504 -0.57218409 1.8223674 -2.7430645e+38
2.5473323 -0.58011216 1.8263445 -2.7563563e+38
2.547322 -0.58460552 1.8263445 -2.7563563e+38
2.5473118 -0.58909881 1.8263445 -2.7164793e+38
2.5473015 -0.59359211 1.8263445 -2.689998e+38
2.547291 -0.59808546 1.8263445 -2.4637169e+38
2.5642722 -0.60642254 1.8305702 -2.2376992e+38
2.5642617 -0.6109482 1.8305702 -2.4512614e+38
2.5802431 -0.61915249 1.8345474 -2.6663884e+38
2.54725 -0.61605871 1.8263445 nan
2.5472395 -0.62055206 1.8263445 nan
2.5642202 -0.62905103 1.8305702 nan
2.5809741 -0.30021992 1.8299911 nan
2.5649672 -0.30320039 1.8260446 nan
2.5649569 -0.30772609 1.8260446 -3.2229374e+38
2.5649464 -0.31225178 1.8260446 -2.6460095e+38
2.5649362 -0.3167775 1.8260446 -2.0619805e+38
2.5479298 -0.31949946 1.8218513 -2.2358195e+38
2.5479195 -0.32399279 1.8218513 -2.4088262e+38
2.531913 -0.32672754 1.8179045 -2.3955333e+38
2.5319028 -0.33119035 1.8179045 -2.3689487e+38
2.3699343 -0.31723043 1.7779446 -2.3822412e+38
2.3699248 -0.3213847 1.7779446 -2.3822923e+38
2.3559191 -0.32389358 1.7744912 -2.3823436e+38
2.3559096 -0.32802117 1.7744912 -2.3689992e+38
2.3559 -0.33214876 1.7744912 -2.3822394e+38
2.3418946 -0.33455095 1.7710378 -2.3954795e+38
2.3418853 -0.3386519 1.7710378 -2.3821351e+38
2.3418758 -0.34275281 1.7710378 -2.368739e+38
2.3418665 -0.34685379 1.7710378 -2.3552908e+38
2.341857 -0.35095474 1.7710378 -2.3287581e+38
2.3418477 -0.35505566 1.7710378 -2.3154658e+38
2.3418381 -0.35915661 1.7710378 -2.288933e+38
2.3418288 -0.36325756 1.7710378 -2.3022772e+38
2.3418193 -0.36735848 1.7710378 -2.3155695e+38
2.3417819 -0.38376227 1.7710378 -2.2889344e+38
2.3417723 -0.38786319 1.7710378 -2.3021754e+38
2.3557582 -0.39406291 1.7744912 -2.3155719e+38
2.3557487 -0.3981905 1.7744912 -2.342053e+38
2.3557394 -0.40231812 1.7744912 -2.3556049e+38
2.3557298 -0.40644574 1.7744912 -2.3556569e+38
2.3557203 -0.41057333 1.7744912 -2.355709e+38
2.355711 -0.41470096 1.7744912 -2.3688976e+38
2.3557014 -0.41882855 1.7744912 -2.3822424e+38
2.3556919 -0.42295614 1.7744912 -2.3821911e+38
2.3556826 -0.42708376 1.7744912 -2.3690029e+38
2.3696678 -0.43355012 1.7779446 -2.3557108e+38
2.3696582 -0.43770441 1.7779446 -2.3425218e+38
2.3696487 -0.44185871 1.7779446 -2.3558654e+38
2.3826339 -0.44825894 1.7811512 -2.3689493e+38
2.3966191 -0.45488343 1.7846045 -2.3687408e+38
2.4405916 -0.46685854 1.7954578 -2.3555007e+38
2.454576 -0.47364682 1.7989112 -2.3555528e+38
2.454566 -0.47796297 1.7989112 -2.342365e+38
2.4695501 -0.48501357 1.8026111 -2.3424177e+38
2.4695401 -0.48935831 1.8026111 -2.3426258e+38
2.4695301 -0.49370307 1.8026111 -2.3560745e+38
2.4695203 -0.49804783 1.8026111 -2.3561787e+38
2.4695103 -0.50239259 1.8026111 -2.3961079e+38
2.4695003 -0.50673735 1.8026111 -2.436089e+38
2.4694903 -0.51108211 1.8026111 -2.4627261e+38
2.4694805 -0.51542681 1.8026111 -2.4894151e+38
2.4694705 -0.51977158 1.8026111 -2.5292408e+38
2.4694605 -0.52411634 1.8026111 -2.5560337e+38
2.4854434 -0.53168255 1.8065579 -2.5825671e+38
2.4854333 -0.53605771 1.8065579 -2.596172e+38
2.4854231 -0.54043299 1.8065579 -2.6096208e+38
2.500406 -0.54791397 1.8102579 -2.6231216e+38
2.5153887 -0.55545217 1.8139579 -2.662999e+38
2.5153785 -0.55988455 1.8139579 -2.7030317e+38
2.5313606 -0.56772119 1.8179045 -2.7295641e+38
2.5313504 -0.57218409 1.8179045 -2.7429081e+38
2.5313401 -0.57664692 1.8179045 -2.7694405e+38
2.5313299 -0.58110982 1.8179045 -2.7827843e+38
2.5473118 -0.58909881 1.8218513 -2.7561476e+38
2.5473015 -0.59359211 1.8218513 -2.716374e+38
2.547291 -0.59808546 1.8218513 -2.5967429e+38
2.5642722 -0.60642254 1.8260446 -2.463667e+38
2.5642617 -0.6109482 1.8260446 -2.329968e+38
2.5472603 -0.61156541 1.8218513 -2.1873459e+38
2.54725 -0.61605871 1.8218513 nan
2.5472395 -0.62055206 1.8218513 nan
2.5472293 -0.62504542 1.8218513 nan
2.5642099 -0.63357669 1.8260446 nan
2.5979705 -0.30186176 1.8295959 nan
2.5809639 -0.30477613 1.8254349 nan
2.5809534 -0.30933231 1.8254349 -3.0098463e+38
2.5809429 -0.31388846 1.8254349 -2.5947116e+38
2.5649362 -0.3167775 1.8215189 -2.1961507e+38
2.5649257 -0.32130319 1.8215189 -2.3025926e+38
2.5649154 -0.32582891 1.8215189 -2.4222744e+38
2.5649049 -0.3303546 1.8215189 -2.3954816e+38
2.5648947 -0.33488029 1.8215189 -2.3687412e+38
2.355938 -0.31563836 1.7703636 -2.3688968e+38
2.3559284 -0.31976596 1.7703636 -2.3821881e+38
2.3559191 -0.32389358 1.7703636 -2.3822909e+38
2.3559096 -0.32802117 1.7703636 -2.3822905e+38
2.3559 -0.33214876 1.7703636 -2.3955305e+38
2.3418946 -0.33455095 1.7669369 -2.3954266e+38
2.3418853 -0.3386519 1.7669369 -2.3821341e+38
2.3418758 -0.34275281 1.7669369 -2.3686861e+38
2.3418665 -0.34685379 1.7669369 -2.3554457e+38
2.341857 -0.35095474 1.7669369 -2.3288614e+38
2.3418477 -0.35505566 1.7669369 -2.3155691e+38
2.3418381 -0.35915661 1.7669369 -2.3022768e+38
2.3418288 -0.36325756 1.7669369 -2.3023285e+38
2.3418193 -0.36735848 1.7669369 -2.3155691e+38
2.34181 -0.37145942 1.7669369 -2.3023287e+38
2.3418007 -0.37556037 1.7669369 -2.3022255e+38
2.3417912 -0.37966132 1.7669369 -2.3023299e+38
2.3417819 -0.38376227 1.7669369 -2.2890902e+38
2.3417723 -0.38786319 1.7669369 -2.3023829e+38
2.3557582 -0.39406291 1.7703636 -2.3156756e+38
2.3557487 -0.3981905 1.7703636 -2.3290719e+38
2.3557394 -0.40231812 1.7703636 -2.3558124e+38
2.3557298 -0.40644574 1.7703636 -2.3557605e+38
2.3557203 -0.41057333 1.7703636 -2.3557607e+38
2.355711 -0.41470096 1.7703636 -2.355709e+38
2.3557014 -0.41882855 1.7703636 -2.3557096e+38
2.3556919 -0.42295614 1.7703636 -2.3557619e+38
2.3556826 -0.42708376 1.7703636 -2.355814e+38
2.3696678 -0.43355012 1.7737902 -2.3425739e+38
2.3696582 -0.43770441 1.7737902 -2.3426248e+38
2.3696487 -0.44185871 1.7737902 -2.3557603e+38
2.3826339 -0.44825894 1.7769721 -2.3687926e+38
2.3966191 -0.45488343 1.7803988 -2.3687922e+38
2.4545858 -0.46933064 1.794595 -2.3686887e+38
2.454576 -0.47364682 1.794595 -2.3555007e+38
2.4695601 -0.48066881 1.7982664 -2.3423131e+38
2.4695501 -0.48501357 1.7982664 -2.3424177e+38
2.4695401 -0.48935831 1.7982664 -2.3558145e+38
2.4695301 -0.49370307 1.7982664 -2.3559708e+38
2.4695203 -0.49804783 1.7982664 -2.3693676e+38
2.4695103 -0.50239259 1.7982664 -2.3827641e+38
2.4695003 -0.50673735 1.7982664 -2.4094525e+38
2.4694903 -0.51108211 1.7982664 -2.436089e+38
2.4694805 -0.51542681 1.7982664 -2.4760705e+38
2.4694705 -0.51977158 1.7982664 -2.5027076e+38
2.4694605 -0.52411634 1.7982664 -2.5426893e+38
2.4854434 -0.53168255 1.8021827 -2.5560862e+38
2.4854333 -0.53605771 1.8021827 -2.5829312e+38
2.4854231 -0.54043299 1.8021827 -2.5963279e+38
2.500406 -0.54791397 1.8058541 -2.6230691e+38
2.5003958 -0.5523178 1.8058541 -2.6497581e+38
2.5153785 -0.55988455 1.8095255 -2.6764463e+38
2.5153682 -0.56431693 1.8095255 -2.6896864e+38
2.5313504 -0.57218409 1.8134418 -2.716271e+38
2.5313401 -0.57664692 1.8134418 -2.7295631e+38
2.5313299 -0.58110982 1.8134418 -2.742855e+38
2.5473118 -0.58909881 1.8173578 -2.7295623e+38
2.5473015 -0.59359211 1.8173578 -2.7163213e+38
2.547291 -0.59808546 1.8173578 -2.6366709e+38
2.5642722 -0.60642254 1.8215189 -2.5439389e+38
2.5642617 -0.6109482 1.8215189 -2.3172973e+38
2.5642514 -0.61547387 1.8215189 -2.0788776e+38
2.54725 -0.61605871 1.8173578 nan
2.5642307 -0.62452531 1.8215189 nan
2.5642202 -0.62905103 1.8215189 nan
2.547219 -0.62953871 1.8173578 nan
2.59796 -0.30645031 1.8250074 nan
2.5809534 -0.30933231 1.8208787 -2.7830437e+38
2.5809429 -0.31388846 1.8208787 -2.5533777e+38
2.5809324 -0.31844464 1.8208787 -2.3154161e+38
2.5649257 -0.32130319 1.8169931 -2.3826578e+38
2.5649154 -0.32582891 1.8169931 -2.4355667e+38
2.5649049 -0.3303546 1.8169931 -2.4087221e+38
2.5648947 -0.33488029 1.8169931 -2.3688974e+38
2.355938 -0.31563836 1.7662359 -2.3690015e+38
2.3559284 -0.31976596 1.7662359 -2.3690011e+38
2.3559191 -0.32389358 1.7662359 -2.3823968e+38
2.3559096 -0.32802117 1.7662359 -2.3956361e+38
2.3559 -0.33214876 1.7662359 -2.3955832e+38
2.3418946 -0.33455095 1.762836 -2.3955309e+38
2.3418853 -0.3386519 1.762836 -2.3822384e+38
2.3418758 -0.34275281 1.762836 -2.368842e+38
2.3418665 -0.34685379 1.762836 -2.3555498e+38
2.341857 -0.35095474 1.762836 -2.3289133e+38
2.3418477 -0.35505566 1.762836 -2.3289133e+38
2.3418381 -0.35915661 1.762836 -2.3156212e+38
2.3418288 -0.36325756 1.762836 -2.3156733e+38
2.3418193 -0.36735848 1.762836 -2.3024332e+38
2.34181 -0.37145942 1.762836 -2.3157778e+38
2.3418007 -0.37556037 1.762836 -2.3157265e+38
2.3417819 -0.38376227 1.762836 -2.2892468e+38
2.3417723 -0.38786319 1.762836 -2.3025914e+38
2.341763 -0.39196414 1.762836 -2.3158837e+38
2.3557487 -0.3981905 1.7662359 -2.3292796e+38
2.3557394 -0.40231812 1.7662359 -2.3425201e+38
2.3557298 -0.40644574 1.7662359 -2.3558124e+38
2.3557203 -0.41057333 1.7662359 -2.3558126e+38
2.355711 -0.41470096 1.7662359 -2.3424686e+38
2.3557014 -0.41882855 1.7662359 -2.3158845e+38
2.3556919 -0.42295614 1.7662359 -2.3292293e+38
2.3556826 -0.42708376 1.7662359 -2.3292814e+38
2.3696678 -0.43355012 1.7696359 -2.3426777e+38
2.3696582 -0.43770441 1.7696359 -2.3425731e+38
2.3826437 -0.44407991 1.7727931 -2.355709e+38
2.3826339 -0.44825894 1.7727931 -2.3689489e+38
2.3966191 -0.45488343 1.7761931 -2.3688447e+38
2.4405916 -0.46685854 1.7868788 -2.368793e+38
2.454576 -0.47364682 1.7902788 -2.355449e+38
2.4695601 -0.48066881 1.7939217 -2.3289689e+38
2.4695501 -0.48501357 1.7939217 -2.3423658e+38
2.4695401 -0.48935831 1.7939217 -2.3557623e+38
2.4695301 -0.49370307 1.7939217 -2.3691071e+38
2.4695203 -0.49804783 1.7939217 -2.3692633e+38
2.4695103 -0.50239259 1.7939217 -2.3826081e+38
2.4695003 -0.50673735 1.7939217 -2.3827639e+38
2.4694903 -0.51108211 1.7939217 -2.4226929e+38
2.4694805 -0.51542681 1.7939217 -2.4493819e+38
2.4694705 -0.51977158 1.7939217 -2.4893112e+38
2.4694605 -0.52411634 1.7939217 -2.5160005e+38
2.4854434 -0.53168255 1.7978075 -2.5426899e+38
2.4854333 -0.53605771 1.7978075 -2.5694829e+38
2.4854231 -0.54043299 1.7978075 -2.596172e+38
2.500406 -0.54791397 1.8014503 -2.6097245e+38
2.5003958 -0.5523178 1.8014503 -2.623277e+38
2.5003858 -0.55672157 1.8014503 -2.6365173e+38
2.5153682 -0.56431693 1.8050931 -2.6631019e+38
2.5313504 -0.57218409 1.8089788 -2.6897382e+38
2.5313401 -0.57664692 1.8089788 -2.7029785e+38
2.5313299 -0.58110982 1.8089788 -2.7029781e+38
2.5473118 -0.58909881 1.8128645 -2.7162183e+38
2.5473015 -0.59359211 1.8128645 -2.7162704e+38
2.547291 -0.59808546 1.8128645 -2.6763936e+38
2.5472808 -0.60257876 1.8128645 -2.6230173e+38
2.5642617 -0.6109482 1.8169931 -2.3030165e+38
2.5642514 -0.61547387 1.8169931 -1.9735766e+38
2.5642409 -0.61999959 1.8169931 nan
2.5642307 -0.62452531 1.8169931 nan
2.5642202 -0.62905103 1.8169931 nan
2.5642099 -0.63357669 1.8169931 nan
2.5641994 -0.63810241 1.8169931 nan
2.59796 -0.30645031 1.8204188 nan
2.5979495 -0.31103888 1.8204188 -3.0343998e+38
2.5809429 -0.31388846 1.8163226 -2.6341664e+38
2.5809324 -0.31844464 1.8163226 -2.2491087e+38
2.5649257 -0.32130319 1.8124673 -2.3558134e+38
2.5809114 -0.327557 1.8163226 -2.4620474e+38
2.5649049 -0.3303546 1.8124673 -2.4220663e+38
2.3699439 -0.31307617 1.7654817 -2.3821901e+38
2.355938 -0.31563836 1.7621083 -2.3689502e+38
2.3559284 -0.31976596 1.7621083 -2.3690023e+38
2.3559191 -0.32389358 1.7621083 -2.3690544e+38
2.3559096 -0.32802117 1.7621083 -2.3823972e+38
2.3559 -0.33214876 1.7621083 -2.3822917e+38
2.3418946 -0.33455095 1.7587349 -2.3955315e+38
2.3418853 -0.3386519 1.7587349 -2.3821867e+38
2.3418758 -0.34275281 1.7587349 -2.3820826e+38
2.3418665 -0.34685379 1.7587349 -2.3554978e+38
2.341857 -0.35095474 1.7587349 -2.3421536e+38
2.3418477 -0.35505566 1.7587349 -2.3289133e+38
2.3418381 -0.35915661 1.7587349 -2.3156216e+38
2.3418288 -0.36325756 1.7587349 -2.3157259e+38
2.3418193 -0.36735848 1.7587349 -2.3157782e+38
2.34181 -0.37145942 1.7587349 -2.3291228e+38
2.3418007 -0.37556037 1.7587349 -2.3291236e+38
2.3417819 -0.38376227 1.7587349 -2.3026439e+38
2.3417723 -0.38786319 1.7587349 -2.3159883e+38
2.341763 -0.39196414 1.7587349 -2.3159879e+38
2.3417535 -0.39606509 1.7587349 -2.3159873e+38
2.3557394 -0.40231812 1.7621083 -2.3292279e+38
2.3557298 -0.40644574 1.7621083 -2.3292798e+38
2.3557203 -0.41057333 1.7621083 -2.3293319e+38
2.355711 -0.41470096 1.7621083 -2.3292283e+38
2.3557014 -0.41882855 1.7621083 -2.3291768e+38
2.3696868 -0.42524159 1.7654817 -2.3291772e+38
2.3696773 -0.42939585 1.7654817 -2.3292295e+38
2.3696678 -0.43355012 1.7654817 -2.3159893e+38
2.3696582 -0.43770441 1.7654817 -2.3159889e+38
2.3826437 -0.44407991 1.7686141 -2.3426248e+38
2.3966289 -0.45067772 1.7719874 -2.3559167e+38
2.411613 -0.4575035 1.7756016 -2.3557086e+38
2.4545858 -0.46933064 1.7859626 -2.368897e+38
2.454576 -0.47364682 1.7859626 -2.3422605e+38
2.4695601 -0.48066881 1.7895769 -2.3289169e+38
2.4695501 -0.48501357 1.7895769 -2.3290733e+38
2.4695401 -0.48935831 1.7895769 -2.3423662e+38
2.4695301 -0.49370307 1.7895769 -2.3558147e+38
2.4695203 -0.49804783 1.7895769 -2.3692631e+38
2.4695103 -0.50239259 1.7895769 -2.3693674e+38
2.4695003 -0.50673735 1.7895769 -2.3827639e+38
2.4694903 -0.51108211 1.7895769 -2.4094006e+38
2.4694805 -0.51542681 1.7895769 -2.4493817e+38
2.4694705 -0.51977158 1.7895769 -2.4759666e+38
2.4694605 -0.52411634 1.7895769 -2.5159483e+38
2.4854434 -0.53168255 1.7934321 -2.5426897e+38
2.4854333 -0.53605771 1.7934321 -2.5561905e+38
2.4854231 -0.54043299 1.7934321 -2.5695872e+38
2.500406 -0.54791397 1.7970464 -2.5831397e+38
2.5003958 -0.5523178 1.7970464 -2.5964843e+38
2.5003858 -0.55672157 1.7970464 -2.6230691e+38
2.5153682 -0.56431693 1.8006607 -2.6365171e+38
2.5153582 -0.56874931 1.8006607 -2.6499652e+38
2.5313401 -0.57664692 1.804516 -2.6631534e+38
2.5313299 -0.58110982 1.804516 -2.689738e+38
2.5473118 -0.58909881 1.8083712 -2.6896858e+38
2.5473015 -0.59359211 1.8083712 -2.7029789e+38
2.547291 -0.59808546 1.8083712 -2.6896355e+38
2.5472808 -0.60257876 1.8083712 -2.6630498e+38
2.5642617 -0.6109482 1.8124673 -2.3036375e+38
2.5472603 -0.61156541 1.8083712 -1.9454853e+38
2.5642409 -0.61999959 1.8124673 -3.3197429e+38
2.5802221 -0.62826484 1.8163226 nan
2.5642202 -0.62905103 1.8124673 nan
2.5642099 -0.63357669 1.8124673 nan
2.5641994 -0.63810241 1.8124673 nan
2.59796 -0.30645031 1.8158302 nan
2.5979495 -0.31103888 1.8158302 -3.2883536e+38
2.5809429 -0.31388846 1.8117664 -2.7263262e+38
2.5809324 -0.31844464 1.8117664 -2.1689895e+38
2.5809219 -0.32300082 1.8117664 -2.3293323e+38
2.5809114 -0.327557 1.8117664 -2.475391e+38
2.5649049 -0.3303546 1.8079417 -2.4353059e+38
2.3699439 -0.31307617 1.7613274 -2.3821372e+38
2.355938 -0.31563836 1.7579807 -2.3688972e+38
2.3559284 -0.31976596 1.7579807 -2.3557092e+38
2.3559191 -0.32389358 1.7579807 -2.369054e+38
2.3559096 -0.32802117 1.7579807 -2.3690528e+38
2.3419039 -0.33045 1.754634 -2.3822919e+38
2.3418946 -0.33455095 1.754634 -2.3821875e+38
2.3418853 -0.3386519 1.754634 -2.3821349e+38
2.3418758 -0.34275281 1.754634 -2.3821347e+38
2.3418665 -0.34685379 1.754634 -2.3688422e+38
2.341857 -0.35095474 1.754634 -2.3554982e+38
2.3418477 -0.35505566 1.754634 -2.3421545e+38
2.3418381 -0.35915661 1.754634 -2.3156222e+38
2.3418288 -0.36325756 1.754634 -2.329019e+38
2.3418193 -0.36735848 1.754634 -2.3290196e+38
2.34181 -0.37145942 1.754634 -2.3424161e+38
2.3418007 -0.37556037 1.754634 -2.3423646e+38
2.3417912 -0.37966132 1.754634 -2.3290208e+38
2.3417819 -0.38376227 1.754634 -2.3158843e+38
2.3417723 -0.38786319 1.754634 -2.31604e+38
2.341763 -0.39196414 1.754634 -2.3159875e+38
2.3417535 -0.39606509 1.754634 -2.3159871e+38
2.3557394 -0.40231812 1.7579807 -2.3026427e+38
2.3557298 -0.40644574 1.7579807 -2.3026427e+38
2.3557203 -0.41057333 1.7579807 -2.3026431e+38
2.355711 -0.41470096 1.7579807 -2.3158839e+38
2.3696961 -0.42108729 1.7613274 -2.3291248e+38
2.3696868 -0.42524159 1.7613274 -2.3290737e+38
2.3696773 -0.42939585 1.7613274 -2.3158853e+38
2.3696678 -0.43355012 1.7613274 -2.3026451e+38
2.3826532 -0.43990088 1.7644351 -2.2895082e+38
2.3826437 -0.44407991 1.7644351 -2.3161962e+38
2.4116228 -0.45326924 1.7713673 -2.3426244e+38
2.4256072 -0.45994893 1.774714 -2.3557605e+38
2.4545858 -0.46933064 1.7816465 -2.3557603e+38
2.454576 -0.47364682 1.7816465 -2.3422603e+38
2.4695601 -0.48066881 1.7852321 -2.31578e+38
2.4695501 -0.48501357 1.7852321 -2.3158845e+38
2.4695401 -0.48935831 1.7852321 -2.3158849e+38
2.4695301 -0.49370307 1.7852321 -2.3425739e+38
2.4695203 -0.49804783 1.7852321 -2.3559183e+38
2.4695103 -0.50239259 1.7852321 -2.3693148e+38
2.4695003 -0.50673735 1.7852321 -2.3827112e+38
2.4694903 -0.51108211 1.7852321 -2.4092961e+38
2.4694805 -0.51542681 1.7852321 -2.4360371e+38
2.4694705 -0.51977158 1.7852321 -2.4758626e+38
2.4694605 -0.52411634 1.7852321 -2.515896e+38
2.4854434 -0.53168255 1.7890569 -2.5292931e+38
2.4854333 -0.53605771 1.7890569 -2.5427939e+38
2.4854231 -0.54043299 1.7890569 -2.5428986e+38
2.500406 -0.54791397 1.7926426 -2.5431067e+38
2.5003958 -0.5523178 1.7926426 -2.5696919e+38
2.5003858 -0.55672157 1.7926426 -2.5964322e+38
2.5153682 -0.56431693 1.7962284 -2.6098285e+38
2.5153582 -0.56874931 1.7962284 -2.6098802e+38
2.5313401 -0.57664692 1.8000531 -2.6364129e+38
2.5313299 -0.58110982 1.8000531 -2.6630493e+38
2.5313196 -0.58557266 1.8000531 -2.6762897e+38
2.5473015 -0.59359211 1.8038778 -2.6895828e+38
2.547291 -0.59808546 1.8038778 -2.7027201e+38
2.5472808 -0.60257876 1.8038778 -2.7025621e+38
2.5472705 -0.60707211 1.8038778 -2.302909e+38
2.5472603 -0.61156541 1.8038778 -1.9061248e+38
2.5642409 -0.61999959 1.8079417 -3.2139719e+38
2.5642307 -0.62452531 1.8079417 nan
2.5642202 -0.62905103 1.8079417 nan
2.5642099 -0.63357669 1.8079417 nan
2.6149559 -0.30812454 1.815273 nan
2.5979495 -0.31103888 1.8112416 nan
2.597939 -0.31562743 1.8112416 -2.7672381e+38
2.5809324 -0.31844464 1.8072102 -2.0357534e+38
2.5809219 -0.32300082 1.8072102 -2.2492665e+38
2.5809114 -0.327557 1.8072102 -2.4620979e+38
2.5649049 -0.3303546 1.803416 -2.4220126e+38
2.3699439 -0.31307617 1.7571731 -2.3819804e+38
2.355938 -0.31563836 1.7538531 -2.3688443e+38
2.3559284 -0.31976596 1.7538531 -2.3556567e+38
2.3559191 -0.32389358 1.7538531 -2.3690015e+38
2.3559096 -0.32802117 1.7538531 -2.3690007e+38
2.3419039 -0.33045 1.7505331 -2.3822921e+38
2.3418946 -0.33455095 1.7505331 -2.3821357e+38
2.3418853 -0.3386519 1.7505331 -2.3688429e+38
2.3418758 -0.34275281 1.7505331 -2.3556023e+38
2.3418665 -0.34685379 1.7505331 -2.342206e+38
2.341857 -0.35095474 1.7505331 -2.3289143e+38
2.3418477 -0.35505566 1.7505331 -2.3155705e+38
2.3418381 -0.35915661 1.7505331 -2.3023308e+38
2.3418288 -0.36325756 1.7505331 -2.3156236e+38
2.3418193 -0.36735848 1.7505331 -2.3289165e+38
2.34181 -0.37145942 1.7505331 -2.3156768e+38
2.3418007 -0.37556037 1.7505331 -2.315677e+38
2.3417912 -0.37966132 1.7505331 -2.3157289e+38
2.355777 -0.38580769 1.7538531 -2.3157804e+38
2.3417723 -0.38786319 1.7505331 -2.3158319e+38
2.3557582 -0.39406291 1.7538531 -2.3158315e+38
2.3417535 -0.39606509 1.7505331 -2.3025386e+38
2.3557394 -0.40231812 1.7538531 -2.3025904e+38
2.3557298 -0.40644574 1.7538531 -2.30259e+38
2.3557203 -0.41057333 1.7538531 -2.3025388e+38
2.355711 -0.41470096 1.7538531 -2.3024875e+38
2.3696961 -0.42108729 1.7571731 -2.3157808e+38
2.3696868 -0.42524159 1.7571731 -2.3157816e+38
2.3696773 -0.42939585 1.7571731 -2.3158336e+38
2.3696678 -0.43355012 1.7571731 -2.3026449e+38
2.3826532 -0.43990088 1.7602559 -2.3028524e+38
2.3966384 -0.44647199 1.763576 -2.3160404e+38
2.425617 -0.45568797 1.7704531 -2.3426244e+38
2.4406013 -0.46256903 1.7740102 -2.3560199e+38
2.4545858 -0.46933064 1.7773302 -2.3693641e+38
2.454576 -0.47364682 1.7773302 -2.3559159e+38
2.4695601 -0.48066881 1.7808874 -2.3424682e+38
2.4695501 -0.48501357 1.7808874 -2.3424684e+38
2.4695401 -0.48935831 1.7808874 -2.3291768e+38
2.4695301 -0.49370307 1.7808874 -2.3425214e+38
2.4695203 -0.49804783 1.7808874 -2.355866e+38
2.4695103 -0.50239259 1.7808874 -2.3692623e+38
2.4695003 -0.50673735 1.7808874 -2.3827105e+38
2.4694903 -0.51108211 1.7808874 -2.4093992e+38
2.4694805 -0.51542681 1.7808874 -2.4361403e+38
2.4694705 -0.51977158 1.7808874 -2.4626218e+38
2.4694605 -0.52411634 1.7808874 -2.4892593e+38
2.4854434 -0.53168255 1.7846817 -2.5027082e+38
2.4854333 -0.53605771 1.7846817 -2.5161051e+38
2.4854231 -0.54043299 1.7846817 -2.5162617e+38
2.500406 -0.54791397 1.7882388 -2.5297623e+38
2.5003958 -0.5523178 1.7882388 -2.5564513e+38
2.5003858 -0.55672157 1.7882388 -2.5831916e+38
2.5153682 -0.56431693 1.791796 -2.5964839e+38
2.5153582 -0.56874931 1.791796 -2.6097762e+38
2.5313401 -0.57664692 1.7955902 -2.6364127e+38
2.5313299 -0.58110982 1.7955902 -2.6630493e+38
2.5313196 -0.58557266 1.7955902 -2.6629974e+38
2.5313094 -0.59003544 1.7955902 -2.6762386e+38
2.547291 -0.59808546 1.7993846 -2.6761354e+38
2.5472808 -0.60257876 1.7993846 -2.6895286e+38
2.5472705 -0.60707211 1.7993846 -2.3560763e+38
2.5472603 -0.61156541 1.7993846 -2.0363448e+38
2.5642409 -0.61999959 1.803416 -3.2252871e+38
2.5642307 -0.62452531 1.803416 nan
2.5642202 -0.62905103 1.803416 nan
2.547219 -0.62953871 1.7993846 nan
2.6149559 -0.30812454 1.8106521 nan
2.5979495 -0.31103888 1.806653 nan
2.597939 -0.31562743 1.806653 -2.7919015e+38
2.5809324 -0.31844464 1.802654 -1.8892267e+38
2.5809219 -0.32300082 1.802654 -2.1699286e+38
2.5809114 -0.327557 1.802654 -2.4487539e+38
2.5649049 -0.3303546 1.7988902 -2.4085647e+38
2.3699439 -0.31307617 1.7530189 -2.3687919e+38
2.355938 -0.31563836 1.7497255 -2.3688962e+38
2.3559284 -0.31976596 1.7497255 -2.355708e+38
2.3559191 -0.32389358 1.7497255 -2.3690524e+38
2.3559096 -0.32802117 1.7497255 -2.3691556e+38
2.3419039 -0.33045 1.7464321 -2.3824475e+38
2.3418946 -0.33455095 1.7464321 -2.3822394e+38
2.3418853 -0.3386519 1.7464321 -2.3554987e+38
2.3418758 -0.34275281 1.7464321 -2.328862e+38
2.3418665 -0.34685379 1.7464321 -2.3154656e+38
2.341857 -0.35095474 1.7464321 -2.3021738e+38
2.3418477 -0.35505566 1.7464321 -2.302122e+38
2.3418381 -0.35915661 1.7464321 -2.2888821e+38
2.3418288 -0.36325756 1.7464321 -2.3021748e+38
2.3418193 -0.36735848 1.7464321 -2.3155196e+38
2.34181 -0.37145942 1.7464321 -2.302176e+38
2.3418007 -0.37556037 1.7464321 -2.2889876e+38
2.3417912 -0.37966132 1.7464321 -2.302332e+38
2.355777 -0.38580769 1.7497255 -2.3023837e+38
2.3557677 -0.38993528 1.7497255 -2.3157279e+38
2.3557582 -0.39406291 1.7497255 -2.3157277e+38
2.3557487 -0.3981905 1.7497255 -2.3023833e+38
2.3557394 -0.40231812 1.7497255 -2.2892464e+38
2.3557298 -0.40644574 1.7497255 -2.3024863e+38
2.3557203 -0.41057333 1.7497255 -2.3024867e+38
2.355711 -0.41470096 1.7497255 -2.3023835e+38
2.3696961 -0.42108729 1.7530189 -2.289092e+38
2.3696868 -0.42524159 1.7530189 -2.3023332e+38
2.3696773 -0.42939585 1.7530189 -2.3023849e+38
2.3696678 -0.43355012 1.7530189 -2.3024885e+38
2.3826532 -0.43990088 1.7560768 -2.3025407e+38
2.3966384 -0.44647199 1.7593702 -2.3290218e+38
2.425617 -0.45568797 1.7661922 -2.3426775e+38
2.4545958 -0.46501446 1.7730141 -2.3696777e+38
2.4695799 -0.47197932 1.7765427 -2.3828136e+38
2.454576 -0.47364682 1.7730141 -2.3827613e+38
2.4695601 -0.48066881 1.7765427 -2.3692611e+38
2.4545562 -0.48227918 1.7730141 -2.3558128e+38
2.4695401 -0.48935831 1.7765427 -2.3425208e+38
2.4695301 -0.49370307 1.7765427 -2.342469e+38
2.4695203 -0.49804783 1.7765427 -2.3425729e+38
2.4695103 -0.50239259 1.7765427 -2.3692096e+38
2.4695003 -0.50673735 1.7765427 -2.3827097e+38
2.4694903 -0.51108211 1.7765427 -2.4093985e+38
2.4694805 -0.51542681 1.7765427 -2.4227436e+38
2.4694705 -0.51977158 1.7765427 -2.4359845e+38
2.4694605 -0.52411634 1.7765427 -2.4493817e+38
2.4854434 -0.53168255 1.7803063 -2.4628307e+38
2.4854333 -0.53605771 1.7803063 -2.4762277e+38
2.4854231 -0.54043299 1.7803063 -2.4896246e+38
2.4854131 -0.54480821 1.7803063 -2.5031248e+38
2.5003958 -0.5523178 1.7838349 -2.5430539e+38
2.5003858 -0.55672157 1.7838349 -2.5697945e+38
2.5003757 -0.5611254 1.7838349 -2.596431e+38
2.5153582 -0.56874931 1.7873635 -2.6097754e+38
2.515348 -0.57318169 1.7873635 -2.6363601e+38
2.5313299 -0.58110982 1.7911274 -2.6496526e+38
2.5313196 -0.58557266 1.7911274 -2.6628932e+38
2.5313094 -0.59003544 1.7911274 -2.662738e+38
2.5312994 -0.59449834 1.7911274 -2.6625829e+38
2.5472808 -0.60257876 1.7948911 -2.6624247e+38
2.5472705 -0.60707211 1.7948911 -2.4087785e+38
2.5472603 -0.61156541 1.7948911 -2.1576373e+38
2.54725 -0.61605871 1.7948911 -3.2393586e+38
2.5472395 -0.62055206 1.7948911 nan
2.5642202 -0.62905103 1.7988902 nan
2.547219 -0.62953871 1.7948911 nan
2.5472088 -0.63403201 1.7948911 nan
2.5979495 -0.31103888 1.8020645 nan
2.597939 -0.31562743 1.8020645 -2.9001609e+38
2.5809324 -0.31844464 1.7980978 -1.8088502e+38
2.5809219 -0.32300082 1.7980978 -2.1294289e+38
2.5809114 -0.327557 1.7980978 -2.4619945e+38
2.3699534 -0.3089219 1.7488645 -2.4087724e+38
2.3699439 -0.31307617 1.7488645 -2.3689479e+38
2.355938 -0.31563836 1.7455978 -2.3557078e+38
2.3559284 -0.31976596 1.7455978 -2.3425191e+38
2.3559191 -0.32389358 1.7455978 -2.3426226e+38
2.3559096 -0.32802117 1.7455978 -2.3561223e+38
2.3559 -0.33214876 1.7455978 -2.3558623e+38
2.3558908 -0.33627638 1.7455978 -2.3556544e+38
2.3418853 -0.3386519 1.7423313 -2.3289139e+38
2.3418758 -0.34275281 1.7423313 -2.3154658e+38
2.3418665 -0.34685379 1.7423313 -2.3021214e+38
2.341857 -0.35095474 1.7423313 -2.2887774e+38
2.3418477 -0.35505566 1.7423313 -2.2754852e+38
2.3418381 -0.35915661 1.7423313 -2.2754334e+38
2.3418288 -0.36325756 1.7423313 -2.2887778e+38
2.3418193 -0.36735848 1.7423313 -2.3021227e+38
2.34181 -0.37145942 1.7423313 -2.3021233e+38
2.3418007 -0.37556037 1.7423313 -2.2888829e+38
2.3417912 -0.37966132 1.7423313 -2.2889348e+38
2.355777 -0.38580769 1.7455978 -2.3022794e+38
2.3557677 -0.38993528 1.7455978 -2.2890393e+38
2.3557582 -0.39406291 1.7455978 -2.2890912e+38
2.3557487 -0.3981905 1.7455978 -2.2891951e+38
2.3557394 -0.40231812 1.7455978 -2.2894023e+38
2.3557298 -0.40644574 1.7455978 -2.289246e+38
2.3557203 -0.41057333 1.7455978 -2.3025386e+38
2.355711 -0.41470096 1.7455978 -2.3023831e+38
2.3696961 -0.42108729 1.7488645 -2.2889878e+38
2.3696868 -0.42524159 1.7488645 -2.2889365e+38
2.3696773 -0.42939585 1.7488645 -2.2888324e+38
2.3826628 -0.43572184 1.7518978 -2.288988e+38
2.3966479 -0.44226632 1.7551645 -2.302333e+38
2.4116325 -0.44903496 1.7586646 -2.3157299e+38
2.4406111 -0.45827952 1.7654312 -2.3293865e+38
2.4545958 -0.46501446 1.7686979 -2.3428353e+38
2.4695799 -0.47197932 1.7721978 -2.3562826e+38
2.454576 -0.47364682 1.7686979 -2.3562296e+38
2.4695601 -0.48066881 1.7721978 -2.3561252e+38
2.4695501 -0.48501357 1.7721978 -2.3559169e+38
2.4695401 -0.48935831 1.7721978 -2.3425205e+38
2.4695301 -0.49370307 1.7721978 -2.3558126e+38
2.4695203 -0.49804783 1.7721978 -2.3558126e+38
2.4695103 -0.50239259 1.7721978 -2.3692085e+38
2.4695003 -0.50673735 1.7721978 -2.3694168e+38
2.4694903 -0.51108211 1.7721978 -2.3960537e+38
2.4694805 -0.51542681 1.7721978 -2.4093466e+38
2.4694705 -0.51977158 1.7721978 -2.4226914e+38
2.4694605 -0.52411634 1.7721978 -2.4493811e+38
2.4854434 -0.53168255 1.7759311 -2.4627782e+38
2.4854333 -0.53605771 1.7759311 -2.4762271e+38
2.4854231 -0.54043299 1.7759311 -2.4896238e+38
2.4854131 -0.54480821 1.7759311 -2.5164162e+38
2.5003958 -0.5523178 1.7794311 -2.556345e+38
2.5003858 -0.55672157 1.7794311 -2.5963778e+38
2.5003757 -0.5611254 1.7794311 -2.6096703e+38
2.5003655 -0.56552917 1.7794311 -2.6363072e+38
2.515348 -0.57318169 1.7829312 -2.6495478e+38
2.5153379 -0.57761401 1.7829312 -2.6627885e+38
2.5313196 -0.58557266 1.7866645 -2.662737e+38
2.5313094 -0.59003544 1.7866645 -2.6758741e+38
2.5312994 -0.59449834 1.7866645 -2.6626861e+38
2.5312891 -0.59896117 1.7866645 -2.6627879e+38
2.5472705 -0.60707211 1.7903979 -2.4356748e+38
2.5472603 -0.61156541 1.7903979 -2.2088856e+38
2.54725 -0.61605871 1.7903979 -3.1846322e+38
2.5472395 -0.62055206 1.7903979 nan
2.5472293 -0.62504542 1.7903979 nan
2.547219 -0.62953871 1.7903979 nan
2.5472088 -0.63403201 1.7903979 nan
2.5979495 -0.31103888 1.7974759 nan
2.597939 -0.31562743 1.7974759 -2.9910792e+38
2.5809324 -0.31844464 1.7935417 -1.7292012e+38
2.5809219 -0.32300082 1.7935417 -2.103468e+38
2.3559663 -0.30325553 1.7414702 -2.4620987e+38
2.355957 -0.30738312 1.7414702 -2.4221168e+38
2.3699439 -0.31307617 1.7447102 -2.3689477e+38
2.355938 -0.31563836 1.7414702 -2.3424153e+38
2.3559284 -0.31976596 1.7414702 -2.3159344e+38
2.3559191 -0.32389358 1.7414702 -2.3294341e+38
2.3559096 -0.32802117 1.7414702 -2.3426745e+38
2.3559 -0.33214876 1.7414702 -2.3291743e+38
2.3558908 -0.33627638 1.7414702 -2.3157776e+38
2.3418853 -0.3386519 1.7382302 -2.3022772e+38
2.3418758 -0.34275281 1.7382302 -2.2888809e+38
2.3418665 -0.34685379 1.7382302 -2.2754326e+38
2.341857 -0.35095474 1.7382302 -2.2621401e+38
2.3418477 -0.35505566 1.7382302 -2.2621401e+38
2.3418381 -0.35915661 1.7382302 -2.2488479e+38
2.3418288 -0.36325756 1.7382302 -2.2753807e+38
2.3418193 -0.36735848 1.7382302 -2.2887255e+38
2.34181 -0.37145942 1.7382302 -2.2886742e+38
2.3418007 -0.37556037 1.7382302 -2.2887782e+38
2.3417912 -0.37966132 1.7382302 -2.2888304e+38
2.355777 -0.38580769 1.7414702 -2.2888827e+38
2.3557677 -0.38993528 1.7414702 -2.2756947e+38
2.3557582 -0.39406291 1.7414702 -2.2492142e+38
2.3557487 -0.3981905 1.7414702 -2.2626622e+38
2.3557394 -0.40231812 1.7414702 -2.2759541e+38
2.3557298 -0.40644574 1.7414702 -2.289194e+38
2.3557203 -0.41057333 1.7414702 -2.3024346e+38
2.355711 -0.41470096 1.7414702 -2.3023827e+38
2.3696961 -0.42108729 1.7447102 -2.288935e+38
2.3696868 -0.42524159 1.7447102 -2.2754874e+38
2.3826723 -0.43154281 1.7477188 -2.2622468e+38
2.3826628 -0.43572184 1.7477188 -2.2887793e+38
2.4116421 -0.44480067 1.7544303 -2.3021758e+38
2.4256268 -0.45142704 1.7576702 -2.3021245e+38
2.4406111 -0.45827952 1.7611417 -2.302437e+38
2.4545958 -0.46501446 1.7643816 -2.3158863e+38
2.4695799 -0.47197932 1.767853 -2.316197e+38
2.454576 -0.47364682 1.7643816 -2.3296962e+38
2.4695601 -0.48066881 1.767853 -2.3427286e+38
2.4695501 -0.48501357 1.767853 -2.3426767e+38
2.4695401 -0.48935831 1.767853 -2.3425208e+38
2.4695301 -0.49370307 1.767853 -2.3557609e+38
2.4545264 -0.49522772 1.7643816 -2.3691051e+38
2.4695103 -0.50239259 1.767853 -2.369157e+38
2.4695003 -0.50673735 1.767853 -2.3560203e+38
2.4694903 -0.51108211 1.767853 -2.3826568e+38
2.4694805 -0.51542681 1.767853 -2.3960014e+38
2.4694705 -0.51977158 1.767853 -2.4226385e+38
2.4694605 -0.52411634 1.767853 -2.4360358e+38
2.4694505 -0.5284611 1.767853 -2.4494332e+38
2.4854333 -0.53605771 1.7715559 -2.4628299e+38
2.4854231 -0.54043299 1.7715559 -2.5028633e+38
2.4854131 -0.54480821 1.7715559 -2.5295517e+38
2.5003958 -0.5523178 1.7750274 -2.5828249e+38
2.5003858 -0.55672157 1.7750274 -2.622806e+38
2.5003757 -0.5611254 1.7750274 -2.6360466e+38
2.5003655 -0.56552917 1.7750274 -2.6494429e+38
2.515348 -0.57318169 1.7784989 -2.6626835e+38
2.5153379 -0.57761401 1.7784989 -2.662736e+38
2.5313196 -0.58557266 1.7822016 -2.6759767e+38
2.5313094 -0.59003544 1.7822016 -2.6759252e+38
2.5312994 -0.59449834 1.7822016 -2.6759776e+38
2.5312891 -0.59896117 1.7822016 -2.6624754e+38
2.5472705 -0.60707211 1.7859045 -2.4623099e+38
2.5472603 -0.61156541 1.7859045 -2.2506299e+38
2.54725 -0.61605871 1.7859045 -3.1453764e+38
2.5472395 -0.62055206 1.7859045 nan
2.5472293 -0.62504542 1.7859045 nan
2.547219 -0.62953871 1.7859045 nan
2.5472088 -0.63403201 1.7859045 nan
2.6149454 -0.31274548 1.7967893 nan
2.597939 -0.31562743 1.7928874 -3.0465861e+38
2.5979283 -0.320216 1.7928874 -1.7281118e+38
2.5809219 -0.32300082 1.7889855 -2.1025857e+38
2.3829598 -0.30617169 1.7435398 -2.4752874e+38
2.3699534 -0.3089219 1.740556 -2.4353572e+38
2.3699439 -0.31307617 1.740556 -2.3953765e+38
2.3699343 -0.31723043 1.740556 -2.3557072e+38
2.3559284 -0.31976596 1.7373426 -2.3291745e+38
2.3559191 -0.32389358 1.7373426 -2.3292784e+38
2.3559096 -0.32802117 1.7373426 -2.3292786e+38
2.3559 -0.33214876 1.7373426 -2.3158305e+38
2.3558908 -0.33627638 1.7373426 -2.3157778e+38
2.3418853 -0.3386519 1.7341293 -2.3022768e+38
2.3418758 -0.34275281 1.7341293 -2.2888805e+38
2.3418665 -0.34685379 1.7341293 -2.2754841e+38
2.341857 -0.35095474 1.7341293 -2.2753799e+38
2.3418477 -0.35505566 1.7341293 -2.2620872e+38
2.3418381 -0.35915661 1.7341293 -2.2620874e+38
2.3418288 -0.36325756 1.7341293 -2.2753797e+38
2.3418193 -0.36735848 1.7341293 -2.2886726e+38
2.34181 -0.37145942 1.7341293 -2.288673e+38
2.3418007 -0.37556037 1.7341293 -2.2887255e+38
2.3417912 -0.37966132 1.7341293 -2.2754856e+38
2.355777 -0.38580769 1.7373426 -2.2754862e+38
2.3557677 -0.38993528 1.7373426 -2.2622981e+38
2.3557582 -0.39406291 1.7373426 -2.249058e+38
2.3557487 -0.3981905 1.7373426 -2.249162e+38
2.3557394 -0.40231812 1.7373426 -2.262506e+38
2.3557298 -0.40644574 1.7373426 -2.2625056e+38
2.3557203 -0.41057333 1.7373426 -2.2757979e+38
2.355711 -0.41470096 1.7373426 -2.2757977e+38
2.3696961 -0.42108729 1.740556 -2.2756421e+38
2.3696868 -0.42524159 1.740556 -2.2623499e+38
2.3826723 -0.43154281 1.7435398 -2.2622977e+38
2.3966577 -0.43806058 1.7467531 -2.2755896e+38
2.4116421 -0.44480067 1.750196 -2.3021744e+38
2.4256268 -0.45142704 1.7534093 -2.3021227e+38
2.4546056 -0.46069828 1.7600656 -2.3021241e+38
2.4695899 -0.46763453 1.7635083 -2.3156774e+38
2.4695799 -0.47197932 1.7635083 -2.3293325e+38
2.454576 -0.47364682 1.7600656 -2.32928e+38
2.454566 -0.47796297 1.7600656 -2.3424688e+38
2.4695501 -0.48501357 1.7635083 -2.342469e+38
2.4695401 -0.48935831 1.7635083 -2.3424169e+38
2.4695301 -0.49370307 1.7635083 -2.3424167e+38
2.4545264 -0.49522772 1.7600656 -2.3557611e+38
2.4545166 -0.49954391 1.7600656 -2.3558132e+38
2.4695003 -0.50673735 1.7635083 -2.3559682e+38
2.4694903 -0.51108211 1.7635083 -2.3693116e+38
2.4694805 -0.51542681 1.7635083 -2.3959487e+38
2.4694705 -0.51977158 1.7635083 -2.4092933e+38
2.4694605 -0.52411634 1.7635083 -2.4226387e+38
2.4694505 -0.5284611 1.7635083 -2.4493283e+38
2.4854333 -0.53605771 1.7671807 -2.4626733e+38
2.4854231 -0.54043299 1.7671807 -2.4894662e+38
2.4854131 -0.54480821 1.7671807 -2.5294471e+38
2.4854031 -0.54918343 1.7671807 -2.5561357e+38
2.485393 -0.55355865 1.7671807 -2.5961687e+38
2.5003757 -0.5611254 1.7706236 -2.6094095e+38
2.5003655 -0.56552917 1.7706236 -2.6228058e+38
2.515348 -0.57318169 1.7740664 -2.6360981e+38
2.5153379 -0.57761401 1.7740664 -2.6361506e+38
2.5153277 -0.58204645 1.7740664 -2.6493916e+38
2.5153174 -0.58647877 1.7740664 -2.6626323e+38
2.5312994 -0.59449834 1.7777388 -2.6626325e+38
2.5312891 -0.59896117 1.7777388 -2.6626299e+38
2.5312788 -0.60342401 1.7777388 -2.4492239e+38
2.5472603 -0.61156541 1.7814112 -2.2360896e+38
2.54725 -0.61605871 1.7814112 -2.9576726e+38
2.5472395 -0.62055206 1.7814112 nan
2.5472293 -0.62504542 1.7814112 nan
2.547219 -0.62953871 1.7814112 nan
2.597939 -0.31562743 1.7882988 -3.1104533e+38
2.5979283 -0.320216 1.7882988 -1.7155986e+38
2.5809219 -0.32300082 1.7844293 -2.103467e+38
2.3829598 -0.30617169 1.7393607 -2.4887348e+38
2.3699534 -0.3089219 1.7364017 -2.4485978e+38
2.3699439 -0.31307617 1.7364017 -2.4088246e+38
2.3699343 -0.31723043 1.7364017 -2.3690514e+38
2.3559284 -0.31976596 1.733215 -2.3292266e+38
2.3559191 -0.32389358 1.733215 -2.3159865e+38
2.3559096 -0.32802117 1.733215 -2.3025902e+38
2.3559 -0.33214876 1.733215 -2.3024342e+38
2.3558908 -0.33627638 1.733215 -2.3023817e+38
2.3418853 -0.3386519 1.7300284 -2.3022255e+38
2.3418758 -0.34275281 1.7300284 -2.288829e+38
2.3418665 -0.34685379 1.7300284 -2.2887247e+38
2.341857 -0.35095474 1.7300284 -2.2753803e+38
2.3418477 -0.35505566 1.7300284 -2.2753282e+38
2.3418381 -0.35915661 1.7300284 -2.2753282e+38
2.3418288 -0.36325756 1.7300284 -2.2886202e+38
2.3418193 -0.36735848 1.7300284 -2.2886207e+38
2.34181 -0.37145942 1.7300284 -2.2885693e+38
2.3418007 -0.37556037 1.7300284 -2.2753294e+38
2.3417912 -0.37966132 1.7300284 -2.2753817e+38
2.355777 -0.38580769 1.733215 -2.2621418e+38
2.3557677 -0.38993528 1.733215 -2.2488499e+38
2.3557582 -0.39406291 1.733215 -2.2356617e+38
2.3557487 -0.3981905 1.733215 -2.2357657e+38
2.3557394 -0.40231812 1.733215 -2.2358176e+38
2.3557298 -0.40644574 1.733215 -2.2491097e+38
2.3557203 -0.41057333 1.733215 -2.2491618e+38
2.3697057 -0.41693303 1.7364017 -2.2625582e+38
2.3696961 -0.42108729 1.7364017 -2.2625058e+38
2.3826818 -0.42736375 1.7393607 -2.2625574e+38
2.3966672 -0.43385488 1.7425474 -2.2491087e+38
2.4116518 -0.44056642 1.7459617 -2.275589e+38
2.4256365 -0.44716612 1.7491484 -2.3021216e+38
2.4406211 -0.45399001 1.7525626 -2.3019661e+38
2.4546056 -0.46069828 1.7557492 -2.3019673e+38
2.4695899 -0.46763453 1.7591636 -2.3153646e+38
2.4545858 -0.46933064 1.7557492 -2.3289163e+38
2.454576 -0.47364682 1.7557492 -2.3289163e+38
2.454566 -0.47796297 1.7557492 -2.3290204e+38
2.4695501 -0.48501357 1.7591636 -2.3289687e+38
2.4695401 -0.48935831 1.7591636 -2.3290204e+38
2.4545364 -0.49091151 1.7557492 -2.3423127e+38
2.4545264 -0.49522772 1.7557492 -2.3423646e+38
2.4695103 -0.50239259 1.7591636 -2.3557086e+38
2.4695003 -0.50673735 1.7591636 -2.3558641e+38
2.4694903 -0.51108211 1.7591636 -2.3692603e+38
2.4694805 -0.51542681 1.7591636 -2.3826566e+38
2.4694705 -0.51977158 1.7591636 -2.3960012e+38
2.4694605 -0.52411634 1.7591636 -2.4093985e+38
2.4694505 -0.5284611 1.7591636 -2.4360362e+38
2.4854333 -0.53605771 1.7628055 -2.4627253e+38
2.4854231 -0.54043299 1.7628055 -2.4894143e+38
2.4854131 -0.54480821 1.7628055 -2.5160512e+38
2.4854031 -0.54918343 1.7628055 -2.5426881e+38
2.485393 -0.55355865 1.7628055 -2.5694288e+38
2.485383 -0.55793387 1.7628055 -2.5826693e+38
2.5003655 -0.56552917 1.7662197 -2.5961178e+38
2.5003555 -0.569933 1.7662197 -2.6095143e+38
2.5153379 -0.57761401 1.769634 -2.6094626e+38
2.5153277 -0.58204645 1.769634 -2.6359957e+38
2.5153174 -0.58647877 1.769634 -2.6493403e+38
2.5153074 -0.59091115 1.769634 -2.662581e+38
2.5312891 -0.59896117 1.773276 -2.6624236e+38
2.5312788 -0.60342401 1.773276 -2.4358823e+38
2.5312686 -0.60788691 1.773276 -2.2104926e+38
2.5312583 -0.61234969 1.773276 -2.7837818e+38
2.5312481 -0.61681253 1.773276 -3.3456467e+38
2.5312378 -0.62127542 1.773276 nan
2.5312276 -0.62573826 1.773276 nan
2.3559854 -0.29500031 1.7290874 -1.7281122e+38
2.3559759 -0.29912791 1.7290874 -2.1026865e+38
2.3559663 -0.30325553 1.7290874 -2.4755458e+38
2.355957 -0.30738312 1.7290874 -2.4355134e+38
2.3699439 -0.31307617 1.7322474 -2.3955844e+38
2.355938 -0.31563836 1.7290874 -2.355811e+38
2.3559284 -0.31976596 1.7290874 -2.3293307e+38
2.3559191 -0.32389358 1.7290874 -2.3159348e+38
2.3559096 -0.32802117 1.7290874 -2.3158305e+38
2.3559 -0.33214876 1.7290874 -2.302434e+38
2.3558908 -0.33627638 1.7290874 -2.3023299e+38
2.3558812 -0.340404 1.7290874 -2.2889336e+38
2.3558717 -0.3445316 1.7290874 -2.2754852e+38
2.3558624 -0.34865922 1.7290874 -2.2754326e+38
2.341857 -0.35095474 1.7259274 -2.2753807e+38
2.3418477 -0.35505566 1.7259274 -2.2753807e+38
2.3418381 -0.35915661 1.7259274 -2.2752767e+38
2.3418288 -0.36325756 1.7259274 -2.2886205e+38
2.3418193 -0.36735848 1.7259274 -2.2885689e+38
2.34181 -0.37145942 1.7259274 -2.2885174e+38
2.3418007 -0.37556037 1.7259274 -2.3017582e+38
2.3417912 -0.37966132 1.7259274 -2.2885701e+38
2.355777 -0.38580769 1.7290874 -2.2753302e+38
2.3557677 -0.38993528 1.7290874 -2.26209e+38
2.3557582 -0.39406291 1.7290874 -2.2488499e+38
2.3697438 -0.40031591 1.7322474 -2.2356097e+38
2.3697343 -0.40447021 1.7322474 -2.2356619e+38
2.3697248 -0.4086245 1.7322474 -2.2357657e+38
2.3697152 -0.41277876 1.7322474 -2.2491103e+38
2.3697057 -0.41693303 1.7322474 -2.2492146e+38
2.3826916 -0.42318472 1.7351817 -2.2626099e+38
2.396677 -0.4296492 1.7383417 -2.2625571e+38
2.4116616 -0.43633214 1.7417274 -2.2625044e+38
2.4406407 -0.44541097 1.7482731 -2.2889324e+38
2.4406309 -0.4497005 1.7482731 -2.3020691e+38
2.4546156 -0.4563821 1.7514331 -2.3019133e+38
2.4546056 -0.46069828 1.7514331 -2.3017586e+38
2.4695899 -0.46763453 1.7548188 -2.3153632e+38
2.4545858 -0.46933064 1.7514331 -2.3287597e+38
2.454576 -0.47364682 1.7514331 -2.3155717e+38
2.454566 -0.47796297 1.7514331 -2.3156238e+38
2.4545562 -0.48227918 1.7514331 -2.3289161e+38
2.4545462 -0.48659536 1.7514331 -2.3422605e+38
2.4545364 -0.49091151 1.7514331 -2.3555528e+38
2.4545264 -0.49522772 1.7514331 -2.3688447e+38
2.4545166 -0.49954391 1.7514331 -2.369e+38
2.4695003 -0.50673735 1.7548188 -2.3824487e+38
2.4694903 -0.51108211 1.7548188 -2.3958452e+38
2.4694805 -0.51542681 1.7548188 -2.4092416e+38
2.4694705 -0.51977158 1.7548188 -2.4092937e+38
2.4694605 -0.52411634 1.7548188 -2.4093988e+38
2.4694505 -0.5284611 1.7548188 -2.4360365e+38
2.4694405 -0.53280586 1.7548188 -2.4626735e+38
2.4854231 -0.54043299 1.7584302 -2.4894143e+38
2.4854131 -0.54480821 1.7584302 -2.5159994e+38
2.4854031 -0.54918343 1.7584302 -2.5293962e+38
2.485393 -0.55355865 1.7584302 -2.5428444e+38
2.485383 -0.55793387 1.7584302 -2.5694292e+38
2.485373 -0.56230909 1.7584302 -2.5828259e+38
2.485363 -0.56668437 1.7584302 -2.5961188e+38
2.5003455 -0.57433683 1.761816 -2.5960671e+38
2.5003352 -0.5787406 1.761816 -2.6094113e+38
2.5003252 -0.58314443 1.761816 -2.6227559e+38
2.5003152 -0.58754814 1.761816 -2.649289e+38
2.5152972 -0.59534353 1.7652017 -2.6626849e+38
2.5312788 -0.60342401 1.7688131 -2.5027617e+38
2.5312686 -0.60788691 1.7688131 -2.3431566e+38
2.5312583 -0.61234969 1.7688131 -2.7973329e+38
2.5312481 -0.61681253 1.7688131 -3.2655813e+38
2.5312378 -0.62127542 1.7688131 nan
2.5312276 -0.62573826 1.7688131 nan
2.5312173 -0.6302011 1.7688131 nan
2.3559947 -0.29087269 1.7249597 -3.2035484e+38
2.3559854 -0.29500031 1.7249597 -1.7289416e+38
2.3559759 -0.29912791 1.7249597 -2.0903307e+38
2.3559663 -0.30325553 1.7249597 -2.4490142e+38
2.355957 -0.30738312 1.7249597 -2.4089811e+38
2.3559475 -0.31151074 1.7249597 -2.3691037e+38
2.355938 -0.31563836 1.7249597 -2.355811e+38
2.3559284 -0.31976596 1.7249597 -2.3292784e+38
2.3559191 -0.32389358 1.7249597 -2.3292264e+38
2.3559096 -0.32802117 1.7249597 -2.3158299e+38
2.3559 -0.33214876 1.7249597 -2.3023815e+38
2.3558908 -0.33627638 1.7249597 -2.2890371e+38
2.3558812 -0.340404 1.7249597 -2.2756407e+38
2.3558717 -0.3445316 1.7249597 -2.2621927e+38
2.3558624 -0.34865922 1.7249597 -2.275433e+38
2.341857 -0.35095474 1.7218264 -2.2753811e+38
2.3418477 -0.35505566 1.7218264 -2.2754332e+38
2.3418381 -0.35915661 1.7218264 -2.2753811e+38
2.3418288 -0.36325756 1.7218264 -2.2886213e+38
2.3418193 -0.36735848 1.7218264 -2.2885693e+38
2.34181 -0.37145942 1.7218264 -2.3017058e+38
2.3418007 -0.37556037 1.7218264 -2.3151024e+38
2.3417912 -0.37966132 1.7218264 -2.3018622e+38
2.355777 -0.38580769 1.7249597 -2.2753302e+38
2.3557677 -0.38993528 1.7249597 -2.2620902e+38
2.3697534 -0.39616168 1.7280931 -2.248746e+38
2.3697438 -0.40031591 1.7280931 -2.235402e+38
2.3697343 -0.40447021 1.7280931 -2.2222655e+38
