# .PCD v0.7 - Point Cloud Data file format
VERSION 0.7
FIELDS x y z rgb
SIZE 4 4 4 4
TYPE F F F F
COUNT 1 1 1 1
WIDTH 1347
HEIGHT 1
VIEWPOINT 0 0 0 1 0 0 0
POINTS 1347
DATA ascii
5.3148599 0.031273238 2.1624646 nan
5.39184 0.022874825 2.1763246 nan
5.4718208 0.01423049 2.1907246 nan
5.4717975 0.0041695684 2.1907246 nan
5.4717746 -0.0058913603 2.1907246 nan
5.5537534 -0.015125033 2.2054846 nan
5.55373 -0.025342155 2.2054846 nan
5.5537066 -0.035559271 2.2054846 nan
5.5536833 -0.045776386 2.2054846 nan
5.5536599 -0.055993505 2.2054846 nan
5.5536366 -0.06621062 2.2054846 nan
5.6376133 -0.076540314 2.2206044 nan
5.3925672 0.33994833 2.1664159 nan
5.3925443 0.33003977 2.1664159 nan
5.3925214 0.32013124 2.1664159 nan
5.392499 0.31022269 2.1664159 nan
5.4724894 0.30599737 2.1806636 nan
5.3924532 0.29040557 2.1664159 nan
5.4724436 0.28587553 2.1806636 -2.7561953e+38
5.4724202 0.27581462 2.1806636 -2.87406e+38
5.4723973 0.26575366 2.1806636 -2.9821127e+38
5.3923626 0.2507714 2.1664159 -3.0881405e+38
5.3923397 0.24086288 2.1664159 -3.1958307e+38
5.3923173 0.23095432 2.1664159 -3.2751193e+38
5.3922944 0.22104573 2.1664159 -3.3424636e+38
5.3922715 0.21113721 2.1664159 nan
5.3922491 0.20122865 2.1664159 nan
5.3922262 0.19132012 2.1664159 nan
5.3922033 0.18141156 2.1664159 nan
5.3921809 0.17150304 2.1664159 nan
5.392158 0.16159448 2.1664159 nan
5.3921356 0.15168592 2.1664159 nan
5.3921127 0.1417774 2.1664159 nan
5.3150835 0.12889203 2.1527026 nan
5.3150611 0.11913017 2.1527026 nan
5.3150387 0.10936827 2.1527026 nan
5.3150163 0.099606402 2.1527026 nan
5.3149939 0.089844532 2.1527026 nan
5.2399659 0.077897452 2.1393454 nan
5.314949 0.070320763 2.1527026 nan
5.239922 0.058659397 2.1393454 nan
5.3149047 0.050797008 2.1527026 nan
5.3148823 0.041035123 2.1527026 nan
5.4718437 0.024291426 2.1806636 nan
5.4718208 0.01423049 2.1806636 nan
5.4717975 0.0041695684 2.1806636 nan
5.5537767 -0.0049079284 2.1952674 nan
5.5537534 -0.015125033 2.1952674 nan
5.55373 -0.025342155 2.1952674 nan
5.6377087 -0.035031848 2.2102275 nan
5.6376848 -0.045408968 2.2102275 nan
5.637661 -0.055786084 2.2102275 nan
5.6376371 -0.066163197 2.2102275 nan
5.6376133 -0.076540314 2.2102275 nan
5.3925672 0.33994833 2.1565075 nan
5.3925443 0.33003977 2.1565075 nan
5.3925214 0.32013124 2.1565075 nan
5.392499 0.31022269 2.1565075 nan
5.4724894 0.30599737 2.1706026 nan
5.4724665 0.29593647 2.1706026 nan
5.4724436 0.28587553 2.1706026 nan
5.4724202 0.27581462 2.1706026 nan
5.4723973 0.26575366 2.1706026 nan
5.3923626 0.2507714 2.1565075 nan
5.3923397 0.24086288 2.1565075 nan
5.3923173 0.23095432 2.1565075 nan
5.3922944 0.22104573 2.1565075 nan
5.3922715 0.21113721 2.1565075 nan
5.3922491 0.20122865 2.1565075 nan
5.315218 0.18746331 2.1429408 nan
5.3922033 0.18141156 2.1565075 nan
5.3921809 0.17150304 2.1565075 nan
5.392158 0.16159448 2.1565075 nan
5.3921356 0.15168592 2.1565075 nan
5.3921127 0.1417774 2.1565075 nan
5.3920898 0.13186884 2.1565075 nan
5.3920674 0.12196029 2.1565075 nan
5.3920445 0.11205175 2.1565075 nan
5.3150163 0.099606402 2.1429408 nan
5.3149939 0.089844532 2.1429408 nan
5.3149714 0.080082648 2.1429408 nan
5.314949 0.070320763 2.1429408 nan
5.3149271 0.060558893 2.1429408 nan
5.3149047 0.050797008 2.1429408 nan
5.5537767 -0.0049079284 2.1850502 nan
5.5537534 -0.015125033 2.1850502 nan
5.637732 -0.024654731 2.1998503 nan
5.6377087 -0.035031848 2.1998503 nan
5.6376848 -0.045408968 2.1998503 nan
5.637661 -0.055786084 2.1998503 nan
5.6376371 -0.066163197 2.1998503 nan
5.3925672 0.33994833 2.1465988 nan
5.4725585 0.33618015 2.1605418 nan
5.4725356 0.32611921 2.1605418 nan
5.4725127 0.31605831 2.1605418 nan
5.4724894 0.30599737 2.1605418 nan
5.4724665 0.29593647 2.1605418 nan
5.4724436 0.28587553 2.1605418 nan
5.4724202 0.27581462 2.1605418 nan
5.4723973 0.26575366 2.1605418 nan
5.3923626 0.2507714 2.1465988 nan
5.3923397 0.24086288 2.1465988 nan
5.3923173 0.23095432 2.1465988 nan
5.3922944 0.22104573 2.1465988 nan
5.3152628 0.20698708 2.1331787 nan
5.3152404 0.19722521 2.1331787 nan
5.315218 0.18746331 2.1331787 nan
5.3151956 0.17770144 2.1331787 nan
5.3921809 0.17150304 2.1465988 nan
5.392158 0.16159448 2.1465988 nan
5.3921356 0.15168592 2.1465988 nan
5.3921127 0.1417774 2.1465988 nan
5.3150835 0.12889203 2.1331787 nan
5.3150611 0.11913017 2.1331787 nan
5.3150387 0.10936827 2.1331787 nan
5.3150163 0.099606402 2.1331787 nan
5.3149939 0.089844532 2.1331787 nan
5.3149714 0.080082648 2.1331787 nan
5.314949 0.070320763 2.1331787 nan
5.3149271 0.060558893 2.1331787 nan
5.3149047 0.050797008 2.1331787 nan
5.5537534 -0.015125033 2.1748331 nan
5.637732 -0.024654731 2.1894732 nan
5.6377087 -0.035031848 2.1894732 nan
5.637661 -0.055786084 2.1894732 nan
5.3925672 0.33994833 2.1366901 nan
5.4725585 0.33618015 2.1504807 nan
5.4725356 0.32611921 2.1504807 nan
5.4725127 0.31605831 2.1504807 nan
5.4724894 0.30599737 2.1504807 nan
5.4724665 0.29593647 2.1504807 nan
5.4724436 0.28587553 2.1504807 nan
5.4724202 0.27581462 2.1504807 nan
5.4723973 0.26575366 2.1504807 nan
5.3923626 0.2507714 2.1366901 nan
5.3923397 0.24086288 2.1366901 nan
5.3153071 0.22651085 2.1234169 nan
5.3152847 0.21674895 2.1234169 nan
5.3152628 0.20698708 2.1234169 nan
5.3152404 0.19722521 2.1234169 nan
5.315218 0.18746331 2.1234169 nan
5.3151956 0.17770144 2.1234169 nan
5.3151731 0.16793957 2.1234169 nan
5.392158 0.16159448 2.1366901 nan
5.3151283 0.1484158 2.1234169 nan
5.3151059 0.13865393 2.1234169 nan
5.3150835 0.12889203 2.1234169 nan
5.3150611 0.11913017 2.1234169 nan
5.3150387 0.10936827 2.1234169 nan
5.3150163 0.099606402 2.1234169 nan
5.3149939 0.089844532 2.1234169 nan
5.3149714 0.080082648 2.1234169 nan
5.314949 0.070320763 2.1234169 nan
5.3149271 0.060558893 2.1234169 nan
5.3149047 0.050797008 2.1234169 nan
5.3925672 0.33994833 2.1267817 nan
5.4725585 0.33618015 2.1404197 nan
5.4725356 0.32611921 2.1404197 nan
5.4725127 0.31605831 2.1404197 nan
5.4724894 0.30599737 2.1404197 nan
5.4724665 0.29593647 2.1404197 nan
5.5544562 0.29138845 2.1543989 nan
5.4724202 0.27581462 2.1404197 nan
5.4723973 0.26575366 2.1404197 nan
5.3923626 0.2507714 2.1267817 nan
5.3923397 0.24086288 2.1267817 nan
5.3153071 0.22651085 2.1136551 nan
5.3152847 0.21674895 2.1136551 nan
5.3152628 0.20698708 2.1136551 nan
5.3152404 0.19722521 2.1136551 nan
5.315218 0.18746331 2.1136551 nan
5.3922033 0.18141156 2.1267817 nan
5.3151731 0.16793957 2.1136551 nan
5.392158 0.16159448 2.1267817 nan
5.3921356 0.15168592 2.1267817 nan
5.3921127 0.1417774 2.1267817 nan
5.3150835 0.12889203 2.1136551 nan
5.3150611 0.11913017 2.1136551 nan
5.3150387 0.10936827 2.1136551 nan
5.3150163 0.099606402 2.1136551 nan
5.3149939 0.089844532 2.1136551 nan
5.3149714 0.080082648 2.1136551 nan
5.3919535 0.072417565 2.1267817 nan
5.3149271 0.060558893 2.1136551 nan
5.3149047 0.050797008 2.1136551 nan
5.4725585 0.33618015 2.1303587 nan
5.4725356 0.32611921 2.1303587 nan
5.4725127 0.31605831 2.1303587 nan
5.4724894 0.30599737 2.1303587 nan
5.4724665 0.29593647 2.1303587 nan
5.4724436 0.28587553 2.1303587 nan
5.4724202 0.27581462 2.1303587 nan
5.4723973 0.26575366 2.1303587 nan
5.3923626 0.2507714 2.116873 nan
5.3923397 0.24086288 2.116873 nan
5.3153071 0.22651085 2.103893 nan
5.3152847 0.21674895 2.103893 nan
5.3152628 0.20698708 2.103893 nan
5.3152404 0.19722521 2.103893 nan
5.315218 0.18746331 2.103893 nan
5.3922033 0.18141156 2.116873 nan
5.3151731 0.16793957 2.103893 nan
5.3151507 0.15817767 2.103893 nan
5.3151283 0.1484158 2.103893 nan
5.3151059 0.13865393 2.103893 nan
5.3150835 0.12889203 2.103893 nan
5.3150611 0.11913017 2.103893 nan
5.3150387 0.10936827 2.103893 nan
5.3150163 0.099606402 2.103893 nan
5.3149939 0.089844532 2.103893 nan
5.3149714 0.080082648 2.103893 nan
5.314949 0.070320763 2.103893 nan
5.3149271 0.060558893 2.103893 nan
5.3149047 0.050797008 2.103893 nan
5.47189 0.044413276 2.1303587 nan
5.4725585 0.33618015 2.1202979 nan
5.4725356 0.32611921 2.1202979 nan
5.392499 0.31022269 2.1069646 nan
5.4724894 0.30599737 2.1202979 nan
5.4724665 0.29593647 2.1202979 nan
5.4724436 0.28587553 2.1202979 nan
5.4724202 0.27581462 2.1202979 nan
5.4723973 0.26575366 2.1202979 nan
5.3923626 0.2507714 2.1069646 nan
5.3153296 0.23627272 2.0941312 nan
5.3153071 0.22651085 2.0941312 nan
5.3152847 0.21674895 2.0941312 nan
5.3152628 0.20698708 2.0941312 nan
5.3152404 0.19722521 2.0941312 nan
5.315218 0.18746331 2.0941312 nan
5.3151956 0.17770144 2.0941312 nan
5.3151731 0.16793957 2.0941312 nan
5.3151507 0.15817767 2.0941312 nan
5.3151283 0.1484158 2.0941312 nan
5.3151059 0.13865393 2.0941312 nan
5.3150835 0.12889203 2.0941312 nan
5.3150611 0.11913017 2.0941312 nan
5.3150387 0.10936827 2.0941312 nan
5.3150163 0.099606402 2.0941312 nan
5.2399879 0.087516479 2.0816312 nan
5.3149714 0.080082648 2.0941312 nan
5.314949 0.070320763 2.0941312 nan
5.3149271 0.060558893 2.0941312 nan
5.3149047 0.050797008 2.0941312 nan
5.3918853 0.042691924 2.1069646 nan
5.5538707 0.035960548 2.1339645 nan
5.4725585 0.33618015 2.1102369 nan
5.4725356 0.32611921 2.1102369 nan
5.4725127 0.31605831 2.1102369 nan
5.4724894 0.30599737 2.1102369 nan
5.4724665 0.29593647 2.1102369 nan
5.4724436 0.28587553 2.1102369 nan
5.4724202 0.27581462 2.1102369 nan
5.3923855 0.26067996 2.0970559 nan
5.3923626 0.2507714 2.0970559 nan
5.3153296 0.23627272 2.0843692 nan
5.3153071 0.22651085 2.0843692 nan
5.3152847 0.21674895 2.0843692 nan
5.3152628 0.20698708 2.0843692 nan
5.3152404 0.19722521 2.0843692 nan
5.315218 0.18746331 2.0843692 nan
5.3151956 0.17770144 2.0843692 nan
5.3151731 0.16793957 2.0843692 nan
5.3151507 0.15817767 2.0843692 nan
5.3151283 0.1484158 2.0843692 nan
5.3151059 0.13865393 2.0843692 nan
5.3150835 0.12889203 2.0843692 nan
5.3150611 0.11913017 2.0843692 nan
5.3150387 0.10936827 2.0843692 nan
5.3150163 0.099606402 2.0843692 nan
5.2399879 0.087516479 2.0720122 nan
5.2399659 0.077897452 2.0720122 nan
5.239944 0.068278439 2.0720122 nan
5.3149271 0.060558893 2.0843692 nan
5.3149047 0.050797008 2.0843692 nan
5.47189 0.044413276 2.1102369 nan
5.5538707 0.035960548 2.1237473 nan
5.4725585 0.33618015 2.1001759 nan
5.4725356 0.32611921 2.1001759 nan
5.4725127 0.31605831 2.1001759 nan
5.4724894 0.30599737 2.1001759 nan
5.4724665 0.29593647 2.1001759 nan
5.3924308 0.28049704 2.0871475 nan
5.4724202 0.27581462 2.1001759 nan
5.3923855 0.26067996 2.0871475 nan
5.315352 0.24603459 2.0746074 nan
5.3153296 0.23627272 2.0746074 nan
5.3153071 0.22651085 2.0746074 nan
5.3152847 0.21674895 2.0746074 nan
5.3152628 0.20698708 2.0746074 nan
5.3152404 0.19722521 2.0746074 nan
5.315218 0.18746331 2.0746074 nan
5.3151956 0.17770144 2.0746074 nan
5.3151731 0.16793957 2.0746074 nan
5.3151507 0.15817767 2.0746074 nan
5.3151283 0.1484158 2.0746074 nan
5.3151059 0.13865393 2.0746074 nan
5.3150835 0.12889203 2.0746074 nan
5.3150611 0.11913017 2.0746074 nan
5.3150387 0.10936827 2.0746074 nan
5.2400103 0.097135507 2.0623932 nan
5.2399879 0.087516479 2.0623932 nan
5.2399659 0.077897452 2.0623932 nan
5.239944 0.068278439 2.0623932 nan
5.239922 0.058659397 2.0623932 nan
5.2398996 0.049040377 2.0623932 nan
5.3918853 0.042691924 2.0871475 nan
5.5538707 0.035960548 2.1135302 nan
5.6378512 0.027230851 2.1272101 -2.7839309e+38
5.6377559 -0.014277618 2.1272101 nan
5.4725585 0.33618015 2.0901151 nan
5.4725356 0.32611921 2.0901151 nan
5.4725127 0.31605831 2.0901151 nan
5.4724894 0.30599737 2.0901151 nan
5.3924532 0.29040557 2.0772388 nan
5.3924308 0.28049704 2.0772388 nan
5.4724202 0.27581462 2.0901151 nan
5.3923855 0.26067996 2.0772388 nan
5.3923626 0.2507714 2.0772388 nan
5.3153296 0.23627272 2.0648456 nan
5.3153071 0.22651085 2.0648456 nan
5.3152847 0.21674895 2.0648456 nan
5.3152628 0.20698708 2.0648456 nan
5.3152404 0.19722521 2.0648456 nan
5.315218 0.18746331 2.0648456 nan
5.3151956 0.17770144 2.0648456 nan
5.3151731 0.16793957 2.0648456 nan
5.3151507 0.15817767 2.0648456 nan
5.3151283 0.1484158 2.0648456 nan
5.3151059 0.13865393 2.0648456 nan
5.3150835 0.12889203 2.0648456 nan
5.3150611 0.11913017 2.0648456 nan
5.3150387 0.10936827 2.0648456 nan
5.3150163 0.099606402 2.0648456 nan
5.3149939 0.089844532 2.0648456 nan
5.2399659 0.077897452 2.052774 nan
5.239944 0.068278439 2.052774 nan
5.239922 0.058659397 2.052774 nan
5.2398996 0.049040377 2.052774 nan
5.3918853 0.042691924 2.0772388 nan
5.3918629 0.032783382 2.0772388 nan
5.4725585 0.33618015 2.080054 nan
5.4725356 0.32611921 2.080054 nan
5.4725127 0.31605831 2.080054 nan
5.4724894 0.30599737 2.080054 nan
5.4724665 0.29593647 2.080054 nan
5.3924308 0.28049704 2.0673304 nan
5.3924079 0.27058849 2.0673304 nan
5.3923855 0.26067996 2.0673304 nan
5.3923626 0.2507714 2.0673304 nan
5.3153296 0.23627272 2.0550835 nan
5.3923173 0.23095432 2.0673304 nan
5.3152847 0.21674895 2.0550835 nan
5.3152628 0.20698708 2.0550835 nan
5.3152404 0.19722521 2.0550835 nan
5.315218 0.18746331 2.0550835 nan
5.3151956 0.17770144 2.0550835 nan
5.3151731 0.16793957 2.0550835 nan
5.3151507 0.15817767 2.0550835 nan
5.3151283 0.1484158 2.0550835 nan
5.3151059 0.13865393 2.0550835 nan
5.3150835 0.12889203 2.0550835 nan
5.3150611 0.11913017 2.0550835 nan
5.3150387 0.10936827 2.0550835 nan
5.3150163 0.099606402 2.0550835 nan
5.3149939 0.089844532 2.0550835 nan
5.2399659 0.077897452 2.043155 nan
5.239944 0.068278439 2.043155 nan
5.239922 0.058659397 2.043155 nan
5.2398996 0.049040377 2.043155 nan
5.3148823 0.041035123 2.0550835 nan
5.3148599 0.031273238 2.0550835 nan
5.6377797 -0.0039004982 2.106456 nan
5.4725585 0.33618015 2.069993 nan
5.4725356 0.32611921 2.069993 nan
5.4725127 0.31605831 2.069993 nan
5.4724894 0.30599737 2.069993 nan
5.3924532 0.29040557 2.0574217 nan
5.3924308 0.28049704 2.0574217 nan
5.3924079 0.27058849 2.0574217 nan
5.3923855 0.26067996 2.0574217 nan
5.3923626 0.2507714 2.0574217 nan
5.3153296 0.23627272 2.0453217 nan
5.3923173 0.23095432 2.0574217 nan
5.3922944 0.22104573 2.0574217 nan
5.3922715 0.21113721 2.0574217 nan
5.3152404 0.19722521 2.0453217 nan
5.315218 0.18746331 2.0453217 nan
5.3151956 0.17770144 2.0453217 nan
5.3151731 0.16793957 2.0453217 nan
5.3151507 0.15817767 2.0453217 nan
5.3151283 0.1484158 2.0453217 nan
5.3151059 0.13865393 2.0453217 nan
5.3150835 0.12889203 2.0453217 nan
5.3150611 0.11913017 2.0453217 nan
5.3150387 0.10936827 2.0453217 nan
5.3150163 0.099606402 2.0453217 nan
5.3149939 0.089844532 2.0453217 nan
5.3149714 0.080082648 2.0453217 nan
5.239944 0.068278439 2.033536 nan
5.239922 0.058659397 2.033536 nan
5.2398996 0.049040377 2.033536 nan
5.3148823 0.041035123 2.0453217 nan
5.3148599 0.031273238 2.0453217 nan
5.6378512 0.027230851 2.0960789 -2.8494569e+38
5.6378274 0.016853727 2.0960789 nan
5.6377797 -0.0039004982 2.0960789 nan
5.3925672 0.33994833 2.047513 nan
5.3925443 0.33003977 2.047513 nan
5.4725356 0.32611921 2.0599322 nan
5.4725127 0.31605831 2.0599322 nan
5.4724894 0.30599737 2.0599322 nan
5.3924532 0.29040557 2.047513 nan
5.3924308 0.28049704 2.047513 nan
5.3924079 0.27058849 2.047513 nan
5.3923855 0.26067996 2.047513 nan
5.3923626 0.2507714 2.047513 nan
5.3153296 0.23627272 2.0355597 nan
5.3153071 0.22651085 2.0355597 nan
5.3152847 0.21674895 2.0355597 nan
5.3152628 0.20698708 2.0355597 nan
5.3152404 0.19722521 2.0355597 nan
5.315218 0.18746331 2.0355597 nan
5.3151956 0.17770144 2.0355597 nan
5.3151731 0.16793957 2.0355597 nan
5.3151507 0.15817767 2.0355597 nan
5.3151283 0.1484158 2.0355597 nan
5.3151059 0.13865393 2.0355597 nan
5.3150835 0.12889203 2.0355597 nan
5.3150611 0.11913017 2.0355597 nan
5.3150387 0.10936827 2.0355597 nan
5.3150163 0.099606402 2.0355597 nan
5.3149939 0.089844532 2.0355597 nan
5.3149714 0.080082648 2.0355597 nan
5.314949 0.070320763 2.0355597 nan
5.3149271 0.060558893 2.0355597 nan
5.3149047 0.050797008 2.0355597 nan
5.3148823 0.041035123 2.0355597 nan
5.2398558 0.02980233 2.023917 nan
5.3925672 0.33994833 2.0376046 nan
5.3925443 0.33003977 2.0376046 nan
5.3925214 0.32013124 2.0376046 nan
5.392499 0.31022269 2.0376046 nan
5.3924761 0.30031413 2.0376046 nan
5.3924532 0.29040557 2.0376046 nan
5.3924308 0.28049704 2.0376046 nan
5.3924079 0.27058849 2.0376046 nan
5.3923855 0.26067996 2.0376046 nan
5.3923626 0.2507714 2.0376046 nan
5.3153296 0.23627272 2.0257978 nan
5.3153071 0.22651085 2.0257978 nan
5.3152847 0.21674895 2.0257978 nan
5.3152628 0.20698708 2.0257978 nan
5.3152404 0.19722521 2.0257978 nan
5.315218 0.18746331 2.0257978 nan
5.3151956 0.17770144 2.0257978 nan
5.3151731 0.16793957 2.0257978 nan
5.3151507 0.15817767 2.0257978 nan
5.3151283 0.1484158 2.0257978 nan
5.3151059 0.13865393 2.0257978 nan
5.3150835 0.12889203 2.0257978 nan
5.3150611 0.11913017 2.0257978 nan
5.3150387 0.10936827 2.0257978 nan
5.3150163 0.099606402 2.0257978 nan
5.3149939 0.089844532 2.0257978 nan
5.3149714 0.080082648 2.0257978 nan
5.314949 0.070320763 2.0257978 nan
5.3149271 0.060558893 2.0257978 nan
5.2398996 0.049040377 2.014298 nan
5.3148823 0.041035123 2.0257978 nan
5.2398558 0.02980233 2.014298 nan
5.3925672 0.33994833 2.0276959 nan
5.3925443 0.33003977 2.0276959 nan
5.4725356 0.32611921 2.0398102 nan
5.4725127 0.31605831 2.0398102 nan
5.4724894 0.30599737 2.0398102 nan
5.3924532 0.29040557 2.0276959 nan
5.3924308 0.28049704 2.0276959 nan
5.3924079 0.27058849 2.0276959 nan
5.3923855 0.26067996 2.0276959 nan
5.3923626 0.2507714 2.0276959 nan
5.3153296 0.23627272 2.016036 nan
5.3153071 0.22651085 2.016036 nan
5.3152847 0.21674895 2.016036 nan
5.3152628 0.20698708 2.016036 nan
5.3152404 0.19722521 2.016036 nan
5.315218 0.18746331 2.016036 nan
5.3151956 0.17770144 2.016036 nan
5.3151731 0.16793957 2.016036 nan
5.3151507 0.15817767 2.016036 nan
5.3151283 0.1484158 2.016036 nan
5.3151059 0.13865393 2.016036 nan
5.3150835 0.12889203 2.016036 nan
5.3150611 0.11913017 2.016036 nan
5.3150387 0.10936827 2.016036 nan
5.3150163 0.099606402 2.016036 nan
5.3919992 0.092234649 2.0276959 nan
5.3149714 0.080082648 2.016036 nan
5.314949 0.070320763 2.016036 nan
5.3149271 0.060558893 2.016036 nan
5.2398996 0.049040377 2.0046787 nan
5.3148823 0.041035123 2.016036 nan
5.2398558 0.02980233 2.0046787 nan
5.3925672 0.33994833 2.0177875 nan
5.3925443 0.33003977 2.0177875 nan
5.3925214 0.32013124 2.0177875 nan
5.392499 0.31022269 2.0177875 nan
5.3924761 0.30031413 2.0177875 nan
5.3924532 0.29040557 2.0177875 nan
5.3924308 0.28049704 2.0177875 nan
5.3924079 0.27058849 2.0177875 nan
5.3923855 0.26067996 2.0177875 nan
5.3923626 0.2507714 2.0177875 nan
5.3153296 0.23627272 2.006274 nan
5.3153071 0.22651085 2.006274 nan
5.3152847 0.21674895 2.006274 nan
5.3152628 0.20698708 2.006274 nan
5.3152404 0.19722521 2.006274 nan
5.315218 0.18746331 2.006274 nan
5.3151956 0.17770144 2.006274 nan
5.3151731 0.16793957 2.006274 nan
5.3151507 0.15817767 2.006274 nan
5.3151283 0.1484158 2.006274 nan
5.3151059 0.13865393 2.006274 nan
5.3150835 0.12889203 2.006274 nan
5.3150611 0.11913017 2.006274 nan
5.3150387 0.10936827 2.006274 nan
5.3150163 0.099606402 2.006274 nan
5.3919992 0.092234649 2.0177875 nan
5.3149714 0.080082648 2.006274 nan
5.314949 0.070320763 2.006274 nan
5.3149271 0.060558893 2.006274 nan
5.2398996 0.049040377 1.9950597 nan
5.2398777 0.039421357 1.9950597 nan
5.3925443 0.33003977 2.0078788 nan
5.3925214 0.32013124 2.0078788 nan
5.392499 0.31022269 2.0078788 nan
5.4724894 0.30599737 2.0196884 nan
5.3924532 0.29040557 2.0078788 nan
5.3924308 0.28049704 2.0078788 nan
5.3924079 0.27058849 2.0078788 nan
5.3923855 0.26067996 2.0078788 nan
5.3923626 0.2507714 2.0078788 nan
5.3923397 0.24086288 2.0078788 nan
5.3923173 0.23095432 2.0078788 nan
5.3922944 0.22104573 2.0078788 nan
5.3152628 0.20698708 1.9965122 nan
5.3152404 0.19722521 1.9965122 nan
5.315218 0.18746331 1.9965122 nan
5.3151956 0.17770144 1.9965122 nan
5.3151731 0.16793957 1.9965122 nan
5.3151507 0.15817767 1.9965122 nan
5.3151283 0.1484158 1.9965122 nan
5.3921127 0.1417774 2.0078788 nan
5.3920898 0.13186884 2.0078788 nan
5.3920674 0.12196029 2.0078788 nan
5.3920445 0.11205175 2.0078788 nan
5.3150163 0.099606402 1.9965122 nan
5.3919992 0.092234649 2.0078788 nan
5.3919764 0.082326107 2.0078788 nan
5.314949 0.070320763 1.9965122 nan
5.3149271 0.060558893 1.9965122 nan
5.2398996 0.049040377 1.9854407 nan
5.2398777 0.039421357 1.9854407 nan
5.3925443 0.33003977 1.9979702 nan
5.3925214 0.32013124 1.9979702 nan
5.4725127 0.31605831 2.0096273 nan
5.3924761 0.30031413 1.9979702 nan
5.3924532 0.29040557 1.9979702 nan
5.3924308 0.28049704 1.9979702 nan
5.3924079 0.27058849 1.9979702 nan
5.4723973 0.26575366 2.0096273 nan
5.3923626 0.2507714 1.9979702 nan
5.3923397 0.24086288 1.9979702 nan
5.3923173 0.23095432 1.9979702 nan
5.3922944 0.22104573 1.9979702 nan
5.3152628 0.20698708 1.9867502 nan
5.3152404 0.19722521 1.9867502 nan
5.315218 0.18746331 1.9867502 nan
5.3151956 0.17770144 1.9867502 nan
5.3151731 0.16793957 1.9867502 nan
5.3151507 0.15817767 1.9867502 nan
5.3151283 0.1484158 1.9867502 nan
5.3151059 0.13865393 1.9867502 nan
5.3150835 0.12889203 1.9867502 nan
5.3150611 0.11913017 1.9867502 nan
5.3150387 0.10936827 1.9867502 nan
5.3150163 0.099606402 1.9867502 nan
5.3149939 0.089844532 1.9867502 nan
5.3149714 0.080082648 1.9867502 nan
5.314949 0.070320763 1.9867502 nan
5.3149271 0.060558893 1.9867502 nan
5.3149047 0.050797008 1.9867502 nan
5.4725585 0.33618015 1.9995664 nan
5.4725356 0.32611921 1.9995664 nan
5.4725127 0.31605831 1.9995664 nan
5.4724894 0.30599737 1.9995664 nan
5.3924532 0.29040557 1.9880617 nan
5.4724436 0.28587553 1.9995664 nan
5.4724202 0.27581462 1.9995664 nan
5.4723973 0.26575366 1.9995664 nan
5.3923626 0.2507714 1.9880617 nan
5.3923397 0.24086288 1.9880617 nan
5.3153071 0.22651085 1.9769883 nan
5.3922944 0.22104573 1.9880617 nan
5.3152628 0.20698708 1.9769883 nan
5.3152404 0.19722521 1.9769883 nan
5.315218 0.18746331 1.9769883 nan
5.3151956 0.17770144 1.9769883 nan
5.3151731 0.16793957 1.9769883 nan
5.3151507 0.15817767 1.9769883 nan
5.3151283 0.1484158 1.9769883 nan
5.3151059 0.13865393 1.9769883 nan
5.3150835 0.12889203 1.9769883 nan
5.3150611 0.11913017 1.9769883 nan
5.3150387 0.10936827 1.9769883 nan
5.3150163 0.099606402 1.9769883 nan
5.3149939 0.089844532 1.9769883 nan
5.3149714 0.080082648 1.9769883 nan
5.314949 0.070320763 1.9769883 nan
5.239922 0.058659397 1.9662026 nan
5.2398996 0.049040377 1.9662026 nan
5.4725585 0.33618015 1.9895055 nan
5.4725356 0.32611921 1.9895055 nan
5.4725127 0.31605831 1.9895055 nan
5.4724894 0.30599737 1.9895055 nan
5.4724665 0.29593647 1.9895055 nan
5.4724436 0.28587553 1.9895055 nan
5.4724202 0.27581462 1.9895055 nan
5.4723973 0.26575366 1.9895055 nan
5.472374 0.25569272 1.9895055 nan
5.3923397 0.24086288 1.9781531 nan
5.3923173 0.23095432 1.9781531 nan
5.3922944 0.22104573 1.9781531 nan
5.3922715 0.21113721 1.9781531 nan
5.3922491 0.20122865 1.9781531 nan
5.315218 0.18746331 1.9672265 nan
5.3151956 0.17770144 1.9672265 nan
5.3151731 0.16793957 1.9672265 nan
5.3151507 0.15817767 1.9672265 nan
5.3151283 0.1484158 1.9672265 nan
5.3151059 0.13865393 1.9672265 nan
5.3150835 0.12889203 1.9672265 nan
5.3150611 0.11913017 1.9672265 nan
5.3150387 0.10936827 1.9672265 nan
5.3150163 0.099606402 1.9672265 nan
5.3149939 0.089844532 1.9672265 nan
5.3149714 0.080082648 1.9672265 nan
5.314949 0.070320763 1.9672265 nan
5.3149271 0.060558893 1.9672265 nan
5.3149047 0.050797008 1.9672265 nan
5.4725585 0.33618015 1.9794445 nan
5.5545497 0.33225694 1.9909246 nan
5.5545263 0.32203981 1.9909246 nan
5.554503 0.31182268 1.9909246 nan
5.4724665 0.29593647 1.9794445 nan
5.5544562 0.29138845 1.9909246 nan
5.5544329 0.28117135 1.9909246 nan
5.5544095 0.27095422 1.9909246 nan
5.472374 0.25569272 1.9794445 nan
5.3923397 0.24086288 1.9682446 nan
5.3923173 0.23095432 1.9682446 nan
5.3922944 0.22104573 1.9682446 nan
5.3922715 0.21113721 1.9682446 nan
5.3922491 0.20122865 1.9682446 nan
5.315218 0.18746331 1.9574645 nan
5.3151956 0.17770144 1.9574645 nan
5.3151731 0.16793957 1.9574645 nan
5.3151507 0.15817767 1.9574645 nan
5.3151283 0.1484158 1.9574645 nan
5.3151059 0.13865393 1.9574645 nan
5.3150835 0.12889203 1.9574645 nan
5.3150611 0.11913017 1.9574645 nan
5.3150387 0.10936827 1.9574645 nan
5.3150163 0.099606402 1.9574645 nan
5.3149939 0.089844532 1.9574645 nan
5.3919764 0.082326107 1.9682446 nan
5.314949 0.070320763 1.9574645 nan
5.3149271 0.060558893 1.9574645 nan
5.4725585 0.33618015 1.9693836 nan
5.4725356 0.32611921 1.9693836 nan
5.4725127 0.31605831 1.9693836 nan
5.4724894 0.30599737 1.9693836 nan
5.4724665 0.29593647 1.9693836 nan
5.4724436 0.28587553 1.9693836 nan
5.4724202 0.27581462 1.9693836 nan
5.4723973 0.26575366 1.9693836 nan
5.472374 0.25569272 1.9693836 nan
5.3923397 0.24086288 1.9583359 nan
5.3923173 0.23095432 1.9583359 nan
5.3922944 0.22104573 1.9583359 nan
5.3922715 0.21113721 1.9583359 nan
5.3922491 0.20122865 1.9583359 nan
5.315218 0.18746331 1.9477026 nan
5.3151956 0.17770144 1.9477026 nan
5.3151731 0.16793957 1.9477026 nan
5.3151507 0.15817767 1.9477026 nan
5.3151283 0.1484158 1.9477026 nan
5.3151059 0.13865393 1.9477026 nan
5.3150835 0.12889203 1.9477026 nan
5.3150611 0.11913017 1.9477026 nan
5.3150387 0.10936827 1.9477026 nan
5.3150163 0.099606402 1.9477026 nan
5.3149939 0.089844532 1.9477026 nan
5.3149714 0.080082648 1.9477026 nan
5.314949 0.070320763 1.9477026 nan
5.3149271 0.060558893 1.9477026 nan
5.3149047 0.050797008 1.9477026 nan
5.4725356 0.32611921 1.9593227 nan
5.4725127 0.31605831 1.9593227 nan
5.4724894 0.30599737 1.9593227 nan
5.4724665 0.29593647 1.9593227 nan
5.4724436 0.28587553 1.9593227 nan
5.4724202 0.27581462 1.9593227 nan
5.4723973 0.26575366 1.9593227 nan
5.472374 0.25569272 1.9593227 nan
5.3923397 0.24086288 1.9484274 nan
5.3923173 0.23095432 1.9484274 nan
5.4723048 0.22550997 1.9593227 nan
5.3922715 0.21113721 1.9484274 nan
5.3922491 0.20122865 1.9484274 nan
5.3922262 0.19132012 1.9484274 nan
5.3922033 0.18141156 1.9484274 nan
5.3151731 0.16793957 1.9379407 nan
5.3151507 0.15817767 1.9379407 nan
5.3151283 0.1484158 1.9379407 nan
5.3151059 0.13865393 1.9379407 nan
5.3150835 0.12889203 1.9379407 nan
5.3150611 0.11913017 1.9379407 nan
5.3150387 0.10936827 1.9379407 nan
5.3150163 0.099606402 1.9379407 nan
5.3149939 0.089844532 1.9379407 nan
5.3149714 0.080082648 1.9379407 nan
5.314949 0.070320763 1.9379407 nan
5.3149271 0.060558893 1.9379407 nan
5.3149047 0.050797008 1.9379407 nan
5.4725585 0.33618015 1.9492617 nan
5.4725356 0.32611921 1.9492617 nan
5.4725127 0.31605831 1.9492617 nan
5.4724894 0.30599737 1.9492617 nan
5.4724665 0.29593647 1.9492617 nan
5.4724436 0.28587553 1.9492617 nan
5.5544329 0.28117135 1.960273 nan
5.4723973 0.26575366 1.9492617 nan
5.472374 0.25569272 1.9492617 nan
5.3923397 0.24086288 1.9385188 nan
5.3923173 0.23095432 1.9385188 nan
5.3922944 0.22104573 1.9385188 nan
5.3922715 0.21113721 1.9385188 nan
5.3922491 0.20122865 1.9385188 nan
5.3922262 0.19132012 1.9385188 nan
5.3151956 0.17770144 1.9281788 nan
5.3151731 0.16793957 1.9281788 nan
5.3151507 0.15817767 1.9281788 nan
5.3151283 0.1484158 1.9281788 nan
5.3151059 0.13865393 1.9281788 nan
5.3150835 0.12889203 1.9281788 nan
5.3150611 0.11913017 1.9281788 nan
5.3150387 0.10936827 1.9281788 nan
5.3150163 0.099606402 1.9281788 nan
5.3149939 0.089844532 1.9281788 nan
5.3149714 0.080082648 1.9281788 nan
5.314949 0.070320763 1.9281788 nan
5.3149271 0.060558893 1.9281788 nan
5.3149047 0.050797008 1.9281788 nan
5.4725585 0.33618015 1.9392006 nan
5.4725356 0.32611921 1.9392006 nan
5.4725127 0.31605831 1.9392006 nan
5.4724894 0.30599737 1.9392006 nan
5.4724665 0.29593647 1.9392006 nan
5.4724436 0.28587553 1.9392006 nan
5.4724202 0.27581462 1.9392006 nan
5.4723973 0.26575366 1.9392006 nan
5.472374 0.25569272 1.9392006 nan
5.3923397 0.24086288 1.9286103 nan
5.3923173 0.23095432 1.9286103 nan
5.3922944 0.22104573 1.9286103 nan
5.3922715 0.21113721 1.9286103 nan
5.3922491 0.20122865 1.9286103 nan
5.3922262 0.19132012 1.9286103 nan
5.3922033 0.18141156 1.9286103 nan
5.3151731 0.16793957 1.918417 nan
5.3151507 0.15817767 1.918417 nan
5.3151283 0.1484158 1.918417 nan
5.3151059 0.13865393 1.918417 nan
5.3150835 0.12889203 1.918417 nan
5.3150611 0.11913017 1.918417 nan
5.3150387 0.10936827 1.918417 nan
5.3150163 0.099606402 1.918417 nan
5.3149939 0.089844532 1.918417 nan
5.3149714 0.080082648 1.918417 nan
5.314949 0.070320763 1.918417 nan
5.3149271 0.060558893 1.918417 nan
5.3149047 0.050797008 1.918417 nan
5.4725356 0.32611921 1.9291399 nan
5.4725127 0.31605831 1.9291399 nan
5.4724894 0.30599737 1.9291399 nan
5.4724665 0.29593647 1.9291399 nan
5.4724436 0.28587553 1.9291399 nan
5.4724202 0.27581462 1.9291399 nan
5.4723973 0.26575366 1.9291399 nan
5.472374 0.25569272 1.9291399 nan
5.3923397 0.24086288 1.9187016 nan
5.3923173 0.23095432 1.9187016 nan
5.3922944 0.22104573 1.9187016 nan
5.3922715 0.21113721 1.9187016 nan
5.3922491 0.20122865 1.9187016 nan
5.3922262 0.19132012 1.9187016 nan
5.3922033 0.18141156 1.9187016 nan
5.3151731 0.16793957 1.9086549 nan
5.3151507 0.15817767 1.9086549 nan
5.3151283 0.1484158 1.9086549 nan
5.3151059 0.13865393 1.9086549 nan
5.3150835 0.12889203 1.9086549 nan
5.3150611 0.11913017 1.9086549 nan
5.3150387 0.10936827 1.9086549 nan
5.3150163 0.099606402 1.9086549 nan
5.3149939 0.089844532 1.9086549 nan
5.3149714 0.080082648 1.9086549 nan
5.314949 0.070320763 1.9086549 nan
5.3149271 0.060558893 1.9086549 nan
5.2398996 0.049040377 1.8988693 nan
5.4725585 0.33618015 1.9190788 nan
5.4725356 0.32611921 1.9190788 nan
5.4725127 0.31605831 1.9190788 nan
5.4724894 0.30599737 1.9190788 nan
5.3924532 0.29040557 1.9087931 nan
5.3924308 0.28049704 1.9087931 nan
5.3924079 0.27058849 1.9087931 nan
5.3923855 0.26067996 1.9087931 nan
5.3923626 0.2507714 1.9087931 nan
5.3923397 0.24086288 1.9087931 nan
5.3923173 0.23095432 1.9087931 nan
5.3922944 0.22104573 1.9087931 nan
5.3922715 0.21113721 1.9087931 nan
5.3922491 0.20122865 1.9087931 nan
5.3922262 0.19132012 1.9087931 nan
5.3151956 0.17770144 1.8988931 nan
5.3151731 0.16793957 1.8988931 nan
5.2401423 0.15484965 1.8892503 nan
5.2401204 0.14523062 1.8892503 nan
5.3151059 0.13865393 1.8988931 nan
5.2400761 0.12599257 1.8892503 nan
5.2400541 0.11637355 1.8892503 nan
5.3150387 0.10936827 1.8988931 nan
5.3150163 0.099606402 1.8988931 nan
5.3149939 0.089844532 1.8988931 nan
5.3149714 0.080082648 1.8988931 nan
5.314949 0.070320763 1.8988931 nan
5.3149271 0.060558893 1.8988931 nan
5.2398996 0.049040377 1.8892503 nan
5.3925443 0.33003977 1.8988845 nan
5.3925214 0.32013124 1.8988845 nan
5.392499 0.31022269 1.8988845 nan
5.3924761 0.30031413 1.8988845 nan
5.3924532 0.29040557 1.8988845 nan
5.3924308 0.28049704 1.8988845 nan
5.3924079 0.27058849 1.8988845 nan
5.3923855 0.26067996 1.8988845 nan
5.3923626 0.2507714 1.8988845 nan
5.3923397 0.24086288 1.8988845 nan
5.3923173 0.23095432 1.8988845 nan
5.3922944 0.22104573 1.8988845 nan
5.3922715 0.21113721 1.8988845 nan
5.3922491 0.20122865 1.8988845 nan
5.3922262 0.19132012 1.8988845 nan
5.3151956 0.17770144 1.8891312 nan
5.3151731 0.16793957 1.8891312 nan
5.2401423 0.15484965 1.8796313 nan
5.2401204 0.14523062 1.8796313 nan
5.3151059 0.13865393 1.8891312 nan
5.2400761 0.12599257 1.8796313 nan
5.3150611 0.11913017 1.8891312 nan
5.3150387 0.10936827 1.8891312 nan
5.3150163 0.099606402 1.8891312 nan
5.3149939 0.089844532 1.8891312 nan
5.3149714 0.080082648 1.8891312 nan
5.314949 0.070320763 1.8891312 nan
5.3149271 0.060558893 1.8891312 nan
5.2398996 0.049040377 1.8796313 nan
5.3918176 0.012966283 1.8988845 nan
5.4725585 0.33618015 1.8989569 nan
5.4725356 0.32611921 1.8989569 nan
5.392499 0.31022269 1.888976 nan
5.3924761 0.30031413 1.888976 nan
5.3924532 0.29040557 1.888976 nan
5.3924308 0.28049704 1.888976 nan
5.3924079 0.27058849 1.888976 nan
5.3923855 0.26067996 1.888976 nan
5.3923626 0.2507714 1.888976 nan
5.3923397 0.24086288 1.888976 nan
5.3923173 0.23095432 1.888976 nan
5.3922944 0.22104573 1.888976 nan
5.3922715 0.21113721 1.888976 nan
5.3922491 0.20122865 1.888976 nan
5.315218 0.18746331 1.8793693 nan
5.3151956 0.17770144 1.8793693 nan
5.3151731 0.16793957 1.8793693 nan
5.3151507 0.15817767 1.8793693 nan
5.3151283 0.1484158 1.8793693 nan
5.3151059 0.13865393 1.8793693 nan
5.3150835 0.12889203 1.8793693 nan
5.3150611 0.11913017 1.8793693 nan
5.3150387 0.10936827 1.8793693 nan
5.3150163 0.099606402 1.8793693 nan
5.3149939 0.089844532 1.8793693 nan
5.3149714 0.080082648 1.8793693 nan
5.3919535 0.072417565 1.888976 nan
5.3149271 0.060558893 1.8793693 nan
5.3149047 0.050797008 1.8793693 nan
5.3148823 0.041035123 1.8793693 nan
5.3918629 0.032783382 1.888976 nan
5.3148375 0.021511368 1.8793693 -3.0100033e+38
5.314815 0.011749484 1.8793693 nan
5.2397895 0.00094526261 1.8700122 nan
5.2397676 -0.0086737536 1.8700122 nan
5.2397456 -0.018292781 1.8700122 nan
5.3925443 0.33003977 1.8790674 nan
5.3925214 0.32013124 1.8790674 nan
5.392499 0.31022269 1.8790674 nan
5.3924761 0.30031413 1.8790674 nan
5.3924532 0.29040557 1.8790674 nan
5.3924308 0.28049704 1.8790674 nan
5.3924079 0.27058849 1.8790674 nan
5.3923855 0.26067996 1.8790674 nan
5.3923626 0.2507714 1.8790674 nan
5.3923397 0.24086288 1.8790674 nan
5.3923173 0.23095432 1.8790674 nan
5.3922944 0.22104573 1.8790674 nan
5.3922715 0.21113721 1.8790674 nan
5.3922491 0.20122865 1.8790674 nan
5.315218 0.18746331 1.8696074 nan
5.3151956 0.17770144 1.8696074 nan
5.3151731 0.16793957 1.8696074 nan
5.3151507 0.15817767 1.8696074 nan
5.3151283 0.1484158 1.8696074 nan
5.3151059 0.13865393 1.8696074 nan
5.3150835 0.12889203 1.8696074 nan
5.3150611 0.11913017 1.8696074 nan
5.3150387 0.10936827 1.8696074 nan
5.3150163 0.099606402 1.8696074 nan
5.3149939 0.089844532 1.8696074 nan
5.3919764 0.082326107 1.8790674 nan
5.3919535 0.072417565 1.8790674 nan
5.3919311 0.062509023 1.8790674 nan
5.3149047 0.050797008 1.8696074 nan
5.3148823 0.041035123 1.8696074 nan
5.3918629 0.032783382 1.8790674 nan
5.3148375 0.021511368 1.8696074 -3.0620822e+38
5.314815 0.011749484 1.8696074 nan
5.2397895 0.00094526261 1.860393 nan
5.2397676 -0.0086737536 1.860393 nan
5.2397456 -0.018292781 1.860393 nan
5.2397232 -0.027911801 1.860393 nan
5.314703 -0.037059914 1.8696074 nan
5.3146806 -0.046821795 1.8696074 nan
5.4725585 0.33618015 1.878835 nan
5.3925214 0.32013124 1.8691587 nan
5.392499 0.31022269 1.8691587 nan
5.4724894 0.30599737 1.878835 nan
5.3924532 0.29040557 1.8691587 nan
5.3924308 0.28049704 1.8691587 nan
5.3153968 0.26555836 1.8598454 nan
5.3923855 0.26067996 1.8691587 nan
5.3923626 0.2507714 1.8691587 nan
5.3923397 0.24086288 1.8691587 nan
5.3923173 0.23095432 1.8691587 nan
5.3922944 0.22104573 1.8691587 nan
5.3922715 0.21113721 1.8691587 nan
5.3922491 0.20122865 1.8691587 nan
5.3922262 0.19132012 1.8691587 nan
5.3151956 0.17770144 1.8598454 nan
5.3151731 0.16793957 1.8598454 nan
5.3151507 0.15817767 1.8598454 nan
5.3151283 0.1484158 1.8598454 nan
5.3151059 0.13865393 1.8598454 nan
5.3150835 0.12889203 1.8598454 nan
5.3150611 0.11913017 1.8598454 nan
5.3150387 0.10936827 1.8598454 nan
5.3150163 0.099606402 1.8598454 nan
5.3149939 0.089844532 1.8598454 nan
5.3149714 0.080082648 1.8598454 nan
5.314949 0.070320763 1.8598454 nan
5.3149271 0.060558893 1.8598454 nan
5.3149047 0.050797008 1.8598454 nan
5.3148823 0.041035123 1.8598454 nan
5.3918629 0.032783382 1.8691587 nan
5.3148375 0.021511368 1.8598454 -3.1032569e+38
5.3918176 0.012966283 1.8691587 nan
5.3147926 0.0019875988 1.8598454 nan
5.3147702 -0.0077742748 1.8598454 nan
5.2397456 -0.018292781 1.850774 nan
5.3147254 -0.027298037 1.8598454 nan
5.314703 -0.037059914 1.8598454 nan
5.3146806 -0.046821795 1.8598454 nan
5.4725585 0.33618015 1.8687741 nan
5.3925214 0.32013124 1.8592503 nan
5.392499 0.31022269 1.8592503 nan
5.3924761 0.30031413 1.8592503 nan
5.3924532 0.29040557 1.8592503 nan
5.3924308 0.28049704 1.8592503 nan
5.3924079 0.27058849 1.8592503 nan
5.3923855 0.26067996 1.8592503 nan
5.3923626 0.2507714 1.8592503 nan
5.3923397 0.24086288 1.8592503 nan
5.3923173 0.23095432 1.8592503 nan
5.3922944 0.22104573 1.8592503 nan
5.3922715 0.21113721 1.8592503 nan
5.3922491 0.20122865 1.8592503 nan
5.315218 0.18746331 1.8500836 nan
5.3151956 0.17770144 1.8500836 nan
5.3151731 0.16793957 1.8500836 nan
5.3151507 0.15817767 1.8500836 nan
5.3151283 0.1484158 1.8500836 nan
5.3151059 0.13865393 1.8500836 nan
5.3150835 0.12889203 1.8500836 nan
5.3150611 0.11913017 1.8500836 nan
5.3150387 0.10936827 1.8500836 nan
5.3150163 0.099606402 1.8500836 nan
5.3149939 0.089844532 1.8500836 nan
5.3149714 0.080082648 1.8500836 nan
5.314949 0.070320763 1.8500836 nan
5.3149271 0.060558893 1.8500836 nan
5.3149047 0.050797008 1.8500836 nan
5.3148823 0.041035123 1.8500836 nan
5.3918629 0.032783382 1.8592503 nan
5.3148375 0.021511368 1.8500836 -3.0756339e+38
5.314815 0.011749484 1.8500836 -3.3569039e+38
5.2397895 0.00094526261 1.8411551 nan
5.3147702 -0.0077742748 1.8500836 nan
5.3147478 -0.017536152 1.8500836 nan
5.3147254 -0.027298037 1.8500836 nan
5.314703 -0.037059914 1.8500836 nan
5.3146806 -0.046821795 1.8500836 nan
5.3925443 0.33003977 1.8493416 nan
5.3925214 0.32013124 1.8493416 nan
5.392499 0.31022269 1.8493416 nan
5.3924761 0.30031413 1.8493416 nan
5.3924532 0.29040557 1.8493416 nan
5.3924308 0.28049704 1.8493416 nan
5.3924079 0.27058849 1.8493416 nan
5.3923855 0.26067996 1.8493416 nan
5.3923626 0.2507714 1.8493416 nan
5.3923397 0.24086288 1.8493416 nan
5.3923173 0.23095432 1.8493416 nan
5.3922944 0.22104573 1.8493416 nan
5.3922715 0.21113721 1.8493416 nan
5.3922491 0.20122865 1.8493416 nan
5.315218 0.18746331 1.8403217 nan
5.3151956 0.17770144 1.8403217 nan
5.3151731 0.16793957 1.8403217 nan
5.3151507 0.15817767 1.8403217 nan
5.3151283 0.1484158 1.8403217 nan
5.3151059 0.13865393 1.8403217 nan
5.3150835 0.12889203 1.8403217 nan
5.3150611 0.11913017 1.8403217 nan
5.3150387 0.10936827 1.8403217 nan
5.2400103 0.097135507 1.8315359 nan
5.3149939 0.089844532 1.8403217 nan
5.3149714 0.080082648 1.8403217 nan
5.314949 0.070320763 1.8403217 nan
5.239922 0.058659397 1.8315359 nan
5.2398996 0.049040377 1.8315359 nan
5.3148823 0.041035123 1.8403217 nan
5.3148599 0.031273238 1.8403217 nan
5.3148375 0.021511368 1.8403217 -3.0365359e+38
5.314815 0.011749484 1.8403217 -3.1968248e+38
5.2397895 0.00094526261 1.8315359 -3.3444444e+38
5.2397676 -0.0086737536 1.8315359 nan
5.2397456 -0.018292781 1.8315359 nan
5.2397232 -0.027911801 1.8315359 nan
5.314703 -0.037059914 1.8403217 nan
5.3146806 -0.046821795 1.8403217 nan
5.3925443 0.33003977 1.8394331 nan
5.3925214 0.32013124 1.8394331 nan
5.392499 0.31022269 1.8394331 nan
5.3924761 0.30031413 1.8394331 nan
5.3924532 0.29040557 1.8394331 nan
5.3924308 0.28049704 1.8394331 nan
5.3924079 0.27058849 1.8394331 nan
5.3923855 0.26067996 1.8394331 nan
5.3923626 0.2507714 1.8394331 nan
5.3923397 0.24086288 1.8394331 nan
5.3923173 0.23095432 1.8394331 nan
5.3922944 0.22104573 1.8394331 nan
5.3922715 0.21113721 1.8394331 nan
5.3922491 0.20122865 1.8394331 nan
5.3922262 0.19132012 1.8394331 nan
5.3151956 0.17770144 1.8305597 nan
5.3151731 0.16793957 1.8305597 nan
5.3151507 0.15817767 1.8305597 nan
5.3151283 0.1484158 1.8305597 nan
5.3151059 0.13865393 1.8305597 nan
5.3150835 0.12889203 1.8305597 nan
5.3150611 0.11913017 1.8305597 nan
5.3150387 0.10936827 1.8305597 nan
5.2400103 0.097135507 1.8219168 nan
5.3149939 0.089844532 1.8305597 nan
5.3149714 0.080082648 1.8305597 nan
5.314949 0.070320763 1.8305597 nan
5.239922 0.058659397 1.8219168 nan
5.2398996 0.049040377 1.8219168 nan
5.2398777 0.039421357 1.8219168 nan
5.3148599 0.031273238 1.8305597 nan
5.2398338 0.020183302 1.8219168 -3.1025821e+38
5.2398114 0.01056429 1.8219168 -3.3301102e+38
5.2397895 0.00094526261 1.8219168 nan
5.2397676 -0.0086737536 1.8219168 nan
5.2397456 -0.018292781 1.8219168 nan
5.2397232 -0.027911801 1.8219168 nan
5.314703 -0.037059914 1.8305597 nan
5.3146806 -0.046821795 1.8305597 nan
5.3925443 0.33003977 1.8295245 nan
5.3925214 0.32013124 1.8295245 nan
5.392499 0.31022269 1.8295245 nan
5.3924761 0.30031413 1.8295245 nan
5.3924532 0.29040557 1.8295245 nan
5.3924308 0.28049704 1.8295245 nan
5.3153968 0.26555836 1.8207979 nan
5.3923855 0.26067996 1.8295245 nan
5.3923626 0.2507714 1.8295245 nan
5.3923397 0.24086288 1.8295245 nan
5.3923173 0.23095432 1.8295245 nan
5.3922944 0.22104573 1.8295245 nan
5.3152628 0.20698708 1.8207979 nan
5.3152404 0.19722521 1.8207979 nan
5.315218 0.18746331 1.8207979 nan
5.3151956 0.17770144 1.8207979 nan
5.3151731 0.16793957 1.8207979 nan
5.3151507 0.15817767 1.8207979 nan
5.2401204 0.14523062 1.8122978 nan
5.3151059 0.13865393 1.8207979 nan
5.3920898 0.13186884 1.8295245 nan
5.3920674 0.12196029 1.8295245 nan
5.3150387 0.10936827 1.8207979 nan
5.3150163 0.099606402 1.8207979 nan
5.2399879 0.087516479 1.8122978 nan
5.2399659 0.077897452 1.8122978 nan
5.239944 0.068278439 1.8122978 nan
5.239922 0.058659397 1.8122978 nan
5.2398996 0.049040377 1.8122978 nan
5.3148823 0.041035123 1.8207979 nan
5.3148599 0.031273238 1.8207979 nan
5.3148375 0.021511368 1.8207979 -3.1698228e+38
5.314815 0.011749484 1.8207979 nan
5.3147926 0.0019875988 1.8207979 nan
5.3147702 -0.0077742748 1.8207979 nan
5.3147478 -0.017536152 1.8207979 nan
5.3147254 -0.027298037 1.8207979 nan
5.3917036 -0.036576442 1.8295245 nan
5.3916812 -0.046484988 1.8295245 nan
5.4716592 -0.056195989 1.8385912 nan
5.4713821 -0.1769271 1.8385912 -3.3958954e+38
5.3925443 0.33003977 1.819616 nan
5.3925214 0.32013124 1.819616 nan
5.392499 0.31022269 1.819616 nan
5.3924761 0.30031413 1.819616 nan
5.3154416 0.28508213 1.8110359 nan
5.3924308 0.28049704 1.819616 nan
5.3153968 0.26555836 1.8110359 nan
5.3153744 0.25579646 1.8110359 nan
5.3923626 0.2507714 1.819616 nan
5.3923397 0.24086288 1.819616 nan
5.3923173 0.23095432 1.819616 nan
5.3922944 0.22104573 1.819616 nan
5.3152628 0.20698708 1.8110359 nan
5.3152404 0.19722521 1.8110359 nan
5.315218 0.18746331 1.8110359 nan
5.3151956 0.17770144 1.8110359 nan
5.3151731 0.16793957 1.8110359 nan
5.3151507 0.15817767 1.8110359 nan
5.2401204 0.14523062 1.8026788 nan
5.3151059 0.13865393 1.8110359 nan
5.3150835 0.12889203 1.8110359 nan
5.3150611 0.11913017 1.8110359 nan
5.3920445 0.11205175 1.819616 nan
5.3150163 0.099606402 1.8110359 nan
5.239922 0.058659397 1.8026788 nan
5.2398996 0.049040377 1.8026788 nan
5.2398777 0.039421357 1.8026788 nan
5.3148599 0.031273238 1.8110359 nan
5.2398338 0.020183302 1.8026788 -3.1021159e+38
5.2398114 0.01056429 1.8026788 nan
5.2397895 0.00094526261 1.8026788 nan
5.3147702 -0.0077742748 1.8110359 nan
5.3147478 -0.017536152 1.8110359 nan
5.3917265 -0.026667897 1.819616 nan
5.3917036 -0.036576442 1.819616 nan
5.3916812 -0.046484988 1.819616 nan
5.3916583 -0.056393534 1.819616 nan
5.6374707 -0.13880301 1.8470273 -3.3031076e+38
5.4714055 -0.16686618 1.8285303 -3.3694662e+38
5.4713821 -0.1769271 1.8285303 -3.3958437e+38
5.3925443 0.33003977 1.8097074 nan
5.3925214 0.32013124 1.8097074 nan
5.392499 0.31022269 1.8097074 nan
5.3924761 0.30031413 1.8097074 nan
5.3154416 0.28508213 1.8012741 nan
5.3924308 0.28049704 1.8097074 nan
5.3153968 0.26555836 1.8012741 nan
5.3153744 0.25579646 1.8012741 nan
5.3923626 0.2507714 1.8097074 nan
5.3923397 0.24086288 1.8097074 nan
5.3923173 0.23095432 1.8097074 nan
5.3152847 0.21674895 1.8012741 nan
5.3152628 0.20698708 1.8012741 nan
5.3152404 0.19722521 1.8012741 nan
5.315218 0.18746331 1.8012741 nan
5.3151956 0.17770144 1.8012741 nan
5.3151731 0.16793957 1.8012741 nan
5.3151507 0.15817767 1.8012741 nan
5.2401204 0.14523062 1.7930598 nan
5.2400985 0.13561159 1.7930598 nan
5.3150835 0.12889203 1.8012741 nan
5.3150611 0.11913017 1.8012741 nan
5.3150387 0.10936827 1.8012741 nan
5.314949 0.070320763 1.8012741 nan
5.2398558 0.02980233 1.7930598 nan
5.2398338 0.020183302 1.7930598 -3.0232956e+38
5.2398114 0.01056429 1.7930598 -3.3973016e+38
5.2397895 0.00094526261 1.7930598 nan
5.3147702 -0.0077742748 1.8012741 nan
5.3147478 -0.017536152 1.8012741 nan
5.3917265 -0.026667897 1.8097074 nan
5.314703 -0.037059914 1.8012741 nan
5.3916812 -0.046484988 1.8097074 nan
5.3916583 -0.056393534 1.8097074 nan
5.6374707 -0.13880301 1.8366503 -3.3300561e+38
5.5534492 -0.14794755 1.8274503 -3.3566925e+38
5.5534258 -0.15816468 1.8274503 -3.3697773e+38
5.4714055 -0.16686618 1.8184693 -3.3828623e+38
5.4713821 -0.1769271 1.8184693 -3.3827591e+38
5.3925443 0.33003977 1.7997987 nan
5.3925214 0.32013124 1.7997987 nan
5.392499 0.31022269 1.7997987 nan
5.3924761 0.30031413 1.7997987 nan
5.3924532 0.29040557 1.7997987 nan
5.3924308 0.28049704 1.7997987 nan
5.3924079 0.27058849 1.7997987 nan
5.3923855 0.26067996 1.7997987 nan
5.3923626 0.2507714 1.7997987 nan
5.3923397 0.24086288 1.7997987 nan
5.3923173 0.23095432 1.7997987 nan
5.3922944 0.22104573 1.7997987 nan
5.3152628 0.20698708 1.7915121 nan
5.3152404 0.19722521 1.7915121 nan
5.315218 0.18746331 1.7915121 nan
5.3151956 0.17770144 1.7915121 nan
5.3151731 0.16793957 1.7915121 nan
5.3151507 0.15817767 1.7915121 nan
5.2401204 0.14523062 1.7834407 nan
5.2400985 0.13561159 1.7834407 nan
5.2400761 0.12599257 1.7834407 nan
5.2400541 0.11637355 1.7834407 nan
5.2400322 0.10675452 1.7834407 nan
5.3150163 0.099606402 1.7915121 nan
5.3149939 0.089844532 1.7915121 nan
5.3149047 0.050797008 1.7915121 nan
5.3148823 0.041035123 1.7915121 nan
5.3148599 0.031273238 1.7915121 nan
5.2398338 0.020183302 1.7834407 -3.2746017e+38
5.2398114 0.01056429 1.7834407 nan
5.2397895 0.00094526261 1.7834407 nan
5.2397676 -0.0086737536 1.7834407 nan
5.3147478 -0.017536152 1.7915121 nan
5.3147254 -0.027298037 1.7915121 nan
5.314703 -0.037059914 1.7915121 nan
5.3146806 -0.046821795 1.7915121 nan
5.5534725 -0.13773045 1.8172331 -3.3569006e+38
5.4714518 -0.14674434 1.8084083 -3.3301601e+38
5.4714284 -0.15680525 1.8084083 -3.3035238e+38
5.4714055 -0.16686618 1.8084083 -3.2230954e+38
5.4713821 -0.1769271 1.8084083 -3.1434461e+38
5.3925672 0.33994833 1.7898903 nan
5.3925443 0.33003977 1.7898903 nan
5.4725356 0.32611921 1.7983474 nan
5.4725127 0.31605831 1.7983474 nan
5.4724894 0.30599737 1.7983474 nan
5.4724665 0.29593647 1.7983474 nan
5.4724436 0.28587553 1.7983474 nan
5.4724202 0.27581462 1.7983474 nan
5.3923855 0.26067996 1.7898903 nan
5.3923626 0.2507714 1.7898903 nan
5.3923397 0.24086288 1.7898903 nan
5.3923173 0.23095432 1.7898903 nan
5.3922944 0.22104573 1.7898903 nan
5.3152628 0.20698708 1.7817502 nan
5.3152404 0.19722521 1.7817502 nan
5.315218 0.18746331 1.7817502 nan
5.3151956 0.17770144 1.7817502 nan
5.3151731 0.16793957 1.7817502 nan
5.2401423 0.15484965 1.7738216 nan
5.2401204 0.14523062 1.7738216 nan
5.2400985 0.13561159 1.7738216 nan
5.2400761 0.12599257 1.7738216 nan
5.2400541 0.11637355 1.7738216 nan
5.2400322 0.10675452 1.7738216 nan
5.3920217 0.10214321 1.7898903 nan
5.3919764 0.082326107 1.7898903 nan
5.3149047 0.050797008 1.7817502 nan
5.3148823 0.041035123 1.7817502 nan
5.2398558 0.02980233 1.7738216 nan
5.2398338 0.020183302 1.7738216 nan
5.2398114 0.01056429 1.7738216 nan
5.2397895 0.00094526261 1.7738216 nan
5.2397676 -0.0086737536 1.7738216 nan
5.3147478 -0.017536152 1.7817502 nan
5.3147254 -0.027298037 1.7817502 nan
5.3917036 -0.036576442 1.7898903 nan
5.3916812 -0.046484988 1.7898903 nan
5.3916583 -0.056393534 1.7898903 nan
5.5534725 -0.13773045 1.8070159 -3.3832779e+38
5.5534492 -0.14794755 1.8070159 -3.3168167e+38
5.5534258 -0.15816468 1.8070159 -3.236698e+38
5.5534019 -0.16838178 1.8070159 -3.0757351e+38
5.3925672 0.33994833 1.7799816 nan
5.3925443 0.33003977 1.7799816 nan
5.4725356 0.32611921 1.7882864 nan
5.4725127 0.31605831 1.7882864 nan
5.4724894 0.30599737 1.7882864 nan
5.4724665 0.29593647 1.7882864 nan
5.4724436 0.28587553 1.7882864 nan
5.3924079 0.27058849 1.7799816 nan
5.3923855 0.26067996 1.7799816 nan
5.3923626 0.2507714 1.7799816 nan
5.3923397 0.24086288 1.7799816 nan
5.3923173 0.23095432 1.7799816 nan
5.3922944 0.22104573 1.7799816 nan
5.3152628 0.20698708 1.7719884 nan
5.3152404 0.19722521 1.7719884 nan
5.315218 0.18746331 1.7719884 nan
5.3151956 0.17770144 1.7719884 nan
5.3151731 0.16793957 1.7719884 nan
5.2401423 0.15484965 1.7642026 nan
5.2401204 0.14523062 1.7642026 nan
5.2400985 0.13561159 1.7642026 nan
5.2400761 0.12599257 1.7642026 nan
5.3150611 0.11913017 1.7719884 nan
5.3150387 0.10936827 1.7719884 nan
5.3920217 0.10214321 1.7799816 nan
5.3919992 0.092234649 1.7799816 nan
5.3919082 0.052600466 1.7799816 nan
5.3148823 0.041035123 1.7719884 nan
5.3148599 0.031273238 1.7719884 nan
5.3148375 0.021511368 1.7719884 nan
5.314815 0.011749484 1.7719884 nan
5.3147926 0.0019875988 1.7719884 nan
