# .PCD v0.7 - Point Cloud Data file format
VERSION 0.7
FIELDS x y z rgb
SIZE 4 4 4 4
TYPE F F F F
COUNT 1 1 1 1
WIDTH 1028
HEIGHT 1
VIEWPOINT 0 0 0 1 0 0 0
POINTS 1028
DATA ascii
2.1043749 -0.80961084 0.98645496 -2.2224225e+38
2.1043568 -0.81325847 0.98645496 -2.2090785e+38
2.1043386 -0.81690603 0.98645496 -2.1824942e+38
2.1043205 -0.8205536 0.98645496 -2.1692021e+38
2.1043024 -0.82420111 0.98645496 -2.155911e+38
2.1042843 -0.82784873 0.98645496 -2.1294313e+38
2.0932877 -0.82713604 0.98791111 -2.1163477e+38
2.0932698 -0.83076268 0.98791111 -2.1428812e+38
2.0932517 -0.83438927 0.98791111 -2.1828098e+38
2.0932338 -0.83801585 0.98791111 -2.2093941e+38
2.0932157 -0.84164256 0.98791111 -2.2494263e+38
2.0931978 -0.84526914 0.98791111 -2.2895104e+38
2.0931797 -0.84889579 0.98791111 -2.3428347e+38
2.1041396 -0.85702938 0.98645496 -2.3823992e+38
2.1041214 -0.86067688 0.98645496 -2.43536e+38
2.1041033 -0.86432445 0.98645496 -2.0887736e+38
2.1040852 -0.86797202 0.98645496 -1.7547162e+38
2.1140466 -0.87579304 0.98513114 -3.2521375e+38
2.1140282 -0.87945968 0.98513114 nan
2.1040308 -0.87891477 0.98645496 nan
2.1040127 -0.88256234 0.98645496 nan
2.1039946 -0.88620996 0.98645496 nan
2.1826789 -0.54709631 0.9724673 nan
2.1826601 -0.55089051 0.9724673 -2.3972062e+38
2.1706555 -0.55177957 0.97407877 -2.2493247e+38
2.1596498 -0.55286682 0.9755559 -2.0904932e+38
2.1596313 -0.55661726 0.9755559 -2.2237281e+38
2.1486261 -0.55764169 0.97703302 -2.3564422e+38
2.1486075 -0.56137121 0.97703302 -2.3428893e+38
2.1376028 -0.56233275 0.97851014 -2.3162522e+38
2.1375842 -0.56604129 0.97851014 -2.3029074e+38
2.1375659 -0.56974983 0.97851014 -2.276219e+38
2.1375475 -0.57345831 0.97851014 -2.3026995e+38
2.1375291 -0.57716686 0.97851014 -2.3292315e+38
2.1375108 -0.58087534 0.97851014 -2.3159388e+38
2.1265066 -0.58169025 0.97998732 -2.3025944e+38
2.1264882 -0.58537787 0.97998732 -2.3025944e+38
2.1264699 -0.58906543 0.97998732 -2.3025944e+38
2.1264517 -0.59275299 0.97998732 -2.3025944e+38
2.1264334 -0.59644061 0.97998732 -2.302594e+38
2.126415 -0.60012817 0.97998732 -2.2760093e+38
2.1263967 -0.60381573 0.97998732 -2.2361318e+38
2.1263785 -0.60750329 0.97998732 -2.2760082e+38
2.1263602 -0.61119086 0.97998732 -2.3025409e+38
2.1263418 -0.61487848 0.97998732 -2.3025409e+38
2.1263235 -0.61856604 0.97998732 -2.3025411e+38
2.1263051 -0.6222536 0.97998732 -2.3158336e+38
2.126287 -0.62594116 0.97998732 -2.3291784e+38
2.1262686 -0.62962878 0.97998732 -2.3424713e+38
2.1262503 -0.63331634 0.97998732 -2.3425755e+38
2.1262319 -0.6370039 0.97998732 -2.4090375e+38
2.1262138 -0.64069146 0.97998732 -2.4749247e+38
2.1371794 -0.64762884 0.97851014 -2.1409014e+38
2.137161 -0.65133733 0.97851014 -1.8109971e+38
2.1371424 -0.65504587 0.97851014 -3.1051915e+38
2.1371241 -0.65875441 0.97851014 nan
2.1371057 -0.66246295 0.97851014 nan
2.1585329 -0.77789265 0.9755559 -1.7031938e+38
2.1585143 -0.78164303 0.9755559 -2.0232945e+38
2.1475153 -0.78141034 0.97703302 -2.3424153e+38
2.1474967 -0.7851398 0.97703302 -2.3559692e+38
2.1364982 -0.78484434 0.97851014 -2.3556581e+38
2.1364799 -0.78855282 0.97851014 -2.3555025e+38
2.1254816 -0.78819442 0.97998732 -2.3422098e+38
2.1254632 -0.79188198 0.97998732 -2.328865e+38
2.1254449 -0.79556954 0.97998732 -2.3022283e+38
2.1144469 -0.79512733 0.98146451 -2.3021762e+38
2.1144288 -0.79879397 0.98146451 -2.3021241e+38
2.1044292 -0.79866815 0.98280734 -2.2755393e+38
2.1044111 -0.80231571 0.98280734 -2.2489545e+38
2.104393 -0.80596328 0.98280734 -2.2356103e+38
2.1043749 -0.80961084 0.98280734 -2.2223181e+38
2.1043568 -0.81325847 0.98280734 -2.2090779e+38
2.1043386 -0.81690603 0.98280734 -2.1824938e+38
2.1043205 -0.8205536 0.98280734 -2.1559615e+38
2.1043024 -0.82420111 0.98280734 -2.1293261e+38
2.1042843 -0.82784873 0.98280734 -2.1027944e+38
2.0932877 -0.82713604 0.98428446 -2.0629701e+38
2.0932698 -0.83076268 0.98428446 -2.1161401e+38
2.0932517 -0.83438927 0.98428446 -2.1560684e+38
2.0932338 -0.83801585 0.98428446 -2.1959448e+38
2.1041939 -0.84608662 0.98280734 -2.2360811e+38
2.0931978 -0.84526914 0.98428446 -2.2895096e+38
2.1041577 -0.85338175 0.98280734 -2.3292814e+38
2.1041396 -0.85702938 0.98280734 -2.3422092e+38
2.1041214 -0.86067688 0.98280734 -2.3555035e+38
2.1041033 -0.86432445 0.98280734 -2.0627641e+38
2.1040852 -0.86797202 0.98280734 -1.7585088e+38
2.1040671 -0.87161964 0.98280734 -3.107481e+38
2.1140282 -0.87945968 0.98146451 nan
2.1040308 -0.87891477 0.98280734 nan
2.1040127 -0.88256234 0.98280734 nan
2.0930176 -0.88153535 0.98428446 nan
2.1826789 -0.54709631 0.96867305 nan
2.1826601 -0.55089051 0.96867305 -2.0623511e+38
2.1706555 -0.55177957 0.97030735 -2.0896636e+38
2.1706369 -0.55555093 0.97030735 -2.1304229e+38
2.1596313 -0.55661726 0.97180545 -2.2367608e+38
2.1486261 -0.55764169 0.97330356 -2.3430459e+38
2.1486075 -0.56137121 0.97330356 -2.303064e+38
2.1376028 -0.56233275 0.9748016 -2.2763751e+38
2.1375842 -0.56604129 0.9748016 -2.2762707e+38
2.1375659 -0.56974983 0.9748016 -2.276063e+38
2.1375475 -0.57345831 0.9748016 -2.2894072e+38
2.1375291 -0.57716686 0.9748016 -2.315991e+38
2.1375108 -0.58087534 0.9748016 -2.3158863e+38
2.1374922 -0.58458388 0.9748016 -2.3158863e+38
2.1264882 -0.58537787 0.9762997 -2.3158863e+38
2.1374555 -0.5920009 0.9748016 -2.3025421e+38
2.1374371 -0.5957095 0.9748016 -2.2893017e+38
2.1264334 -0.59644061 0.9762997 -2.2893017e+38
2.126415 -0.60012817 0.9762997 -2.2627172e+38
2.1373818 -0.60683501 0.9748016 -2.2361324e+38
2.1263785 -0.60750329 0.9762997 -2.2627168e+38
2.1263602 -0.61119086 0.9762997 -2.2892494e+38
2.1263418 -0.61487848 0.9762997 -2.3025417e+38
2.1263235 -0.61856604 0.9762997 -2.315782e+38
2.1263051 -0.6222536 0.9762997 -2.3290741e+38
2.126287 -0.62594116 0.9762997 -2.3291267e+38
2.1262686 -0.62962878 0.9762997 -2.3557637e+38
2.1262503 -0.63331634 0.9762997 -2.3691601e+38
2.1372161 -0.64021176 0.9748016 -2.4222773e+38
2.1371977 -0.6439203 0.9748016 -2.4753395e+38
2.1371794 -0.64762884 0.9748016 -2.128491e+38
2.137161 -0.65133733 0.9748016 -1.7963546e+38
2.1371424 -0.65504587 0.9748016 -3.1447051e+38
2.1371241 -0.65875441 0.9748016 nan
2.1261222 -0.65912938 0.9762997 nan
2.1261039 -0.66281694 0.9762997 nan
2.1585517 -0.77414221 0.97180545 nan
2.1585329 -0.77789265 0.97180545 -1.7147727e+38
2.1475339 -0.77768087 0.97330356 -2.0093795e+38
2.1475153 -0.78141034 0.97330356 -2.3157271e+38
2.1474967 -0.7851398 0.97330356 -2.329177e+38
2.1364982 -0.78484434 0.9748016 -2.3556059e+38
2.1364799 -0.78855282 0.9748016 -2.3422617e+38
2.1254816 -0.78819442 0.9762997 -2.3289173e+38
2.1254632 -0.79188198 0.9762997 -2.3155729e+38
2.114465 -0.79146075 0.97779781 -2.3022285e+38
2.1144469 -0.79512733 0.97779781 -2.3021762e+38
2.1144288 -0.79879397 0.97779781 -2.3021241e+38
2.1044292 -0.79866815 0.97915971 -2.2888316e+38
2.1044111 -0.80231571 0.97915971 -2.2754872e+38
2.104393 -0.80596328 0.97915971 -2.2488503e+38
2.1043749 -0.80961084 0.97915971 -2.2355061e+38
2.1043568 -0.81325847 0.97915971 -2.2090254e+38
2.1043386 -0.81690603 0.97915971 -2.1824934e+38
2.1043205 -0.8205536 0.97915971 -2.1691498e+38
2.1043024 -0.82420111 0.97915971 -2.1558064e+38
2.1042843 -0.82784873 0.97915971 -2.1292745e+38
2.1042662 -0.8314963 0.97915971 -2.1159829e+38
2.104248 -0.83514386 0.97915971 -2.1559122e+38
2.1042302 -0.83879143 0.97915971 -2.1824962e+38
2.0932338 -0.83801585 0.98065782 -2.2225282e+38
2.1041939 -0.84608662 0.97915971 -2.2493724e+38
2.0931978 -0.84526914 0.98065782 -2.2893009e+38
2.1041577 -0.85338175 0.97915971 -2.3159879e+38
2.1041396 -0.85702938 0.97915971 -2.2625578e+38
2.1041214 -0.86067688 0.97915971 -2.2093935e+38
2.1041033 -0.86432445 0.97915971 -1.9964102e+38
2.1040852 -0.86797202 0.97915971 -1.7971937e+38
2.1140466 -0.87579304 0.97779781 -3.2525543e+38
2.1140282 -0.87945968 0.97779781 nan
2.1040308 -0.87891477 0.97915971 nan
2.1040127 -0.88256234 0.97915971 nan
2.1039946 -0.88620996 0.97915971 nan
2.1706929 -0.54423678 0.96653593 nan
2.1706743 -0.54800814 0.96653593 -1.7304599e+38
2.1706555 -0.55177957 0.96653593 -1.9431871e+38
2.1596498 -0.55286682 0.96805495 -2.1565384e+38
2.1486447 -0.55391222 0.96957397 -2.2364995e+38
2.1486261 -0.55764169 0.96957397 -2.3163562e+38
2.1376212 -0.55862427 0.97109306 -2.2764788e+38
2.1376028 -0.56233275 0.97109306 -2.2364979e+38
2.1375842 -0.56604129 0.97109306 -2.2496861e+38
2.1375659 -0.56974983 0.97109306 -2.2628746e+38
2.1375475 -0.57345831 0.97109306 -2.2894589e+38
2.1375291 -0.57716686 0.97109306 -2.3026465e+38
2.1375108 -0.58087534 0.97109306 -2.3157822e+38
2.1374922 -0.58458388 0.97109306 -2.3291262e+38
2.1374738 -0.58829242 0.97109306 -2.3158857e+38
2.1374555 -0.5920009 0.97109306 -2.3025934e+38
2.1374371 -0.5957095 0.97109306 -2.2893011e+38
2.1264334 -0.59644061 0.97261208 -2.2627685e+38
2.1374002 -0.60312653 0.97109306 -2.2494762e+38
2.1263967 -0.60381573 0.97261208 -2.2361839e+38
2.1263785 -0.60750329 0.97261208 -2.2626648e+38
2.1263602 -0.61119086 0.97261208 -2.2759569e+38
2.1263418 -0.61487848 0.97261208 -2.3024894e+38
2.1263235 -0.61856604 0.97261208 -2.3290741e+38
2.1263051 -0.6222536 0.97261208 -2.3290224e+38
2.126287 -0.62594116 0.97261208 -2.3291786e+38
2.1262686 -0.62962878 0.97261208 -2.369056e+38
2.1262503 -0.63331634 0.97261208 -2.3956929e+38
2.1372161 -0.64021176 0.97109306 -2.4354663e+38
2.1371977 -0.6439203 0.97109306 -2.4750288e+38
2.1371794 -0.64762884 0.97109306 -2.1279211e+38
2.137161 -0.65133733 0.97109306 -1.7709651e+38
2.1371424 -0.65504587 0.97109306 -3.1992244e+38
2.1371241 -0.65875441 0.97109306 nan
2.1261222 -0.65912938 0.97261208 nan
2.1261039 -0.66281694 0.97261208 nan
2.1585329 -0.77789265 0.96805495 -1.7294129e+38
2.1585143 -0.78164303 0.96805495 -2.0103152e+38
2.1475153 -0.78141034 0.96957397 -2.2760064e+38
2.1474967 -0.7851398 0.96957397 -2.3160406e+38
2.1364982 -0.78484434 0.97109306 -2.3556057e+38
2.1364799 -0.78855282 0.97109306 -2.3289173e+38
2.1254816 -0.78819442 0.97261208 -2.3023326e+38
2.1254632 -0.79188198 0.97261208 -2.3023324e+38
2.114465 -0.79146075 0.97413111 -2.2889878e+38
2.1144469 -0.79512733 0.97413111 -2.2889354e+38
2.1144288 -0.79879397 0.97413111 -2.2888833e+38
2.1044292 -0.79866815 0.97551209 -2.2887793e+38
2.1044111 -0.80231571 0.97551209 -2.2887271e+38
2.104393 -0.80596328 0.97551209 -2.2753829e+38
2.1043749 -0.80961084 0.97551209 -2.2487984e+38
2.1043568 -0.81325847 0.97551209 -2.2090252e+38
2.1043386 -0.81690603 0.97551209 -2.1691489e+38
2.1043205 -0.8205536 0.97551209 -2.1690978e+38
2.1043024 -0.82420111 0.97551209 -2.1691504e+38
2.1042843 -0.82784873 0.97551209 -2.169151e+38
2.1042662 -0.8314963 0.97551209 -2.1691514e+38
2.104248 -0.83514386 0.97551209 -2.1956844e+38
2.1042302 -0.83879143 0.97551209 -2.2090801e+38
2.0932338 -0.83801585 0.97703111 -2.2357164e+38
2.1041939 -0.84608662 0.97551209 -2.2625089e+38
2.0931978 -0.84526914 0.97703111 -2.2890936e+38
2.1041577 -0.85338175 0.97551209 -2.3025409e+38
2.1041396 -0.85702938 0.97551209 -2.1827017e+38
2.1041214 -0.86067688 0.97551209 -2.0496774e+38
2.1041033 -0.86432445 0.97551209 -1.9427705e+38
2.1040852 -0.86797202 0.97551209 -1.825126e+38
2.1140466 -0.87579304 0.97413111 -3.4007936e+38
2.1140282 -0.87945968 0.97413111 nan
2.1140101 -0.88312626 0.97413111 nan
2.113992 -0.8867929 0.97413111 nan
2.1039946 -0.88620996 0.97551209 nan
2.1936848 -0.54590237 0.95954448 nan
2.1826789 -0.54709631 0.96108449 nan
2.1826601 -0.55089051 0.96108449 -1.7280716e+38
2.1706555 -0.55177957 0.9627645 -2.0360752e+38
2.1596498 -0.55286682 0.96430445 -2.3426285e+38
2.1486447 -0.55391222 0.96584445 -2.3296475e+38
2.1486261 -0.55764169 0.96584445 -2.3296994e+38
2.1486075 -0.56137121 0.96584445 -2.2764782e+38
2.1376028 -0.56233275 0.96738446 -2.2365496e+38
2.1375842 -0.56604129 0.96738446 -2.2364458e+38
2.1375659 -0.56974983 0.96738446 -2.2495821e+38
2.1375475 -0.57345831 0.96738446 -2.2760626e+38
2.1375291 -0.57716686 0.96738446 -2.3025944e+38
2.1375108 -0.58087534 0.96738446 -2.3025417e+38
2.1374922 -0.58458388 0.96738446 -2.3158336e+38
2.1374738 -0.58829242 0.96738446 -2.3025409e+38
2.1374555 -0.5920009 0.96738446 -2.3025928e+38
2.1374371 -0.5957095 0.96738446 -2.2893005e+38
2.1264334 -0.59644061 0.96892446 -2.2627679e+38
2.126415 -0.60012817 0.96892446 -2.2628198e+38
2.1263967 -0.60381573 0.96892446 -2.2628202e+38
2.1263785 -0.60750329 0.96892446 -2.2760088e+38
2.1263602 -0.61119086 0.96892446 -2.2892488e+38
2.1263418 -0.61487848 0.96892446 -2.3025407e+38
2.1263235 -0.61856604 0.96892446 -2.3158336e+38
2.1372898 -0.62537771 0.96738446 -2.3291262e+38
2.126287 -0.62594116 0.96892446 -2.3425749e+38
2.1262686 -0.62962878 0.96892446 -2.3691079e+38
2.1372344 -0.63650322 0.96738446 -2.4090373e+38
2.1372161 -0.64021176 0.96738446 -2.4489667e+38
2.1371977 -0.6439203 0.96738446 -2.4891009e+38
2.1371794 -0.64762884 0.96738446 -2.1283377e+38
2.137161 -0.65133733 0.96738446 -1.7680061e+38
2.1371424 -0.65504587 0.96738446 -3.2244591e+38
2.1371241 -0.65875441 0.96738446 nan
2.1261222 -0.65912938 0.96892446 nan
2.1261039 -0.66281694 0.96892446 nan
2.1585329 -0.77789265 0.96430445 -1.7148725e+38
2.1585143 -0.78164303 0.96430445 -2.0359659e+38
2.1475153 -0.78141034 0.96584445 -2.3556569e+38
2.1474967 -0.7851398 0.96584445 -2.3423656e+38
2.1474783 -0.78886932 0.96584445 -2.3421577e+38
2.1364799 -0.78855282 0.96738446 -2.3156249e+38
2.1254816 -0.78819442 0.96892446 -2.3022285e+38
2.1254632 -0.79188198 0.96892446 -2.288988e+38
2.114465 -0.79146075 0.97046447 -2.2756951e+38
2.1144469 -0.79512733 0.97046447 -2.2756425e+38
2.1144288 -0.79879397 0.97046447 -2.2756423e+38
2.1044292 -0.79866815 0.97186446 -2.2621941e+38
2.1044111 -0.80231571 0.97186446 -2.2620904e+38
2.104393 -0.80596328 0.97186446 -2.2355061e+38
2.1043749 -0.80961084 0.97186446 -2.2088694e+38
2.1043568 -0.81325847 0.97186446 -2.1956808e+38
2.1043386 -0.81690603 0.97186446 -2.1956816e+38
2.1043205 -0.8205536 0.97186446 -2.1956822e+38
2.1043024 -0.82420111 0.97186446 -2.1957345e+38
2.1042843 -0.82784873 0.97186446 -2.195683e+38
2.1042662 -0.8314963 0.97186446 -2.2089755e+38
2.104248 -0.83514386 0.97186446 -2.2223199e+38
2.1042302 -0.83879143 0.97186446 -2.2356641e+38
2.104212 -0.84243906 0.97186446 -2.2490602e+38
2.1041939 -0.84608662 0.97186446 -2.2758012e+38
2.1041758 -0.84973419 0.97186446 -2.3024382e+38
2.1041577 -0.85338175 0.97186446 -2.3425224e+38
2.1041396 -0.85702938 0.97186446 -2.3158336e+38
2.1041214 -0.86067688 0.97186446 -2.289249e+38
2.1041033 -0.86432445 0.97186446 -2.0354495e+38
2.1040852 -0.86797202 0.97186446 -1.781301e+38
2.1140466 -0.87579304 0.97046447 -3.3852676e+38
2.1140282 -0.87945968 0.97046447 nan
2.1140101 -0.88312626 0.97046447 nan
2.113992 -0.8867929 0.97046447 nan
2.1039946 -0.88620996 0.97186446 nan
2.1826978 -0.54330206 0.95729017 nan
2.1826789 -0.54709631 0.95729017 nan
2.1826601 -0.55089051 0.95729017 -1.7298364e+38
2.1706555 -0.55177957 0.95899308 -2.1304195e+38
2.1596498 -0.55286682 0.960554 -2.5291879e+38
2.1486447 -0.55391222 0.96211493 -2.4362977e+38
2.1486261 -0.55764169 0.96211493 -2.3297516e+38
2.1486075 -0.56137121 0.96211493 -2.2765303e+38
2.1376028 -0.56233275 0.96367586 -2.2232571e+38
2.1375842 -0.56604129 0.96367586 -2.2364456e+38
2.1375659 -0.56974983 0.96367586 -2.2362375e+38
2.1375475 -0.57345831 0.96367586 -2.2759579e+38
2.1375291 -0.57716686 0.96367586 -2.3025936e+38
2.1375108 -0.58087534 0.96367586 -2.302593e+38
2.1374922 -0.58458388 0.96367586 -2.2892484e+38
2.1374738 -0.58829242 0.96367586 -2.3024885e+38
2.1374555 -0.5920009 0.96367586 -2.3025405e+38
2.1374371 -0.5957095 0.96367586 -2.2893003e+38
2.1264334 -0.59644061 0.96523684 -2.2628194e+38
2.126415 -0.60012817 0.96523684 -2.2761636e+38
2.1263967 -0.60381573 0.96523684 -2.289352e+38
2.1263785 -0.60750329 0.96523684 -2.2893003e+38
2.115375 -0.60812962 0.96679783 -2.2893001e+38
2.1263418 -0.61487848 0.96523684 -2.3025924e+38
2.1263235 -0.61856604 0.96523684 -2.3025409e+38
2.1263051 -0.6222536 0.96523684 -2.3290741e+38
2.126287 -0.62594116 0.96523684 -2.3425226e+38
2.1262686 -0.62962878 0.96523684 -2.3823998e+38
2.1372344 -0.63650322 0.96367586 -2.4223294e+38
2.1372161 -0.64021176 0.96367586 -2.4621553e+38
2.1371977 -0.6439203 0.96367586 -2.5018734e+38
2.1371794 -0.64762884 0.96367586 -2.1416807e+38
2.137161 -0.65133733 0.96367586 -1.7712774e+38
2.1371424 -0.65504587 0.96367586 -3.2528626e+38
2.1371241 -0.65875441 0.96367586 nan
2.1371057 -0.66246295 0.96367586 nan
2.1695323 -0.77806246 0.95899308 -3.3895894e+38
2.1695137 -0.78183383 0.95899308 -1.7021489e+38
2.1585143 -0.78164303 0.960554 -2.0629659e+38
2.1475153 -0.78141034 0.96211493 -2.4219106e+38
2.1474967 -0.7851398 0.96211493 -2.3689506e+38
2.1474783 -0.78886932 0.96211493 -2.3156772e+38
2.1364799 -0.78855282 0.96367586 -2.3023845e+38
2.1254816 -0.78819442 0.96523684 -2.2890401e+38
2.1254632 -0.79188198 0.96523684 -2.2756955e+38
2.114465 -0.79146075 0.96679783 -2.2490584e+38
2.1144469 -0.79512733 0.96679783 -2.2490059e+38
2.1144288 -0.79879397 0.96679783 -2.2489539e+38
2.1044292 -0.79866815 0.96821684 -2.2488501e+38
2.1044111 -0.80231571 0.96821684 -2.2355582e+38
2.104393 -0.80596328 0.96821684 -2.2089739e+38
2.1043749 -0.80961084 0.96821684 -2.169097e+38
2.1043568 -0.81325847 0.96821684 -2.1956814e+38
2.1043386 -0.81690603 0.96821684 -2.2089739e+38
2.1043205 -0.8205536 0.96821684 -2.2089741e+38
2.1043024 -0.82420111 0.96821684 -2.2089741e+38
2.1042843 -0.82784873 0.96821684 -2.2221625e+38
2.1042662 -0.8314963 0.96821684 -2.235559e+38
2.104248 -0.83514386 0.96821684 -2.2488515e+38
2.1042302 -0.83879143 0.96821684 -2.2489558e+38
2.104212 -0.84243906 0.96821684 -2.2756444e+38
2.1041939 -0.84608662 0.96821684 -2.2890411e+38
2.1041758 -0.84973419 0.96821684 -2.3289707e+38
2.1041577 -0.85338175 0.96821684 -2.3690031e+38
2.1041396 -0.85702938 0.96821684 -2.4488085e+38
2.1041214 -0.86067688 0.96821684 -2.5151149e+38
2.1041033 -0.86432445 0.96821684 -2.1283935e+38
2.1040852 -0.86797202 0.96821684 -1.7451642e+38
2.1140466 -0.87579304 0.96679783 -3.3745733e+38
2.1140282 -0.87945968 0.96679783 nan
2.1140101 -0.88312626 0.96679783 nan
2.1469228 -0.90075368 0.96211493 nan
2.1826789 -0.54709631 0.95349586 nan
2.1826601 -0.55089051 0.95349586 -1.7281226e+38
2.1706555 -0.55177957 0.95522165 -2.1164003e+38
2.1596498 -0.55286682 0.9568035 -2.5161554e+38
2.1486447 -0.55391222 0.95838541 -2.4362462e+38
2.1486261 -0.55764169 0.95838541 -2.3561805e+38
2.1376212 -0.55862427 0.95996732 -2.3163033e+38
2.1376028 -0.56233275 0.95996732 -2.2630821e+38
2.1375842 -0.56604129 0.95996732 -2.2495819e+38
2.1375659 -0.56974983 0.95996732 -2.2493734e+38
2.1375475 -0.57345831 0.95996732 -2.2627168e+38
2.1375291 -0.57716686 0.95996732 -2.2760084e+38
2.1375108 -0.58087534 0.95996732 -2.2760076e+38
2.1374922 -0.58458388 0.95996732 -2.2892997e+38
2.1374738 -0.58829242 0.95996732 -2.3025399e+38
2.1374555 -0.5920009 0.95996732 -2.3157806e+38
2.1374371 -0.5957095 0.95996732 -2.3025924e+38
2.1264334 -0.59644061 0.96154922 -2.2761115e+38
2.126415 -0.60012817 0.96154922 -2.2893514e+38
2.1263967 -0.60381573 0.96154922 -2.3025399e+38
2.1263785 -0.60750329 0.96154922 -2.3025918e+38
2.1263602 -0.61119086 0.96154922 -2.302592e+38
2.1263418 -0.61487848 0.96154922 -2.302592e+38
2.1263235 -0.61856604 0.96154922 -2.3158849e+38
2.1372898 -0.62537771 0.95996732 -2.3291778e+38
2.1372714 -0.6290862 0.95996732 -2.3558666e+38
2.137253 -0.63279474 0.95996732 -2.3957955e+38
2.1372344 -0.63650322 0.95996732 -2.4357774e+38
2.1372161 -0.64021176 0.95996732 -2.4756553e+38
2.1371977 -0.6439203 0.95996732 -2.5157362e+38
2.1371794 -0.64762884 0.95996732 -2.1419389e+38
2.1481447 -0.65460807 0.95838541 -1.7834274e+38
2.1481261 -0.65833759 0.95838541 -3.2918582e+38
2.1481078 -0.66206706 0.95838541 nan
2.1480892 -0.66579652 0.95838541 nan
2.1815112 -0.7823391 0.95349586 -3.3935828e+38
2.1695137 -0.78183383 0.95522165 -1.7014197e+38
2.1694949 -0.78560519 0.95522165 -2.0357061e+38
2.1584957 -0.78539348 0.9568035 -2.3684301e+38
2.1474967 -0.7851398 0.95838541 -2.3423143e+38
2.1474783 -0.78886932 0.95838541 -2.3290216e+38
2.1364799 -0.78855282 0.95996732 -2.3023845e+38
2.1364615 -0.79226136 0.95996732 -2.2890399e+38
2.1254632 -0.79188198 0.96154922 -2.262403e+38
2.1254449 -0.79556954 0.96154922 -2.2490063e+38
2.1144469 -0.79512733 0.96313113 -2.2357134e+38
2.1144288 -0.79879397 0.96313113 -2.2223694e+38
2.1144104 -0.80246061 0.96313113 -2.2223696e+38
2.1044111 -0.80231571 0.96456921 -2.22237e+38
2.1143742 -0.80979383 0.96313113 -2.1957858e+38
2.1043749 -0.80961084 0.96456921 -2.1692013e+38
2.1043568 -0.81325847 0.96456921 -2.1558571e+38
2.1043386 -0.81690603 0.96456921 -2.1558047e+38
2.1043205 -0.8205536 0.96456921 -2.1824408e+38
2.1043024 -0.82420111 0.96456921 -2.1957329e+38
2.1042843 -0.82784873 0.96456921 -2.2089728e+38
2.1042662 -0.8314963 0.96456921 -2.2355578e+38
2.104248 -0.83514386 0.96456921 -2.2489024e+38
2.1042302 -0.83879143 0.96456921 -2.2755914e+38
2.104212 -0.84243906 0.96456921 -2.2889362e+38
2.1041939 -0.84608662 0.96456921 -2.3156255e+38
2.1041758 -0.84973419 0.96456921 -2.3422626e+38
2.1041577 -0.85338175 0.96456921 -2.369055e+38
2.1041396 -0.85702938 0.96456921 -2.3692627e+38
2.1041214 -0.86067688 0.96456921 -2.3698355e+38
2.1041033 -0.86432445 0.96456921 -2.075901e+38
2.1140647 -0.8721264 0.96313113 -1.7833294e+38
2.1140466 -0.87579304 0.96313113 -3.3858941e+38
2.1140282 -0.87945968 0.96313113 nan
2.1469414 -0.89702415 0.95838541 nan
2.1469228 -0.90075368 0.95838541 nan
2.1469045 -0.90448314 0.95838541 nan
2.1826789 -0.54709631 0.94970161 nan
2.1826601 -0.55089051 0.94970161 -1.7162837e+38
2.1706555 -0.55177957 0.95145017 -2.1040955e+38
2.1596498 -0.55286682 0.953053 -2.4895199e+38
2.1486447 -0.55391222 0.95465589 -2.4362472e+38
2.1486261 -0.55764169 0.95465589 -2.3828696e+38
2.1376212 -0.55862427 0.95625877 -2.3428361e+38
2.1376028 -0.56233275 0.95625877 -2.3028551e+38
2.1375842 -0.56604129 0.95625877 -2.2760624e+38
2.1375659 -0.56974983 0.95625877 -2.2494772e+38
2.1375475 -0.57345831 0.95625877 -2.2494766e+38
2.1375291 -0.57716686 0.95625877 -2.2361837e+38
2.1375108 -0.58087534 0.95625877 -2.262716e+38
2.1374922 -0.58458388 0.95625877 -2.2893005e+38
2.1374738 -0.58829242 0.95625877 -2.3158851e+38
2.1374555 -0.5920009 0.95625877 -2.3291254e+38
2.1374371 -0.5957095 0.95625877 -2.315833e+38
2.1264334 -0.59644061 0.9578616 -2.2893001e+38
2.126415 -0.60012817 0.9578616 -2.3025403e+38
2.1263967 -0.60381573 0.9578616 -2.3025401e+38
2.1263785 -0.60750329 0.9578616 -2.3025399e+38
2.1263602 -0.61119086 0.9578616 -2.3025918e+38
2.1263418 -0.61487848 0.9578616 -2.3158841e+38
2.1263235 -0.61856604 0.9578616 -2.3291768e+38
2.1372898 -0.62537771 0.95625877 -2.3425216e+38
2.1372714 -0.6290862 0.95625877 -2.3559179e+38
2.137253 -0.63279474 0.95625877 -2.3958471e+38
2.1372344 -0.63650322 0.95625877 -2.4357766e+38
2.1372161 -0.64021176 0.95625877 -2.4889468e+38
2.1371977 -0.6439203 0.95625877 -2.5280934e+38
2.1371794 -0.64762884 0.95625877 -2.153466e+38
2.1481447 -0.65460807 0.95465589 -1.7845176e+38
2.1481261 -0.65833759 0.95465589 -3.3201554e+38
2.1481078 -0.66206706 0.95465589 nan
2.1480892 -0.66579652 0.95465589 nan
2.1815112 -0.7823391 0.94970161 nan
2.1695137 -0.78183383 0.95145017 -1.7028785e+38
2.1694949 -0.78560519 0.95145017 -2.0099521e+38
2.1584957 -0.78539348 0.953053 -2.302332e+38
2.1474967 -0.7851398 0.95465589 -2.3293335e+38
2.1474783 -0.78886932 0.95465589 -2.3424179e+38
2.1474597 -0.79259878 0.95465589 -2.3157293e+38
2.1364615 -0.79226136 0.95625877 -2.2757482e+38
2.1254632 -0.79188198 0.9578616 -2.2624038e+38
2.1254449 -0.79556954 0.9578616 -2.2357148e+38
2.1254265 -0.79925716 0.9578616 -2.2090779e+38
2.1254082 -0.80294472 0.9578616 -2.1824936e+38
2.1144104 -0.80246061 0.95946443 -2.195786e+38
2.1143923 -0.80612719 0.95946443 -2.1958382e+38
2.1143742 -0.80979383 0.95946443 -2.1825459e+38
2.1043749 -0.80961084 0.96092165 -2.1559092e+38
2.1043568 -0.81325847 0.96092165 -2.1292725e+38
2.1043386 -0.81690603 0.96092165 -2.1026873e+38
2.1043205 -0.8205536 0.96092165 -2.1425638e+38
2.1043024 -0.82420111 0.96092165 -2.1824923e+38
2.1042843 -0.82784873 0.96092165 -2.2090767e+38
2.0932877 -0.82713604 0.96252447 -2.2223173e+38
2.0932698 -0.83076268 0.96252447 -2.2622462e+38
2.1042302 -0.83879143 0.96092165 -2.2888314e+38
2.104212 -0.84243906 0.96092165 -2.3153644e+38
2.1041939 -0.84608662 0.96092165 -2.3287616e+38
2.1041758 -0.84973419 0.96092165 -2.3421585e+38
2.1041577 -0.85338175 0.96092165 -2.3556589e+38
2.1141193 -0.86112654 0.95946443 -2.2893017e+38
2.1141012 -0.86479318 0.95946443 -2.2094448e+38
2.1041033 -0.86432445 0.96092165 -2.0087632e+38
2.1140647 -0.8721264 0.95946443 -1.8120938e+38
2.1140466 -0.87579304 0.95946443 -3.3880228e+38
2.1140282 -0.87945968 0.95946443 nan
2.1579187 -0.90165681 0.953053 nan
2.1688771 -0.91006088 0.95145017 nan
2.1688583 -0.91383225 0.95145017 nan
2.1826789 -0.54709631 0.94590735 nan
2.1826601 -0.55089051 0.94590735 -1.7281217e+38
2.1596687 -0.54911643 0.94930255 -2.1164021e+38
2.148663 -0.55018276 0.95092636 -2.502865e+38
2.1486447 -0.55391222 0.95092636 -2.436248e+38
2.1486261 -0.55764169 0.95092636 -2.3695258e+38
2.1376212 -0.55862427 0.95255017 -2.3295439e+38
2.1376028 -0.56233275 0.95255017 -2.3028031e+38
2.1375842 -0.56604129 0.95255017 -2.276166e+38
2.1375659 -0.56974983 0.95255017 -2.2628734e+38
2.1375475 -0.57345831 0.95255017 -2.2495287e+38
2.1375291 -0.57716686 0.95255017 -2.2361841e+38
2.1375108 -0.58087534 0.95255017 -2.2760086e+38
2.1374922 -0.58458388 0.95255017 -2.3025936e+38
2.1374738 -0.58829242 0.95255017 -2.3025419e+38
2.1374555 -0.5920009 0.95255017 -2.3025415e+38
2.1374371 -0.5957095 0.95255017 -2.2892486e+38
2.1264334 -0.59644061 0.95417398 -2.2759561e+38
2.126415 -0.60012817 0.95417398 -2.2759559e+38
2.1263967 -0.60381573 0.95417398 -2.2759038e+38
2.1263785 -0.60750329 0.95417398 -2.2760072e+38
2.1263602 -0.61119086 0.95417398 -2.2760589e+38
2.1263418 -0.61487848 0.95417398 -2.289351e+38
2.1263235 -0.61856604 0.95417398 -2.2892995e+38
2.1372898 -0.62537771 0.95255017 -2.3292806e+38
2.1372714 -0.6290862 0.95255017 -2.3559175e+38
2.137253 -0.63279474 0.95255017 -2.3958465e+38
2.1372344 -0.63650322 0.95255017 -2.4490683e+38
2.1372161 -0.64021176 0.95255017 -2.5022382e+38
2.1371977 -0.6439203 0.95255017 -2.5553528e+38
2.1371794 -0.64762884 0.95255017 -2.1682642e+38
2.1481447 -0.65460807 0.95092636 -1.7950056e+38
2.1481261 -0.65833759 0.95092636 -3.2251875e+38
2.1481078 -0.66206706 0.95092636 nan
2.1480892 -0.66579652 0.95092636 nan
2.1815112 -0.7823391 0.94590735 nan
2.1695137 -0.78183383 0.94767874 -1.7014816e+38
2.1694949 -0.78560519 0.94767874 -2.048998e+38
2.1584957 -0.78539348 0.94930255 -2.3952741e+38
2.1474967 -0.7851398 0.95092636 -2.3690027e+38
2.1474783 -0.78886932 0.95092636 -2.3423145e+38
2.1474597 -0.79259878 0.95092636 -2.3157299e+38
2.1364615 -0.79226136 0.95255017 -2.3023336e+38
2.1364429 -0.79596984 0.95255017 -2.288989e+38
2.1254449 -0.79556954 0.95417398 -2.2623004e+38
2.1254265 -0.79925716 0.95417398 -2.2356635e+38
2.1254082 -0.80294472 0.95417398 -2.1957868e+38
2.1144104 -0.80246061 0.95579779 -2.1693063e+38
2.1143923 -0.80612719 0.95579779 -2.1559619e+38
2.1143742 -0.80979383 0.95579779 -2.1559617e+38
2.1143558 -0.81346047 0.95579779 -2.1558575e+38
2.1043568 -0.81325847 0.95727396 -2.116032e+38
2.1043386 -0.81690603 0.95727396 -2.0762066e+38
2.1043205 -0.8205536 0.95727396 -2.1293232e+38
2.1043024 -0.82420111 0.95727396 -2.1824921e+38
2.1042843 -0.82784873 0.95727396 -2.1957842e+38
2.0932877 -0.82713604 0.95889783 -2.2223171e+38
2.0932698 -0.83076268 0.95889783 -2.2356093e+38
2.1042302 -0.83879143 0.95727396 -2.2621943e+38
2.104212 -0.84243906 0.95727396 -2.2887793e+38
2.1041939 -0.84608662 0.95727396 -2.315365e+38
2.1041758 -0.84973419 0.95727396 -2.328866e+38
2.1041577 -0.85338175 0.95727396 -2.3423147e+38
2.1041396 -0.85702938 0.95727396 -2.2759577e+38
2.1041214 -0.86067688 0.95727396 -2.2231e+38
2.1041033 -0.86432445 0.95727396 -1.9955212e+38
2.1140647 -0.8721264 0.95579779 -1.769568e+38
2.1140466 -0.87579304 0.95579779 -3.3992377e+38
2.1140282 -0.87945968 0.95579779 nan
2.1359644 -0.8923915 0.95255017 nan
2.1469228 -0.90075368 0.95092636 nan
2.1469045 -0.90448314 0.95092636 nan
2.193666 -0.54971755 0.94046831 nan
2.1826601 -0.55089051 0.94211304 -1.7295239e+38
2.1706555 -0.55177957 0.94390732 -2.1304753e+38
2.148663 -0.55018276 0.94719684 -2.5161065e+38
2.1486447 -0.55391222 0.94719684 -2.4362484e+38
2.1486261 -0.55764169 0.94719684 -2.3562337e+38
2.1376212 -0.55862427 0.94884157 -2.3294919e+38
2.1376028 -0.56233275 0.94884157 -2.2895626e+38
2.1375842 -0.56604129 0.94884157 -2.276218e+38
2.1375659 -0.56974983 0.94884157 -2.2628734e+38
2.1375475 -0.57345831 0.94884157 -2.2495807e+38
2.1375291 -0.57716686 0.94884157 -2.2361843e+38
2.1375108 -0.58087534 0.94884157 -2.2759569e+38
2.1374922 -0.58458388 0.94884157 -2.315782e+38
2.1374738 -0.58829242 0.94884157 -2.302334e+38
2.1374555 -0.5920009 0.94884157 -2.275905e+38
2.1374371 -0.5957095 0.94884157 -2.2759048e+38
2.1264334 -0.59644061 0.95048636 -2.2626642e+38
2.126415 -0.60012817 0.95048636 -2.2626642e+38
2.1263967 -0.60381573 0.95048636 -2.2493716e+38
2.1263785 -0.60750329 0.95048636 -2.2494233e+38
2.1263602 -0.61119086 0.95048636 -2.2494748e+38
2.1263418 -0.61487848 0.95048636 -2.2494746e+38
2.1263235 -0.61856604 0.95048636 -2.2495269e+38
2.1372898 -0.62537771 0.94884157 -2.3027484e+38
2.1372714 -0.6290862 0.94884157 -2.3559181e+38
2.137253 -0.63279474 0.94884157 -2.4091397e+38
2.1372344 -0.63650322 0.94884157 -2.4490693e+38
2.1372161 -0.64021176 0.94884157 -2.5154798e+38
2.1371977 -0.6439203 0.94884157 -2.568594e+38
2.1481633 -0.65087861 0.94719684 -2.18244e+38
2.1481447 -0.65460807 0.94719684 -1.7980184e+38
2.1481261 -0.65833759 0.94719684 -3.1343758e+38
2.1590915 -0.6653797 0.94555211 nan
2.1590729 -0.66913021 0.94555211 nan
2.1814923 -0.78613329 0.94211304 -1.7028308e+38
2.1814735 -0.7899276 0.94211304 -2.0892914e+38
2.1694763 -0.78937662 0.94390732 -2.4751322e+38
2.1584771 -0.78914392 0.94555211 -2.4091395e+38
2.1474783 -0.78886932 0.94719684 -2.329126e+38
2.1474597 -0.79259878 0.94719684 -2.3290222e+38
2.1364615 -0.79226136 0.94884157 -2.3289182e+38
2.1364429 -0.79596984 0.94884157 -2.3155216e+38
2.1364245 -0.79967839 0.94884157 -2.2888849e+38
2.1364062 -0.80338693 0.94884157 -2.248904e+38
2.1254082 -0.80294472 0.95048636 -2.2091308e+38
2.1253901 -0.80663228 0.95048636 -2.1562213e+38
2.1143923 -0.80612719 0.95213115 -2.1028441e+38
2.1143742 -0.80979383 0.95213115 -2.1293764e+38
2.1143558 -0.81346047 0.95213115 -2.1559605e+38
2.1143377 -0.81712711 0.95213115 -2.102791e+38
2.1043386 -0.81690603 0.95362639 -2.0496217e+38
2.1043205 -0.8205536 0.95362639 -2.1160829e+38
2.1043024 -0.82420111 0.95362639 -2.1692001e+38
2.1042843 -0.82784873 0.95362639 -2.1957846e+38
2.0932877 -0.82713604 0.95527112 -2.2090252e+38
2.104248 -0.83514386 0.95362639 -2.2222138e+38
2.1042302 -0.83879143 0.95362639 -2.2356101e+38
2.104212 -0.84243906 0.95362639 -2.2753833e+38
2.1041939 -0.84608662 0.95362639 -2.3021243e+38
2.1041758 -0.84973419 0.95362639 -2.315521e+38
2.1041577 -0.85338175 0.95362639 -2.3289685e+38
2.1041396 -0.85702938 0.95362639 -2.2756949e+38
2.1041214 -0.86067688 0.95362639 -2.2221104e+38
2.1041033 -0.86432445 0.95362639 -1.9806686e+38
2.1040852 -0.86797202 0.95362639 -1.7315071e+38
2.1140466 -0.87579304 0.95213115 -3.4016781e+38
2.1140282 -0.87945968 0.95213115 nan
2.1359644 -0.8923915 0.94884157 nan
2.135946 -0.89610004 0.94884157 nan
2.1359274 -0.89980865 0.94884157 nan
2.1826601 -0.55089051 0.93831873 -1.7281221e+38
2.1596687 -0.54911643 0.94180161 -2.1297504e+38
2.148663 -0.55018276 0.94346732 -2.5429519e+38
2.1486447 -0.55391222 0.94346732 -2.4627812e+38
2.1486261 -0.55764169 0.94346732 -2.3826108e+38
2.1486075 -0.56137121 0.94346732 -2.3560765e+38
2.1376028 -0.56233275 0.94513303 -2.3293875e+38
2.1375842 -0.56604129 0.94513303 -2.3028023e+38
2.1375659 -0.56974983 0.94513303 -2.2761137e+38
2.1375475 -0.57345831 0.94513303 -2.262821e+38
2.1375291 -0.57716686 0.94513303 -2.2627689e+38
2.1375108 -0.58087534 0.94513303 -2.2759571e+38
2.1374922 -0.58458388 0.94513303 -2.2891456e+38
2.1374738 -0.58829242 0.94513303 -2.2758531e+38
2.1374555 -0.5920009 0.94513303 -2.2759052e+38
2.1374371 -0.5957095 0.94513303 -2.2626129e+38
2.1264334 -0.59644061 0.94679874 -2.2626129e+38
2.126415 -0.60012817 0.94679874 -2.2626646e+38
2.1263967 -0.60381573 0.94679874 -2.2494241e+38
2.1263785 -0.60750329 0.94679874 -2.2494756e+38
2.1263602 -0.61119086 0.94679874 -2.2627677e+38
2.1263418 -0.61487848 0.94679874 -2.2761115e+38
2.1263235 -0.61856604 0.94679874 -2.2894561e+38
2.1372898 -0.62537771 0.94513303 -2.3293331e+38
2.1372714 -0.6290862 0.94513303 -2.369211e+38
2.137253 -0.63279474 0.94513303 -2.4091406e+38
2.1372344 -0.63650322 0.94513303 -2.43583e+38
2.1372161 -0.64021176 0.94513303 -2.4624675e+38
2.1371977 -0.6439203 0.94513303 -2.4761721e+38
2.1481633 -0.65087861 0.94346732 -2.1151484e+38
2.1481447 -0.65460807 0.94346732 -1.7549752e+38
2.1481261 -0.65833759 0.94346732 -3.2656385e+38
2.1590915 -0.6653797 0.94180161 nan
2.1590729 -0.66913021 0.94180161 nan
2.1700377 -0.67623514 0.9401359 nan
2.1924727 -0.79007459 0.93665302 -1.7147203e+38
2.1814735 -0.7899276 0.93831873 -2.088877e+38
2.1584957 -0.78539348 0.94180161 -2.4750292e+38
2.1474967 -0.7851398 0.94346732 -2.4222243e+38
2.1474783 -0.78886932 0.94346732 -2.3688992e+38
2.1474597 -0.79259878 0.94346732 -2.3423145e+38
2.1364615 -0.79226136 0.94513303 -2.3156259e+38
2.1364429 -0.79596984 0.94513303 -2.3022293e+38
2.1254449 -0.79556954 0.94679874 -2.2888849e+38
2.1254265 -0.79925716 0.94679874 -2.2622482e+38
2.1254082 -0.80294472 0.94679874 -2.2223712e+38
2.1253901 -0.80663228 0.94679874 -2.1825978e+38
2.1253717 -0.81031984 0.94679874 -2.1426684e+38
2.1143742 -0.80979383 0.94846445 -2.1427197e+38
2.1143558 -0.81346047 0.94846445 -2.1560118e+38
2.1143377 -0.81712711 0.94846445 -2.1161346e+38
2.1043386 -0.81690603 0.94997871 -2.0894981e+38
2.1043205 -0.8205536 0.94997871 -2.1293749e+38
2.1043024 -0.82420111 0.94997871 -2.1692001e+38
2.1042843 -0.82784873 0.94997871 -2.1692003e+38
2.1042662 -0.8314963 0.94997871 -2.1691487e+38
2.104248 -0.83514386 0.94997871 -2.1824414e+38
2.1042302 -0.83879143 0.94997871 -2.1958376e+38
2.104212 -0.84243906 0.94997871 -2.2357144e+38
2.1041939 -0.84608662 0.94997871 -2.2756953e+38
2.1041758 -0.84973419 0.94997871 -2.2890395e+38
2.1041577 -0.85338175 0.94997871 -2.315778e+38
2.1041396 -0.85702938 0.94997871 -2.1960937e+38
2.1041214 -0.86067688 0.94997871 -2.0766711e+38
2.1041033 -0.86432445 0.94997871 -1.9017428e+38
2.1040852 -0.86797202 0.94997871 -1.7281307e+38
2.1140466 -0.87579304 0.94846445 -3.39903e+38
2.1140282 -0.87945968 0.94846445 nan
2.1249874 -0.88775891 0.94679874 nan
2.1826601 -0.55089051 0.93452448 -1.7291069e+38
2.1706555 -0.55177957 0.93636447 -2.1440255e+38
2.1596498 -0.55286682 0.9380511 -2.5560341e+38
2.1596313 -0.55661726 0.9380511 -2.4893127e+38
2.1486261 -0.55764169 0.9397378 -2.4093503e+38
2.1486075 -0.56137121 0.9397378 -2.3827647e+38
2.1376028 -0.56233275 0.94142449 -2.3560238e+38
2.1375842 -0.56604129 0.94142449 -2.3294386e+38
2.1375659 -0.56974983 0.94142449 -2.2894575e+38
2.1375475 -0.57345831 0.94142449 -2.2894054e+38
2.1375291 -0.57716686 0.94142449 -2.2760608e+38
2.1375108 -0.58087534 0.94142449 -2.2626644e+38
2.1374922 -0.58458388 0.94142449 -2.2493722e+38
2.1374738 -0.58829242 0.94142449 -2.2626646e+38
2.1374555 -0.5920009 0.94142449 -2.2626648e+38
2.1264517 -0.59275299 0.94311112 -2.2626651e+38
2.1264334 -0.59644061 0.94311112 -2.262717e+38
2.126415 -0.60012817 0.94311112 -2.262717e+38
2.1263967 -0.60381573 0.94311112 -2.2494764e+38
2.1263785 -0.60750329 0.94311112 -2.2628204e+38
2.1263602 -0.61119086 0.94311112 -2.26282e+38
2.1263418 -0.61487848 0.94311112 -2.3026966e+38
2.1373081 -0.62166911 0.94142449 -2.3292814e+38
2.1372898 -0.62537771 0.94142449 -2.3558662e+38
2.1372714 -0.6290862 0.94142449 -2.3824515e+38
2.137253 -0.63279474 0.94142449 -2.4090371e+38
2.1372344 -0.63650322 0.94142449 -2.4224347e+38
2.1372161 -0.64021176 0.94142449 -2.408988e+38
2.1371977 -0.6439203 0.94142449 -2.381984e+38
2.1481633 -0.65087861 0.9397378 -2.047077e+38
2.1481447 -0.65460807 0.9397378 -1.7178505e+38
2.1481261 -0.65833759 0.9397378 nan
2.1481078 -0.66206706 0.9397378 nan
2.1590729 -0.66913021 0.9380511 nan
2.2044709 -0.79053605 0.93099779 nan
2.1814923 -0.78613329 0.93452448 -1.7162294e+38
2.1814735 -0.7899276 0.93452448 -2.0896579e+38
2.1584957 -0.78539348 0.9380511 -2.4621531e+38
2.1474967 -0.7851398 0.9397378 -2.4357762e+38
2.1474783 -0.78886932 0.9397378 -2.3956396e+38
2.1474597 -0.79259878 0.9397378 -2.3423145e+38
2.1364615 -0.79226136 0.94142449 -2.2890411e+38
2.1364429 -0.79596984 0.94142449 -2.2888332e+38
2.1364245 -0.79967839 0.94142449 -2.2888849e+38
2.1364062 -0.80338693 0.94142449 -2.2621963e+38
2.1254082 -0.80294472 0.94311112 -2.2356633e+38
2.1253901 -0.80663228 0.94311112 -2.2091304e+38
2.1253717 -0.81031984 0.94311112 -2.169253e+38
2.1253533 -0.8140074 0.94311112 -2.1693043e+38
2.1143558 -0.81346047 0.94479781 -2.1560118e+38
2.1143377 -0.81712711 0.94479781 -2.1427191e+38
2.1043386 -0.81690603 0.94633114 -2.1161346e+38
2.1043205 -0.8205536 0.94633114 -2.1427193e+38
2.1043024 -0.82420111 0.94633114 -2.155908e+38
2.1042843 -0.82784873 0.94633114 -2.142564e+38
2.1042662 -0.8314963 0.94633114 -2.129324e+38
2.104248 -0.83514386 0.94633114 -2.1426167e+38
2.1042302 -0.83879143 0.94633114 -2.1559611e+38
2.104212 -0.84243906 0.94633114 -2.1958903e+38
2.1041939 -0.84608662 0.94633114 -2.2358191e+38
2.1041758 -0.84973419 0.94633114 -2.2757997e+38
2.1041577 -0.85338175 0.94633114 -2.3024873e+38
2.1041396 -0.85702938 0.94633114 -2.1162388e+38
2.1041214 -0.86067688 0.94633114 -1.9163883e+38
2.1041033 -0.86432445 0.94633114 -1.821474e+38
2.1140647 -0.8721264 0.94479781 -1.7181639e+38
2.1140466 -0.87579304 0.94479781 nan
2.1250055 -0.88407135 0.94311112 nan
2.1359644 -0.8923915 0.94142449 nan
2.135946 -0.89610004 0.94142449 nan
2.1826601 -0.55089051 0.93073022 -1.7281187e+38
2.1706555 -0.55177957 0.93259305 -2.1562238e+38
2.1596498 -0.55286682 0.93430066 -2.5825124e+38
2.1486447 -0.55391222 0.93600827 -2.5025518e+38
2.1486261 -0.55764169 0.93600827 -2.4225898e+38
2.1486075 -0.56137121 0.93600827 -2.3959527e+38
2.1376028 -0.56233275 0.93771589 -2.3559714e+38
2.1375842 -0.56604129 0.93771589 -2.3293863e+38
2.1375659 -0.56974983 0.93771589 -2.3159899e+38
2.1375475 -0.57345831 0.93771589 -2.3026973e+38
2.1375291 -0.57716686 0.93771589 -2.3025932e+38
2.1375108 -0.58087534 0.93771589 -2.2893005e+38
2.1374922 -0.58458388 0.93771589 -2.2893007e+38
2.1374738 -0.58829242 0.93771589 -2.2893009e+38
2.1374555 -0.5920009 0.93771589 -2.2893013e+38
2.1374371 -0.5957095 0.93771589 -2.2760095e+38
2.1264334 -0.59644061 0.9394235 -2.2627691e+38
2.126415 -0.60012817 0.9394235 -2.2495287e+38
2.1373818 -0.60683501 0.93771589 -2.2495287e+38
2.1373634 -0.61054361 0.93771589 -2.262821e+38
2.1373451 -0.61425209 0.93771589 -2.2628206e+38
2.1373265 -0.61796063 0.93771589 -2.2894048e+38
2.1373081 -0.62166911 0.93771589 -2.3159895e+38
2.1372898 -0.62537771 0.93771589 -2.3425741e+38
2.1372714 -0.6290862 0.93771589 -2.3824e+38
2.137253 -0.63279474 0.93771589 -2.3958489e+38
2.1372344 -0.63650322 0.93771589 -2.4225391e+38
2.1372161 -0.64021176 0.93771589 -2.4093006e+38
2.1371977 -0.6439203 0.93771589 -2.3963671e+38
2.1481633 -0.65087861 0.93600827 -2.0614591e+38
2.1481447 -0.65460807 0.93600827 -1.7148394e+38
2.1481261 -0.65833759 0.93600827 nan
2.1481078 -0.66206706 0.93600827 nan
2.1590729 -0.66913021 0.93430066 nan
2.1814923 -0.78613329 0.93073022 -1.7148309e+38
2.1814735 -0.7899276 0.93073022 -2.0891405e+38
2.1694763 -0.78937662 0.93259305 -2.4627253e+38
2.1584771 -0.78914392 0.93430066 -2.4092434e+38
2.1474783 -0.78886932 0.93600827 -2.3690548e+38
2.1474597 -0.79259878 0.93600827 -2.3157816e+38
2.1364615 -0.79226136 0.93771589 -2.2491643e+38
2.1364429 -0.79596984 0.93771589 -2.24906e+38
2.1364245 -0.79967839 0.93771589 -2.2357675e+38
2.1364062 -0.80338693 0.93771589 -2.2356116e+38
2.1363878 -0.80709547 0.93771589 -2.2355594e+38
2.1363695 -0.81080395 0.93771589 -2.2090783e+38
2.1253717 -0.81031984 0.9394235 -2.1825453e+38
2.1253533 -0.8140074 0.9394235 -2.1692524e+38
2.1143558 -0.81346047 0.94113111 -2.1559599e+38
2.1143377 -0.81712711 0.94113111 -2.1427191e+38
2.1043386 -0.81690603 0.94268352 -2.1427193e+38
2.1043205 -0.8205536 0.94268352 -2.1559597e+38
2.1043024 -0.82420111 0.94268352 -2.1691485e+38
2.1042843 -0.82784873 0.94268352 -2.1558565e+38
2.1042662 -0.8314963 0.94268352 -2.1559088e+38
2.104248 -0.83514386 0.94268352 -2.1692534e+38
2.1042302 -0.83879143 0.94268352 -2.1825463e+38
2.104212 -0.84243906 0.94268352 -2.2091832e+38
2.1041939 -0.84608662 0.94268352 -2.2491119e+38
2.1041758 -0.84973419 0.94268352 -2.26256e+38
2.1041577 -0.85338175 0.94268352 -2.2893524e+38
2.1041396 -0.85702938 0.94268352 -2.1163972e+38
2.1041214 -0.86067688 0.94268352 -1.9568915e+38
2.1041033 -0.86432445 0.94268352 -1.835653e+38
2.1140647 -0.8721264 0.94113111 -1.7287065e+38
2.1140466 -0.87579304 0.94113111 nan
2.1250055 -0.88407135 0.9394235 nan
2.1359644 -0.8923915 0.93771589 nan
2.135946 -0.89610004 0.93771589 nan
2.1826601 -0.55089051 0.92693591 -1.7158132e+38
2.1706555 -0.55177957 0.92882156 -2.1570026e+38
2.1596498 -0.55286682 0.93055022 -2.5956485e+38
2.1596313 -0.55661726 0.93055022 -2.5157396e+38
2.1486261 -0.55764169 0.93227875 -2.4358298e+38
2.1486075 -0.56137121 0.93227875 -2.3958489e+38
2.1376028 -0.56233275 0.93400729 -2.3559712e+38
2.1375842 -0.56604129 0.93400729 -2.3426783e+38
2.1375659 -0.56974983 0.93400729 -2.3293339e+38
2.1375475 -0.57345831 0.93400729 -2.3292818e+38
2.1375291 -0.57716686 0.93400729 -2.3159893e+38
2.1375108 -0.58087534 0.93400729 -2.3159891e+38
2.1374922 -0.58458388 0.93400729 -2.3159374e+38
2.1374738 -0.58829242 0.93400729 -2.3159895e+38
2.1264699 -0.58906543 0.93573588 -2.3025936e+38
2.1264517 -0.59275299 0.93573588 -2.2760091e+38
2.1264334 -0.59644061 0.93573588 -2.2494768e+38
2.126415 -0.60012817 0.93573588 -2.2495811e+38
2.1263967 -0.60381573 0.93573588 -2.2495811e+38
2.1263785 -0.60750329 0.93573588 -2.2628734e+38
2.1373451 -0.61425209 0.93400729 -2.2628731e+38
2.1373265 -0.61796063 0.93400729 -2.2761652e+38
2.1373081 -0.62166911 0.93400729 -2.2894575e+38
2.1372898 -0.62537771 0.93400729 -2.3292822e+38
2.1372714 -0.6290862 0.93400729 -2.3692639e+38
2.137253 -0.63279474 0.93400729 -2.3960053e+38
2.1372344 -0.63650322 0.93400729 -2.4093509e+38
2.1372161 -0.64021176 0.93400729 -2.4093523e+38
2.1371977 -0.6439203 0.93400729 -2.4086728e+38
2.1481633 -0.65087861 0.93227875 -2.0608883e+38
2.1481447 -0.65460807 0.93227875 -1.718215e+38
2.1481261 -0.65833759 0.93227875 nan
2.1481078 -0.66206706 0.93227875 nan
2.1480892 -0.66579652 0.93227875 nan
2.1814923 -0.78613329 0.92693591 -1.7164405e+38
2.1814735 -0.7899276 0.92693591 -2.0893472e+38
2.1584957 -0.78539348 0.93055022 -2.4488612e+38
2.1584771 -0.78914392 0.93055022 -2.3958992e+38
2.1474783 -0.78886932 0.93227875 -2.3425224e+38
2.1474597 -0.79259878 0.93227875 -2.2760088e+38
2.1364615 -0.79226136 0.93400729 -2.2093911e+38
2.1364429 -0.79596984 0.93400729 -2.1959426e+38
2.1364245 -0.79967839 0.93400729 -2.1825461e+38
2.1364062 -0.80338693 0.93400729 -2.2089745e+38
2.1363878 -0.80709547 0.93400729 -2.2356108e+38
2.1363695 -0.81080395 0.93400729 -2.2223185e+38
2.1253717 -0.81031984 0.93573588 -2.1957854e+38
2.1253533 -0.8140074 0.93573588 -2.1692007e+38
2.1143558 -0.81346047 0.93746448 -2.1427195e+38
2.1143377 -0.81712711 0.93746448 -2.1560114e+38
2.1143196 -0.82079369 0.93746448 -2.1692516e+38
2.1043205 -0.8205536 0.93903589 -2.1691477e+38
2.1043024 -0.82420111 0.93903589 -2.1690962e+38
2.1042843 -0.82784873 0.93903589 -2.1690968e+38
2.1042662 -0.8314963 0.93903589 -2.1692013e+38
2.104248 -0.83514386 0.93903589 -2.1825459e+38
2.1042302 -0.83879143 0.93903589 -2.1958388e+38
2.104212 -0.84243906 0.93903589 -2.235716e+38
2.1041939 -0.84608662 0.93903589 -2.2625085e+38
2.1041758 -0.84973419 0.93903589 -2.2626123e+38
2.1041577 -0.85338175 0.93903589 -2.2627162e+38
2.1041396 -0.85702938 0.93903589 -2.1296376e+38
2.1141012 -0.86479318 0.93746448 -1.9831649e+38
2.1140828 -0.86845976 0.93746448 -1.8621864e+38
2.1140647 -0.8721264 0.93746448 -1.7448549e+38
2.1250238 -0.88038379 0.93573588 nan
2.1250055 -0.88407135 0.93573588 nan
2.1359644 -0.8923915 0.93400729 nan
2.135946 -0.89610004 0.93400729 nan
2.1826789 -0.54709631 0.9231416 -3.3930295e+38
2.1826601 -0.55089051 0.9231416 -1.7148268e+38
2.1706555 -0.55177957 0.92505014 -2.1428274e+38
2.1596498 -0.55286682 0.92679971 -2.5691154e+38
2.1596313 -0.55661726 0.92679971 -2.4892062e+38
2.1486261 -0.55764169 0.92854923 -2.4091929e+38
2.1486075 -0.56137121 0.92854923 -2.369316e+38
2.1485891 -0.56510067 0.92854923 -2.342679e+38
2.1375842 -0.56604129 0.93029875 -2.3426781e+38
2.1375659 -0.56974983 0.93029875 -2.3426262e+38
2.1375475 -0.57345831 0.93029875 -2.3160415e+38
2.1375291 -0.57716686 0.93029875 -2.3026973e+38
2.1375108 -0.58087534 0.93029875 -2.3159374e+38
2.1265066 -0.58169025 0.93204826 -2.3158857e+38
2.1264882 -0.58537787 0.93204826 -2.3025936e+38
2.1264699 -0.58906543 0.93204826 -2.2892492e+38
2.1154661 -0.58979654 0.93379784 -2.2760086e+38
2.1264334 -0.59644061 0.93204826 -2.2627691e+38
2.126415 -0.60012817 0.93204826 -2.2628736e+38
2.1263967 -0.60381573 0.93204826 -2.2628736e+38
2.1263785 -0.60750329 0.93204826 -2.2761658e+38
2.1373451 -0.61425209 0.93029875 -2.276166e+38
2.1373265 -0.61796063 0.93029875 -2.3028025e+38
2.1373081 -0.62166911 0.93029875 -2.3161465e+38
2.1372898 -0.62537771 0.93029875 -2.3294384e+38
2.1372714 -0.6290862 0.93029875 -2.3561278e+38
2.137253 -0.63279474 0.93029875 -2.369525e+38
2.1372344 -0.63650322 0.93029875 -2.3962144e+38
2.1372161 -0.64021176 0.93029875 -2.3960596e+38
2.1481817 -0.64714915 0.92854923 -2.4091402e+38
2.1481633 -0.65087861 0.92854923 -2.0879406e+38
2.1481447 -0.65460807 0.92854923 -1.781458e+38
2.1371424 -0.65504587 0.93029875 nan
2.1371241 -0.65875441 0.93029875 nan
2.1371057 -0.66246295 0.93029875 nan
2.1814923 -0.78613329 0.9231416 -1.7281234e+38
2.1814735 -0.7899276 0.9231416 -2.0358134e+38
2.1584957 -0.78539348 0.92679971 -2.3556589e+38
2.1584771 -0.78914392 0.92679971 -2.3425743e+38
2.1474783 -0.78886932 0.92854923 -2.3291262e+38
2.1474597 -0.79259878 0.92854923 -2.2759571e+38
2.1364615 -0.79226136 0.93029875 -2.2226834e+38
2.1364429 -0.79596984 0.93029875 -2.1959941e+38
2.1364245 -0.79967839 0.93029875 -2.1825457e+38
2.1364062 -0.80338693 0.93029875 -2.1958374e+38
2.1363878 -0.80709547 0.93029875 -2.1958374e+38
2.1363695 -0.81080395 0.93029875 -2.1957854e+38
2.1253717 -0.81031984 0.93204826 -2.1824412e+38
2.1253533 -0.8140074 0.93204826 -2.1826487e+38
2.125335 -0.81769502 0.93204826 -2.1695118e+38
2.1253169 -0.82138258 0.93204826 -2.1825439e+38
2.1143196 -0.82079369 0.93379784 -2.1957321e+38
2.1143012 -0.82446033 0.93379784 -2.1823875e+38
2.1043024 -0.82420111 0.93538827 -2.1689922e+38
2.1042843 -0.82784873 0.93538827 -2.1690968e+38
2.1042662 -0.8314963 0.93538827 -2.1691494e+38
2.104248 -0.83514386 0.93538827 -2.1825461e+38
2.1042302 -0.83879143 0.93538827 -2.2091313e+38
2.104212 -0.84243906 0.93538827 -2.2225797e+38
2.1041939 -0.84608662 0.93538827 -2.2493202e+38
2.1041758 -0.84973419 0.93538827 -2.2627685e+38
2.1141374 -0.8574599 0.93379784 -2.2762163e+38
2.1141193 -0.86112654 0.93379784 -2.1166049e+38
2.1141012 -0.86479318 0.93379784 -1.9705481e+38
2.1140828 -0.86845976 0.93379784 -1.8621353e+38
2.1140647 -0.8721264 0.93379784 -1.7680128e+38
2.1250238 -0.88038379 0.93204826 nan
2.1250055 -0.88407135 0.93204826 nan
2.1359644 -0.8923915 0.93029875 nan
2.135946 -0.89610004 0.93029875 nan
2.1826789 -0.54709631 0.91934729 -3.3899123e+38
2.1826601 -0.55089051 0.91934729 -1.7157618e+38
2.1706555 -0.55177957 0.92127872 -2.1302647e+38
2.1596498 -0.55286682 0.92304921 -2.5424808e+38
2.1596313 -0.55661726 0.92304921 -2.4627267e+38
2.1596127 -0.5603677 0.92304921 -2.3827649e+38
2.1486075 -0.56137121 0.92481971 -2.3561801e+38
2.1376028 -0.56233275 0.9265902 -2.3161467e+38
2.1485705 -0.56883013 0.92481971 -2.3293865e+38
2.1375659 -0.56974983 0.9265902 -2.3426266e+38
2.1375475 -0.57345831 0.9265902 -2.316094e+38
