# .PCD v0.7 - Point Cloud Data file format
VERSION 0.7
FIELDS x y z rgb
SIZE 4 4 4 4
TYPE F F F F
COUNT 1 1 1 1
WIDTH 1077
HEIGHT 1
VIEWPOINT 0 0 0 1 0 0 0
POINTS 1077
DATA ascii
-0.96728766 -0.57265145 2.2520001 -2.3686323e+38
-0.96299815 -0.57265145 2.2520001 -2.3686842e+38
-0.9523229 -0.56883717 2.237 -2.3686325e+38
-0.94806194 -0.56883717 2.237 -2.3686327e+38
-0.95012957 -0.57265145 2.2520001 -2.3952177e+38
-0.93954009 -0.56883717 2.237 -2.4218023e+38
-0.94155055 -0.57265145 2.2520001 -2.3952177e+38
-0.93726099 -0.57265145 2.2520001 -2.3552889e+38
-0.93297148 -0.57265145 2.2520001 -2.3419967e+38
-0.91672289 -0.56527716 2.223 -2.3287561e+38
-0.9182353 -0.56883717 2.237 -2.3288078e+38
-0.91397434 -0.56883717 2.237 -2.3153588e+38
-0.90971339 -0.56883717 2.237 -2.0890255e+38
-0.89978576 -0.56527716 2.223 -1.8634253e+38
-0.8955515 -0.56527716 2.223 -2.4632966e+38
-0.8853029 -0.56146288 2.2080002 -3.0490408e+38
-0.8810972 -0.56146288 2.2080002 -2.9031387e+38
-0.87689149 -0.56146288 2.2080002 -2.742699e+38
-0.87268579 -0.56146288 2.2080002 -3.0097932e+38
-0.86848009 -0.56146288 2.2080002 -3.2630764e+38
-0.86427432 -0.56146288 2.2080002 -3.222995e+38
-0.86591148 -0.56527716 2.223 -3.1699806e+38
-0.85586292 -0.56146288 2.2080002 -3.1031545e+38
-0.85165721 -0.56146288 2.2080002 -3.0231406e+38
-0.8532086 -0.56527716 2.223 -2.9699707e+38
-0.84897435 -0.56527716 2.223 -2.9035606e+38
-0.84474003 -0.56527716 2.223 -2.9034559e+38
-0.83483434 -0.56146288 2.2080002 -2.8901115e+38
-0.83062863 -0.56146288 2.2080002 -2.8634748e+38
-0.82642293 -0.56146288 2.2080002 -2.8374109e+38
-0.82221723 -0.56146288 2.2080002 -2.8641006e+38
-0.81801146 -0.56146288 2.2080002 -2.8908419e+38
-0.81933433 -0.56527716 2.223 -2.8776545e+38
-0.8202334 -0.56883717 2.237 -2.850861e+38
-0.81597245 -0.56883717 2.237 -2.7438987e+38
-0.81171149 -0.56883717 2.237 -2.6242158e+38
-0.80745053 -0.56883717 2.237 -2.6631577e+38
-0.80318958 -0.56883717 2.237 -2.690313e+38
-0.79892862 -0.56883717 2.237 -2.609936e+38
-0.79466766 -0.56883717 2.237 -2.5170464e+38
-0.78546005 -0.56527716 2.223 -2.5032357e+38
-0.79141718 -0.57265145 2.2520001 -2.490255e+38
-0.78188479 -0.56883717 2.237 -2.5962819e+38
-0.78283817 -0.57265145 2.2520001 -2.7033452e+38
-0.7785486 -0.57265145 2.2520001 -2.7558896e+38
-0.77425909 -0.57265145 2.2520001 -2.7961299e+38
-0.76996958 -0.57265145 2.2520001 -2.7828375e+38
-0.76568007 -0.57265145 2.2520001 -2.7695973e+38
-0.76139051 -0.57265145 2.2520001 -2.8095265e+38
-0.757101 -0.57265145 2.2520001 -2.8495082e+38
-0.75281149 -0.57265145 2.2520001 -2.8627498e+38
-0.74852198 -0.57265145 2.2520001 -2.8763006e+38
-0.74423242 -0.57265145 2.2520001 -2.9560016e+38
-0.73994291 -0.57265145 2.2520001 -3.035911e+38
-0.7356534 -0.57265145 2.2520001 -3.0489956e+38
-0.73136383 -0.57265145 2.2520001 -3.0624435e+38
-0.72707433 -0.57265145 2.2520001 -3.0359623e+38
-0.72727811 -0.57621145 2.266 -2.996294e+38
-0.72296196 -0.57621145 2.266 -3.0100025e+38
-0.71864575 -0.57621145 2.266 -3.0232445e+38
-0.71905816 -0.58002573 2.2810001 -3.1168634e+38
-0.71471339 -0.58002573 2.2810001 -3.1964623e+38
-0.71036863 -0.58002573 2.2810001 -3.249944e+38
-0.71097624 -0.58409435 2.2970002 -3.2899764e+38
-0.70660102 -0.58409435 2.2970002 -3.2635476e+38
-0.70681149 -0.58790863 2.312 -3.2238271e+38
-0.70240766 -0.58790863 2.312 -3.2908086e+38
-0.70253241 -0.59172291 2.3270001 -3.3573223e+38
-0.70290005 -0.59579146 2.3430002 -3.3706671e+38
-0.70320672 -0.59986001 2.3590002 -3.3701457e+38
-0.70374864 -0.6041829 2.3760002 -3.1159286e+38
-0.69922292 -0.6041829 2.3760002 -2.8636326e+38
-0.69937527 -0.60825145 2.3920002 -2.8095786e+38
-0.69481909 -0.60825145 2.3920002 -2.7428566e+38
-0.69026291 -0.60825145 2.3920002 -2.6756151e+38
-0.68570673 -0.60825145 2.3920002 -2.5960138e+38
-0.67659432 -0.6041829 2.3760002 -2.582095e+38
-0.6720686 -0.6041829 2.3760002 -2.5684897e+38
-0.66754287 -0.6041829 2.3760002 -2.5285595e+38
-0.6582734 -0.59986001 2.3590002 -2.4885257e+38
-0.64934576 -0.59579146 2.3430002 -2.448544e+38
-0.64488292 -0.59579146 2.3430002 -2.3952187e+38
-0.64042002 -0.59579146 2.3430002 -2.3818739e+38
-0.63161433 -0.59172291 2.3270001 -2.3685295e+38
-0.63149434 -0.59579146 2.3430002 -2.3685812e+38
-0.63131338 -0.59986001 2.3590002 -2.3685293e+38
-0.63558859 -0.60825145 2.3920002 -2.3684776e+38
-0.63551718 -0.61257434 2.4090002 -2.3685814e+38
-0.63538098 -0.61689717 2.4260001 -2.3686333e+38
-0.64428002 -0.63012004 2.4780002 -2.3553926e+38
-0.64885145 -0.6392743 2.5140002 -2.3686847e+38
-0.64867431 -0.64385146 2.5320001 -2.3686845e+38
-0.64385146 -0.64385146 2.5320001 -2.3420997e+38
-0.64382386 -0.64868289 2.5510001 -2.3154634e+38
-0.64372385 -0.65351433 2.5700002 -2.3154636e+38
-0.64355147 -0.65834576 2.5890002 -2.3153596e+38
-0.63862002 -0.65834576 2.5890002 -2.3153594e+38
-0.63368863 -0.65834576 2.5890002 -2.3020152e+38
-1.0941267 -0.59536672 2.3590002 nan
-1.0896333 -0.59536672 2.3590002 -3.3245802e+38
-1.0777801 -0.59132862 2.3430002 -2.739874e+38
-1.0806468 -0.59536672 2.3590002 -2.1695558e+38
-1.0761534 -0.59536672 2.3590002 -2.3554956e+38
-1.07166 -0.59536672 2.3590002 -2.5285031e+38
-1.0599287 -0.59132862 2.3430002 -2.5018149e+38
-1.0554658 -0.59132862 2.3430002 -2.4751787e+38
-1.051003 -0.59132862 2.3430002 -2.4751269e+38
-1.0393934 -0.58729053 2.3270001 -2.461731e+38
-1.0282896 -0.5835048 2.312 -2.4617312e+38
-1.0172429 -0.57971907 2.2970002 -2.4617314e+38
-0.99919814 -0.5718953 2.266 -2.4484393e+38
-0.99488199 -0.5718953 2.266 -2.4351469e+38
-0.99056578 -0.5718953 2.266 -2.4085619e+38
-0.98624957 -0.5718953 2.266 -2.3953733e+38
-0.98193341 -0.5718953 2.266 -2.3820289e+38
-0.97157723 -0.56836194 2.2520001 -2.3687364e+38
-0.96728766 -0.56836194 2.2520001 -2.3686842e+38
-0.96299815 -0.56836194 2.2520001 -2.3686847e+38
-0.9523229 -0.56457621 2.237 -2.3819771e+38
-0.94806194 -0.56457621 2.237 -2.3952175e+38
-0.95012957 -0.56836194 2.2520001 -2.4085098e+38
-0.93954009 -0.56457621 2.237 -2.4218023e+38
-0.94155055 -0.56836194 2.2520001 -2.395166e+38
-0.93726099 -0.56836194 2.2520001 -2.3818735e+38
-0.92675722 -0.56457621 2.237 -2.368581e+38
-0.92249626 -0.56457621 2.237 -2.3552887e+38
-0.9182353 -0.56457621 2.237 -2.381925e+38
-0.91397434 -0.56457621 2.237 -2.4085092e+38
-0.90971339 -0.56457621 2.237 -2.3414243e+38
-0.89978576 -0.5610429 2.223 -2.2743972e+38
-0.8955515 -0.5610429 2.223 -2.7425402e+38
-0.89131719 -0.5610429 2.223 -3.2095366e+38
-0.88708293 -0.5610429 2.223 -3.0361151e+38
-0.88284862 -0.5610429 2.223 -2.8751543e+38
-0.87268579 -0.55725718 2.2080002 -3.0493562e+38
-0.86848009 -0.55725718 2.2080002 -3.2227814e+38
-0.8701458 -0.5610429 2.223 -3.156582e+38
-0.86591148 -0.5610429 2.223 -3.0895497e+38
-0.85043627 -0.55372387 2.194 -3.0631209e+38
-0.84625721 -0.55372387 2.194 -3.0363284e+38
-0.8532086 -0.5610429 2.223 -3.0764128e+38
-0.84897435 -0.5610429 2.223 -3.1294768e+38
-0.84474003 -0.5610429 2.223 -3.1429235e+38
-0.84050578 -0.5610429 2.223 -3.168677e+38
-0.83062863 -0.55725718 2.2080002 -3.1697153e+38
-0.82642293 -0.55725718 2.2080002 -3.1699252e+38
-0.82221723 -0.55725718 2.2080002 -3.1968755e+38
-0.81801146 -0.55725718 2.2080002 -3.2233057e+38
-0.81380576 -0.55725718 2.2080002 -3.1570532e+38
-0.81510007 -0.5610429 2.223 -3.0771409e+38
-0.81086576 -0.5610429 2.223 -2.9970726e+38
-0.81171149 -0.56457621 2.237 -2.9293633e+38
-0.80745053 -0.56457621 2.237 -2.9832056e+38
-0.80318958 -0.56457621 2.237 -3.0489402e+38
-0.79892862 -0.56457621 2.237 -3.062596e+38
-0.79466766 -0.56457621 2.237 -3.0745401e+38
-0.7904067 -0.56457621 2.237 -2.9958265e+38
-0.78614575 -0.56457621 2.237 -2.9150855e+38
-0.78188479 -0.56457621 2.237 -2.9961364e+38
-0.78283817 -0.56836194 2.2520001 -3.0618188e+38
-0.7785486 -0.56836194 2.2520001 -3.128955e+38
-0.77425909 -0.56836194 2.2520001 -3.1948983e+38
-0.76996958 -0.56836194 2.2520001 -3.129061e+38
-0.76568007 -0.56836194 2.2520001 -3.0487348e+38
-0.76139051 -0.56836194 2.2520001 -3.0226678e+38
-0.757101 -0.56836194 2.2520001 -2.995358e+38
-0.75281149 -0.56836194 2.2520001 -2.9961382e+38
-0.74852198 -0.56836194 2.2520001 -2.9957746e+38
-0.74423242 -0.56836194 2.2520001 -3.0228782e+38
-0.73994291 -0.56836194 2.2520001 -3.0623913e+38
-0.7356534 -0.56836194 2.2520001 -3.0627544e+38
-0.73136383 -0.56836194 2.2520001 -3.0759952e+38
-0.72707433 -0.56836194 2.2520001 -2.9828975e+38
-0.72278482 -0.56836194 2.2520001 -2.8900602e+38
-0.72296196 -0.5718953 2.266 -2.9034574e+38
-0.71864575 -0.5718953 2.266 -2.9302506e+38
-0.7143296 -0.5718953 2.266 -2.9566804e+38
-0.71471339 -0.57568097 2.2810001 -2.9965581e+38
-0.71036863 -0.57568097 2.2810001 -3.0100067e+38
-0.71097624 -0.57971907 2.2970002 -3.0371101e+38
-0.70660102 -0.57971907 2.2970002 -3.0635904e+38
-0.70681149 -0.5835048 2.312 -3.0902281e+38
-0.70240766 -0.5835048 2.312 -3.14371e+38
-0.70253241 -0.58729053 2.3270001 -3.1843665e+38
-0.70290005 -0.59132862 2.3430002 -3.3171863e+38
-0.70320672 -0.59536672 2.3590002 nan
-0.69871336 -0.59536672 2.3590002 -3.16982e+38
-0.69922292 -0.59965718 2.3760002 -2.8894872e+38
-0.6946972 -0.59965718 2.3760002 -2.8094731e+38
-0.69481909 -0.60369527 2.3920002 -2.7164268e+38
-0.69026291 -0.60369527 2.3920002 -2.6624784e+38
-0.68570673 -0.60369527 2.3920002 -2.608785e+38
-0.6811505 -0.60369527 2.3920002 -2.5819357e+38
-0.67659432 -0.60369527 2.3920002 -2.5683321e+38
-0.66754287 -0.59965718 2.3760002 -2.515267e+38
-0.66301721 -0.59965718 2.3760002 -2.4619411e+38
-0.65378004 -0.59536672 2.3590002 -2.4353036e+38
-0.64928669 -0.59536672 2.3590002 -2.4085629e+38
-0.64042002 -0.59132862 2.3430002 -2.3952181e+38
-0.63595718 -0.59132862 2.3430002 -2.381822e+38
-0.63149434 -0.59132862 2.3430002 -2.381822e+38
-0.63131338 -0.59536672 2.3590002 -2.3817181e+38
-0.63133717 -0.59965718 2.3760002 -2.3685297e+38
-0.63103241 -0.60369527 2.3920002 -2.3685814e+38
-0.63092864 -0.60798573 2.4090002 -2.3819252e+38
-0.63076001 -0.61227626 2.4260001 -2.3952173e+38
-0.64885145 -0.63448578 2.5140002 -2.4085613e+38
-0.64867431 -0.63902861 2.5320001 -2.4218536e+38
-0.64868289 -0.64382386 2.5510001 -2.4085613e+38
-0.64861912 -0.64861912 2.5700002 -2.3952173e+38
-0.64372385 -0.64861912 2.5700002 -2.3686327e+38
-0.64355147 -0.65341431 2.5890002 -2.3552366e+38
-0.63862002 -0.65341431 2.5890002 -2.3552883e+38
-0.63368863 -0.65341431 2.5890002 -2.3551845e+38
-1.1020114 -0.59513146 2.3760002 nan
-1.0974858 -0.59513146 2.3760002 nan
-1.0777801 -0.58686572 2.3430002 -3.0177151e+38
-1.0733172 -0.58686572 2.3430002 -1.7427474e+38
-1.0761534 -0.59087336 2.3590002 -2.1422435e+38
-1.07166 -0.59087336 2.3590002 -2.5413778e+38
-1.0599287 -0.58686572 2.3430002 -2.5151593e+38
-1.0554658 -0.58686572 2.3430002 -2.4751791e+38
-1.0438257 -0.58285815 2.3270001 -2.4751276e+38
-1.0393934 -0.58285815 2.3270001 -2.4751273e+38
-1.0282896 -0.57910097 2.312 -2.4751271e+38
-1.0101572 -0.57133621 2.2810001 -2.4617829e+38
-1.0058124 -0.57133621 2.2810001 -2.4484389e+38
-1.0014677 -0.57133621 2.2810001 -2.4218542e+38
-0.99712294 -0.57133621 2.2810001 -2.4085617e+38
-0.99277818 -0.57133621 2.2810001 -2.3953209e+38
-0.98193341 -0.56757909 2.266 -2.3820285e+38
-0.97157723 -0.56407243 2.2520001 -2.3687364e+38
-0.96728766 -0.56407243 2.2520001 -2.3687366e+38
-0.96299815 -0.56407243 2.2520001 -2.3686847e+38
-0.9523229 -0.56031525 2.237 -2.3952694e+38
-0.94806194 -0.56031525 2.237 -2.40851e+38
-0.95012957 -0.56407243 2.2520001 -2.4217505e+38
-0.93954009 -0.56031525 2.237 -2.4217507e+38
-0.94155055 -0.56407243 2.2520001 -2.4084067e+38
-0.93726099 -0.56407243 2.2520001 -2.3951143e+38
-0.92675722 -0.56031525 2.237 -2.3818218e+38
-0.92249626 -0.56031525 2.237 -2.3685812e+38
-0.9182353 -0.56031525 2.237 -2.4350943e+38
-0.91397434 -0.56031525 2.237 -2.4880545e+38
-0.90971339 -0.56031525 2.237 -2.5938206e+38
-0.89978576 -0.55680859 2.223 -2.6878085e+38
-0.8955515 -0.55680859 2.223 -3.0229266e+38
-0.89131719 -0.55680859 2.223 -3.355807e+38
-0.88708293 -0.55680859 2.223 -3.1831656e+38
-0.88284862 -0.55680859 2.223 -2.9963461e+38
-0.87861437 -0.55680859 2.223 -3.0897032e+38
-0.86848009 -0.55305147 2.2080002 -3.1832179e+38
-0.8701458 -0.55680859 2.223 -3.0910563e+38
-0.86591148 -0.55680859 2.223 -2.9973353e+38
-0.85586292 -0.55305147 2.2080002 -3.0235047e+38
-0.85165721 -0.55305147 2.2080002 -3.0368483e+38
-0.8532086 -0.55680859 2.223 -3.1965108e+38
-0.84324574 -0.55305147 2.2080002 -3.3428825e+38
-0.84474003 -0.55680859 2.223 -3.3965718e+38
-0.84050578 -0.55680859 2.223 nan
-0.83062863 -0.55305147 2.2080002 nan
-0.82642293 -0.55305147 2.2080002 nan
-0.82221723 -0.55305147 2.2080002 nan
-0.81801146 -0.55305147 2.2080002 nan
-0.81380576 -0.55305147 2.2080002 nan
-0.81510007 -0.55680859 2.223 -3.3038388e+38
-0.81086576 -0.55680859 2.223 -3.2644798e+38
-0.81171149 -0.56031525 2.237 -3.2240308e+38
-0.80745053 -0.56031525 2.237 -3.3179586e+38
-0.80318958 -0.56031525 2.237 -3.3968821e+38
-0.79892862 -0.56031525 2.237 nan
-0.79466766 -0.56031525 2.237 nan
-0.7904067 -0.56031525 2.237 nan
-0.79141718 -0.56407243 2.2520001 -3.3436635e+38
-0.78712767 -0.56407243 2.2520001 -3.3847344e+38
-0.78283817 -0.56407243 2.2520001 nan
-0.7785486 -0.56407243 2.2520001 nan
-0.77425909 -0.56407243 2.2520001 nan
-0.76996958 -0.56407243 2.2520001 nan
-0.76568007 -0.56407243 2.2520001 -3.3297989e+38
-0.76139051 -0.56407243 2.2520001 -3.2369598e+38
-0.757101 -0.56407243 2.2520001 -3.1436031e+38
-0.75281149 -0.56407243 2.2520001 -3.130727e+38
-0.74852198 -0.56407243 2.2520001 -3.1169668e+38
-0.74423242 -0.56407243 2.2520001 -3.1039857e+38
-0.73994291 -0.56407243 2.2520001 -3.0769859e+38
-0.7356534 -0.56407243 2.2520001 -3.0902265e+38
-0.73136383 -0.56407243 2.2520001 -3.089861e+38
-0.72707433 -0.56407243 2.2520001 -2.9294691e+38
-0.72278482 -0.56407243 2.2520001 -2.7705853e+38
-0.72296196 -0.56757909 2.266 -2.7968589e+38
-0.71864575 -0.56757909 2.266 -2.8231834e+38
-0.7143296 -0.56757909 2.266 -2.8095794e+38
-0.71471339 -0.57133621 2.2810001 -2.7964433e+38
-0.71036863 -0.57133621 2.2810001 -2.7830478e+38
-0.71097624 -0.57534385 2.2970002 -2.7702222e+38
-0.70660102 -0.57534385 2.2970002 -2.8633716e+38
-0.70681149 -0.57910097 2.312 -2.9564711e+38
-0.70240766 -0.57910097 2.312 -2.9827458e+38
-0.70253241 -0.58285815 2.3270001 -3.0102661e+38
-0.69810003 -0.58285815 2.3270001 -3.2765803e+38
-0.69843721 -0.58686572 2.3430002 nan
-0.69871336 -0.59087336 2.3590002 -3.223615e+38
-0.69922292 -0.59513146 2.3760002 -2.9165924e+38
-0.6946972 -0.59513146 2.3760002 -2.809006e+38
-0.69017148 -0.59513146 2.3760002 -2.6893207e+38
-0.69026291 -0.59913909 2.3920002 -2.6489738e+38
-0.68570673 -0.59913909 2.3920002 -2.608887e+38
-0.6811505 -0.59913909 2.3920002 -2.5817808e+38
-0.67659432 -0.59913909 2.3920002 -2.5552481e+38
-0.66754287 -0.59513146 2.3760002 -2.5021307e+38
-0.66301721 -0.59513146 2.3760002 -2.4354606e+38
-0.65849149 -0.59513146 2.3760002 -2.4220633e+38
-0.64928669 -0.59087336 2.3590002 -2.4086148e+38
-0.64479339 -0.59087336 2.3590002 -2.39527e+38
-0.63595718 -0.58686572 2.3430002 -2.381822e+38
-0.63580668 -0.59087336 2.3590002 -2.3817699e+38
-0.63586289 -0.59513146 2.3760002 -2.3818216e+38
-0.63558859 -0.59913909 2.3920002 -2.368581e+38
-0.63103241 -0.59913909 2.3920002 -2.3552885e+38
-0.63092864 -0.60339719 2.4090002 -2.3951654e+38
-0.62634003 -0.60339719 2.4090002 -2.4218538e+38
-0.64420575 -0.62518859 2.4960001 -2.4484383e+38
-0.64406288 -0.6296972 2.5140002 -2.4750229e+38
-0.64385146 -0.63420576 2.5320001 -2.4750748e+38
-0.64382386 -0.63896483 2.5510001 -2.4617304e+38
-0.64372385 -0.64372385 2.5700002 -2.4351459e+38
-0.64355147 -0.64848292 2.5890002 -2.3952171e+38
-0.63862002 -0.64848292 2.5890002 -2.4085611e+38
-0.63368863 -0.64848292 2.5890002 -2.4084053e+38
-0.62382573 -0.64848292 2.5890002 -2.3817688e+38
-1.0974858 -0.59060574 2.3760002 nan
-1.0777801 -0.58240288 2.3430002 nan
-1.0733172 -0.58240288 2.3430002 -3.0709353e+38
-1.0761534 -0.58638006 2.3590002 -2.60669e+38
-1.07166 -0.58638006 2.3590002 -2.1288997e+38
-1.0526905 -0.57842577 2.3270001 -2.3020675e+38
-1.0482582 -0.57842577 2.3270001 -2.4751793e+38
-1.0438257 -0.57842577 2.3270001 -2.4751799e+38
-1.0326934 -0.5746972 2.312 -2.4751273e+38
-1.0216181 -0.57096863 2.2970002 -2.4751267e+38
-1.0101572 -0.56699145 2.2810001 -2.4750229e+38
-1.0058124 -0.56699145 2.2810001 -2.4617825e+38
-1.0014677 -0.56699145 2.2810001 -2.4484903e+38
-0.99712294 -0.56699145 2.2810001 -2.4351978e+38
-0.98624957 -0.56326288 2.266 -2.4218532e+38
-0.98193341 -0.56326288 2.266 -2.4219047e+38
-0.97157723 -0.55978292 2.2520001 -2.4085611e+38
-0.96728766 -0.55978292 2.2520001 -2.4086136e+38
-0.96299815 -0.55978292 2.2520001 -2.4085098e+38
-0.9523229 -0.55605429 2.237 -2.4218021e+38
-0.94806194 -0.55605429 2.237 -2.4349909e+38
-0.94380099 -0.55605429 2.237 -2.4349913e+38
-0.93954009 -0.55605429 2.237 -2.4349396e+38
-0.94155055 -0.55978292 2.2520001 -2.4216992e+38
-0.93726099 -0.55978292 2.2520001 -2.3950627e+38
-0.93297148 -0.55978292 2.2520001 -2.3951664e+38
-0.92249626 -0.55605429 2.237 -2.3819258e+38
-0.9182353 -0.55605429 2.237 -2.4483349e+38
-0.91397434 -0.55605429 2.237 -2.5147425e+38
-0.90971339 -0.55605429 2.237 -2.5940788e+38
-0.89978576 -0.55257434 2.223 -2.6872897e+38
-0.8955515 -0.55257434 2.223 -2.9827405e+38
-0.89131719 -0.55257434 2.223 -3.2898164e+38
-0.88708293 -0.55257434 2.223 -3.1698258e+38
-0.88284862 -0.55257434 2.223 -3.0500901e+38
-0.87268579 -0.54884577 2.2080002 -3.103102e+38
-0.86848009 -0.54884577 2.2080002 -3.1565315e+38
-0.8701458 -0.55257434 2.223 -3.1039342e+38
-0.86591148 -0.55257434 2.223 -3.0377324e+38
-0.85586292 -0.54884577 2.2080002 -3.0640054e+38
-0.85165721 -0.54884577 2.2080002 -3.0771411e+38
-0.8532086 -0.55257434 2.223 -3.2100629e+38
-0.84324574 -0.54884577 2.2080002 -3.3299041e+38
-0.84474003 -0.55257434 2.223 -3.3703033e+38
-0.83483434 -0.54884577 2.2080002 nan
-0.83062863 -0.54884577 2.2080002 nan
-0.82642293 -0.54884577 2.2080002 nan
-0.82221723 -0.54884577 2.2080002 nan
-0.81801146 -0.54884577 2.2080002 nan
-0.81380576 -0.54884577 2.2080002 nan
-0.81510007 -0.55257434 2.223 -3.3836986e+38
-0.81086576 -0.55257434 2.223 nan
-0.81171149 -0.55605429 2.237 nan
-0.80745053 -0.55605429 2.237 nan
-0.80318958 -0.55605429 2.237 nan
-0.79892862 -0.55605429 2.237 nan
-0.79466766 -0.55605429 2.237 nan
-0.7904067 -0.55605429 2.237 nan
-0.79141718 -0.55978292 2.2520001 -3.3717078e+38
-0.78712767 -0.55978292 2.2520001 -3.3847928e+38
-0.78283817 -0.55978292 2.2520001 nan
-0.7785486 -0.55978292 2.2520001 nan
-0.77425909 -0.55978292 2.2520001 nan
-0.76996958 -0.55978292 2.2520001 nan
-0.76568007 -0.55978292 2.2520001 nan
-0.76139051 -0.55978292 2.2520001 nan
-0.757101 -0.55978292 2.2520001 -3.3309982e+38
-0.75281149 -0.55978292 2.2520001 -3.3439789e+38
-0.74852198 -0.55978292 2.2520001 -3.3569069e+38
-0.74423242 -0.55978292 2.2520001 -3.3703022e+38
-0.73994291 -0.55978292 2.2520001 -3.3968876e+38
-0.7356534 -0.55978292 2.2520001 -3.3968882e+38
-0.73136383 -0.55978292 2.2520001 -3.3966765e+38
-0.72707433 -0.55978292 2.2520001 -3.3033668e+38
-0.72278482 -0.55978292 2.2520001 -3.1969248e+38
-0.72296196 -0.56326288 2.266 -3.1564766e+38
-0.71864575 -0.56326288 2.266 -3.1148848e+38
-0.7143296 -0.56326288 2.266 -3.0889217e+38
-0.71001339 -0.56326288 2.266 -3.0750066e+38
-0.70569718 -0.56326288 2.266 -3.0490972e+38
-0.70602387 -0.56699145 2.2810001 -3.022045e+38
-0.70660102 -0.57096863 2.2970002 -2.982531e+38
-0.70222574 -0.57096863 2.2970002 -2.9427081e+38
-0.70240766 -0.5746972 2.312 -2.9162294e+38
-0.69800383 -0.5746972 2.312 -2.8896984e+38
-0.69810003 -0.57842577 2.3270001 -2.9968171e+38
-0.69366765 -0.57842577 2.3270001 -3.1039867e+38
-0.69397432 -0.58240288 2.3430002 -3.1168642e+38
-0.69422007 -0.58638006 2.3590002 -3.1297898e+38
-0.6946972 -0.59060574 2.3760002 -2.8892272e+38
-0.69017148 -0.59060574 2.3760002 -2.6625782e+38
-0.68564576 -0.59060574 2.3760002 -2.6358326e+38
-0.68570673 -0.59458292 2.3920002 -2.6224888e+38
-0.6811505 -0.59458292 2.3920002 -2.582197e+38
-0.67659432 -0.59458292 2.3920002 -2.5554043e+38
-0.66754287 -0.59060574 2.3760002 -2.4887867e+38
-0.66301721 -0.59060574 2.3760002 -2.4354606e+38
-0.65849149 -0.59060574 2.3760002 -2.4220633e+38
-0.64928669 -0.58638006 2.3590002 -2.4086148e+38
-0.64479339 -0.58638006 2.3590002 -2.4085104e+38
-0.64030004 -0.58638006 2.3590002 -2.3950621e+38
-0.64038861 -0.59060574 2.3760002 -2.3951139e+38
-0.63586289 -0.59060574 2.3760002 -2.3951134e+38
-0.63133717 -0.59060574 2.3760002 -2.3818206e+38
-0.63103241 -0.59458292 2.3920002 -2.3817688e+38
-0.62647623 -0.59458292 2.3920002 -2.395165e+38
-0.62634003 -0.59880859 2.4090002 -2.4219055e+38
-0.63491434 -0.61148578 2.46 -2.4484383e+38
-0.64406288 -0.62490863 2.5140002 -2.4883152e+38
-0.64385146 -0.62938291 2.5320001 -2.4617825e+38
-0.63902861 -0.62938291 2.5320001 -2.4351459e+38
-0.63896483 -0.63410574 2.5510001 -2.4218534e+38
-0.64355147 -0.64355147 2.5890002 -2.4084572e+38
-0.63862002 -0.64355147 2.5890002 -2.408509e+38
-0.63368863 -0.64355147 2.5890002 -2.4084053e+38
-0.62382573 -0.64355147 2.5890002 -2.3951132e+38
-1.0896333 -0.58188671 2.3590002 nan
-1.07042 -0.57399338 2.3270001 nan
-1.0591162 -0.57029337 2.312 nan
-1.0615553 -0.57399338 2.3270001 -3.0580586e+38
-1.0571229 -0.57399338 2.3270001 -1.7163719e+38
-1.0459049 -0.57029337 2.312 -2.1023184e+38
-1.0347439 -0.56659335 2.2970002 -2.474815e+38
-1.0303687 -0.56659335 2.2970002 -2.4752318e+38
-1.0188468 -0.56264669 2.2810001 -2.4751795e+38
-1.0145019 -0.56264669 2.2810001 -2.4751793e+38
-1.0035144 -0.55894673 2.266 -2.4750752e+38
-0.99919814 -0.55894673 2.266 -2.4750752e+38
-0.99488199 -0.55894673 2.266 -2.4617825e+38
-0.99056578 -0.55894673 2.266 -2.4618341e+38
-0.98015624 -0.55549335 2.2520001 -2.4484896e+38
-0.97586673 -0.55549335 2.2520001 -2.4484894e+38
-0.96510577 -0.5517934 2.237 -2.4485418e+38
-0.96084481 -0.5517934 2.237 -2.4485939e+38
-0.95658386 -0.5517934 2.237 -2.4351982e+38
-0.9523229 -0.5517934 2.237 -2.4484389e+38
-0.94212866 -0.54834002 2.223 -2.4483872e+38
-0.94380099 -0.5517934 2.237 -2.4483357e+38
-0.93954009 -0.5517934 2.237 -2.4482838e+38
-0.94155055 -0.55549335 2.2520001 -2.4216992e+38
-0.93101817 -0.5517934 2.237 -2.3951666e+38
-0.92675722 -0.5517934 2.237 -2.3951666e+38
-0.92249626 -0.5517934 2.237 -2.3952183e+38
-0.9182353 -0.5517934 2.237 -2.4616278e+38
-0.91397434 -0.5517934 2.237 -2.5278782e+38
-0.90971339 -0.5517934 2.237 -2.6069539e+38
-0.89978576 -0.54834002 2.223 -2.6751924e+38
-0.8955515 -0.54834002 2.223 -2.9574577e+38
-0.89131719 -0.54834002 2.223 -3.2232002e+38
-0.88708293 -0.54834002 2.223 -3.1694608e+38
-0.88284862 -0.54834002 2.223 -3.1030503e+38
-0.87268579 -0.54464006 2.2080002 -3.1160817e+38
-0.86848009 -0.54464006 2.2080002 -3.1297896e+38
-0.86427432 -0.54464006 2.2080002 -3.1037764e+38
-0.86006862 -0.54464006 2.2080002 -3.0776082e+38
-0.85586292 -0.54464006 2.2080002 -3.1044015e+38
-0.85165721 -0.54464006 2.2080002 -3.1173293e+38
-0.84745151 -0.54464006 2.2080002 -3.2233552e+38
-0.84324574 -0.54464006 2.2080002 -3.3165597e+38
-0.83904004 -0.54464006 2.2080002 -3.343926e+38
-0.83483434 -0.54464006 2.2080002 -3.3572177e+38
-0.83062863 -0.54464006 2.2080002 -3.3969379e+38
-0.82642293 -0.54464006 2.2080002 nan
-0.82221723 -0.54464006 2.2080002 nan
-0.81801146 -0.54464006 2.2080002 nan
-0.81380576 -0.54464006 2.2080002 nan
-0.80960006 -0.54464006 2.2080002 nan
-0.81086576 -0.54834002 2.223 nan
-0.80663151 -0.54834002 2.223 nan
-0.80239719 -0.54834002 2.223 nan
-0.79816294 -0.54834002 2.223 nan
-0.79892862 -0.5517934 2.237 nan
-0.79466766 -0.5517934 2.237 nan
-0.7904067 -0.5517934 2.237 nan
-0.78614575 -0.5517934 2.237 -3.3981372e+38
-0.78188479 -0.5517934 2.237 -3.3980334e+38
-0.77762383 -0.5517934 2.237 -3.3846366e+38
-0.7785486 -0.55549335 2.2520001 nan
-0.77425909 -0.55549335 2.2520001 nan
-0.76996958 -0.55549335 2.2520001 nan
-0.76568007 -0.55549335 2.2520001 nan
-0.76139051 -0.55549335 2.2520001 nan
-0.757101 -0.55549335 2.2520001 nan
-0.75281149 -0.55549335 2.2520001 nan
-0.74852198 -0.55549335 2.2520001 nan
-0.74423242 -0.55549335 2.2520001 nan
-0.73994291 -0.55549335 2.2520001 nan
-0.7356534 -0.55549335 2.2520001 nan
-0.73136383 -0.55549335 2.2520001 nan
-0.72707433 -0.55549335 2.2520001 nan
-0.72278482 -0.55549335 2.2520001 nan
-0.72296196 -0.55894673 2.266 nan
-0.71864575 -0.55894673 2.266 -3.3964686e+38
-0.7143296 -0.55894673 2.266 -3.3827086e+38
-0.71001339 -0.55894673 2.266 -3.3561234e+38
-0.70569718 -0.55894673 2.266 -3.3162977e+38
-0.70602387 -0.56264669 2.2810001 -3.2757446e+38
-0.70167911 -0.56264669 2.2810001 -3.1019053e+38
-0.70222574 -0.56659335 2.2970002 -2.9162276e+38
-0.70240766 -0.57029337 2.312 -2.8364729e+38
-0.69800383 -0.57029337 2.312 -2.7566172e+38
-0.69360006 -0.57029337 2.312 -2.7168981e+38
-0.69366765 -0.57399338 2.3270001 -2.6642497e+38
-0.69397432 -0.57794005 2.3430002 -2.996766e+38
-0.68951148 -0.57794005 2.3430002 -3.329018e+38
-0.68972671 -0.58188671 2.3590002 -2.9821697e+38
-0.69017148 -0.58608001 2.3760002 -2.6229099e+38
-0.68564576 -0.58608001 2.3760002 -2.6358857e+38
-0.68570673 -0.59002668 2.3920002 -2.6358336e+38
-0.6811505 -0.59002668 2.3920002 -2.5957489e+38
-0.67659432 -0.59002668 2.3920002 -2.5422153e+38
-0.66754287 -0.58608001 2.3760002 -2.4887857e+38
-0.66301721 -0.58608001 2.3760002 -2.4353562e+38
-0.65849149 -0.58608001 2.3760002 -2.422011e+38
-0.65396577 -0.58608001 2.3760002 -2.4085627e+38
-0.64944005 -0.58608001 2.3760002 -2.4084587e+38
-0.64030004 -0.58188671 2.3590002 -2.4084583e+38
-0.64038861 -0.58608001 2.3760002 -2.4084581e+38
-0.63586289 -0.58608001 2.3760002 -2.4084057e+38
-0.63133717 -0.58608001 2.3760002 -2.4084055e+38
-0.63103241 -0.59002668 2.3920002 -2.395113e+38
-0.62647623 -0.59002668 2.3920002 -2.4084053e+38
-0.62634003 -0.59422004 2.4090002 -2.4218016e+38
-0.6261391 -0.59841335 2.4260001 -2.4616789e+38
-0.63484007 -0.61124003 2.4780002 -2.4883671e+38
-0.6392743 -0.62012005 2.5140002 -2.4485422e+38
-0.63902861 -0.62456006 2.5320001 -2.4086651e+38
-0.63420576 -0.62456006 2.5320001 -2.4086132e+38
-0.63410574 -0.62924671 2.5510001 -2.4085613e+38
-0.63393337 -0.63393337 2.5700002 -2.4085096e+38
-0.63368863 -0.63862002 2.5890002 -2.4084576e+38
-0.62875718 -0.63862002 2.5890002 -2.4084579e+38
-0.62382573 -0.63862002 2.5890002 -2.3951136e+38
-0.61889434 -0.63862002 2.5890002 -2.3951139e+38
-0.61396289 -0.63862002 2.5890002 -2.3818735e+38
-1.0635201 -0.56588954 2.312 nan
-1.0591162 -0.56588954 2.312 nan
-1.0547124 -0.56588954 2.312 nan
-1.0503086 -0.56588954 2.312 -3.0454446e+38
-1.0391191 -0.56221813 2.2970002 -2.5939234e+38
-1.0347439 -0.56221813 2.2970002 -2.1553324e+38
-1.0231915 -0.55830193 2.2810001 -2.3286013e+38
-1.0188468 -0.55830193 2.2810001 -2.5017125e+38
-1.0145019 -0.55830193 2.2810001 -2.5017123e+38
-1.0035144 -0.55463052 2.266 -2.5016083e+38
-0.99919814 -0.55463052 2.266 -2.4883677e+38
-0.99488199 -0.55463052 2.266 -2.4750229e+38
-0.98444575 -0.55120385 2.2520001 -2.4751261e+38
-0.98015624 -0.55120385 2.2520001 -2.4750742e+38
-0.97586673 -0.55120385 2.2520001 -2.4751781e+38
-0.96510577 -0.54753244 2.237 -2.4751781e+38
-0.96728766 -0.55120385 2.2520001 -2.4618858e+38
-0.95658386 -0.54753244 2.237 -2.4617308e+38
-0.9523229 -0.54753244 2.237 -2.4617833e+38
-0.94212866 -0.54410577 2.223 -2.4750241e+38
-0.95012957 -0.55120385 2.2520001 -2.4616801e+38
-0.93954009 -0.54753244 2.237 -2.4616282e+38
-0.94155055 -0.55120385 2.2520001 -2.4350953e+38
-0.93101817 -0.54753244 2.237 -2.408511e+38
-0.92675722 -0.54753244 2.237 -2.3952187e+38
-0.92249626 -0.54753244 2.237 -2.3952187e+38
-0.92439246 -0.55120385 2.2520001 -2.4483878e+38
-0.91397434 -0.54753244 2.237 -2.514845e+38
-0.90971339 -0.54753244 2.237 -2.5810423e+38
-0.89978576 -0.54410577 2.223 -2.6616933e+38
-0.8955515 -0.54410577 2.223 -2.9835784e+38
-0.89131719 -0.54410577 2.223 -3.3033184e+38
-0.88708293 -0.54410577 2.223 -3.2098552e+38
-0.88284862 -0.54410577 2.223 -3.116393e+38
-0.87861437 -0.54410577 2.223 -3.1560095e+38
-0.87438005 -0.54410577 2.223 -3.1826975e+38
-0.86427432 -0.5404343 2.2080002 -3.1569952e+38
-0.86006862 -0.5404343 2.2080002 -3.1310359e+38
-0.85586292 -0.5404343 2.2080002 -3.1442264e+38
-0.85165721 -0.5404343 2.2080002 -3.1574138e+38
-0.84745151 -0.5404343 2.2080002 -3.2366473e+38
-0.84324574 -0.5404343 2.2080002 -3.3158845e+38
-0.83904004 -0.5404343 2.2080002 -3.3434583e+38
-0.83483434 -0.5404343 2.2080002 -3.3704061e+38
-0.83062863 -0.5404343 2.2080002 -3.3968864e+38
-0.82642293 -0.5404343 2.2080002 nan
-0.82221723 -0.5404343 2.2080002 nan
-0.81801146 -0.5404343 2.2080002 nan
-0.81380576 -0.5404343 2.2080002 nan
-0.80960006 -0.5404343 2.2080002 nan
-0.81086576 -0.54410577 2.223 nan
-0.80663151 -0.54410577 2.223 nan
-0.80745053 -0.54753244 2.237 nan
-0.80318958 -0.54753244 2.237 nan
-0.79892862 -0.54753244 2.237 nan
-0.79466766 -0.54753244 2.237 nan
-0.7904067 -0.54753244 2.237 nan
-0.78614575 -0.54753244 2.237 nan
-0.78188479 -0.54753244 2.237 nan
-0.77762383 -0.54753244 2.237 nan
-0.77336293 -0.54753244 2.237 nan
-0.76910198 -0.54753244 2.237 nan
-0.76996958 -0.55120385 2.2520001 nan
-0.76568007 -0.55120385 2.2520001 nan
-0.76139051 -0.55120385 2.2520001 nan
-0.757101 -0.55120385 2.2520001 nan
-0.75281149 -0.55120385 2.2520001 nan
-0.74852198 -0.55120385 2.2520001 nan
-0.74423242 -0.55120385 2.2520001 nan
-0.73994291 -0.55120385 2.2520001 nan
-0.7356534 -0.55120385 2.2520001 nan
-0.73136383 -0.55120385 2.2520001 nan
-0.72707433 -0.55120385 2.2520001 nan
-0.72278482 -0.55120385 2.2520001 nan
-0.72296196 -0.55463052 2.266 nan
-0.71864575 -0.55463052 2.266 nan
-0.7143296 -0.55463052 2.266 nan
-0.71001339 -0.55463052 2.266 nan
-0.70569718 -0.55463052 2.266 nan
-0.70602387 -0.55830193 2.2810001 nan
-0.70167911 -0.55830193 2.2810001 nan
-0.70222574 -0.56221813 2.2970002 -3.2622946e+38
-0.69785053 -0.56221813 2.2970002 -3.2357055e+38
-0.69800383 -0.56588954 2.312 -3.2214292e+38
-0.69360006 -0.56588954 2.312 -3.1559565e+38
-0.69366765 -0.569561 2.3270001 -3.102011e+38
-0.69397432 -0.57347721 2.3430002 -3.2230457e+38
-0.68951148 -0.57347721 2.3430002 -3.356693e+38
-0.68972671 -0.57739335 2.3590002 -2.8497144e+38
-0.69017148 -0.58155435 2.3760002 -2.357117e+38
-0.68564576 -0.58155435 2.3760002 -2.516516e+38
-0.68570673 -0.5854705 2.3920002 -2.6758149e+38
-0.6811505 -0.5854705 2.3920002 -2.5958525e+38
-0.67659432 -0.5854705 2.3920002 -2.5156303e+38
-0.67203814 -0.5854705 2.3920002 -2.4751809e+38
-0.66301721 -0.58155435 2.3760002 -2.4349919e+38
-0.65849149 -0.58155435 2.3760002 -2.4218548e+38
-0.65396577 -0.58155435 2.3760002 -2.4084587e+38
-0.64944005 -0.58155435 2.3760002 -2.4085106e+38
-0.64491433 -0.58155435 2.3760002 -2.4085104e+38
-0.64038861 -0.58155435 2.3760002 -2.4084061e+38
-0.63586289 -0.58155435 2.3760002 -2.4083021e+38
-0.63133717 -0.58155435 2.3760002 -2.3950615e+38
-0.63103241 -0.5854705 2.3920002 -2.3950613e+38
-0.62647623 -0.5854705 2.3920002 -2.3951128e+38
-0.62634003 -0.58963144 2.4090002 -2.4085094e+38
-0.6261391 -0.59379244 2.4260001 -2.4351463e+38
-0.63022864 -0.60211432 2.46 -2.4618864e+38
-0.6346972 -0.61092573 2.4960001 -2.4619381e+38
-0.63448578 -0.61533147 2.5140002 -2.4486977e+38
-0.6296972 -0.61533147 2.5140002 -2.4353535e+38
-0.62938291 -0.61973721 2.5320001 -2.4352501e+38
-1.0522448 -0.55784291 2.2970002 nan
-1.0478696 -0.55784291 2.2970002 nan
-1.0434943 -0.55784291 2.2970002 nan
-1.0391191 -0.55784291 2.2970002 -3.0991329e+38
-1.0275363 -0.55395716 2.2810001 -1.8364207e+38
-1.0231915 -0.55395716 2.2810001 -2.182178e+38
-1.0188468 -0.55395716 2.2810001 -2.5280894e+38
-1.0078305 -0.55031431 2.266 -2.5282975e+38
-1.0035144 -0.55031431 2.266 -2.5150048e+38
-0.99919814 -0.55031431 2.266 -2.5017642e+38
-0.99488199 -0.55031431 2.266 -2.4884194e+38
-0.98444575 -0.54691434 2.2520001 -2.5017632e+38
-0.98015624 -0.54691434 2.2520001 -2.5018149e+38
-0.97586673 -0.54691434 2.2520001 -2.5019188e+38
-0.96510577 -0.54327148 2.237 -2.4886267e+38
-0.96728766 -0.54691434 2.2520001 -2.4886788e+38
-0.96299815 -0.54691434 2.2520001 -2.4751791e+38
-0.95870864 -0.54691434 2.2520001 -2.4884194e+38
-0.95441914 -0.54691434 2.2520001 -2.4883675e+38
-0.95012957 -0.54691434 2.2520001 -2.4750752e+38
-0.93954009 -0.54327148 2.237 -2.461731e+38
-0.93527913 -0.54327148 2.237 -2.4484389e+38
-0.93101817 -0.54327148 2.237 -2.4218548e+38
-0.92675722 -0.54327148 2.237 -2.4085629e+38
-0.92249626 -0.54327148 2.237 -2.3819266e+38
-0.9182353 -0.54327148 2.237 -2.435096e+38
-0.91397434 -0.54327148 2.237 -2.4880549e+38
-0.90971339 -0.54327148 2.237 -2.5672872e+38
-0.89978576 -0.53987145 2.223 -2.6495461e+38
-0.8955515 -0.53987145 2.223 -3.025066e+38
-0.89131719 -0.53987145 2.223 -3.3835414e+38
-0.88708293 -0.53987145 2.223 -3.2635983e+38
-0.87689149 -0.5362286 2.2080002 -3.1299979e+38
-0.87268579 -0.5362286 2.2080002 -3.1822817e+38
-0.86848009 -0.5362286 2.2080002 -3.2361785e+38
-0.86427432 -0.5362286 2.2080002 -3.2105292e+38
-0.86006862 -0.5362286 2.2080002 -3.1707057e+38
-0.85586292 -0.5362286 2.2080002 -3.1841032e+38
-0.85165721 -0.5362286 2.2080002 -3.1971874e+38
-0.84745151 -0.5362286 2.2080002 -3.2499927e+38
-0.84324574 -0.5362286 2.2080002 -3.3031636e+38
-0.83904004 -0.5362286 2.2080002 -3.3435096e+38
-0.83483434 -0.5362286 2.2080002 -3.3702493e+38
-0.83062863 -0.5362286 2.2080002 nan
-0.82642293 -0.5362286 2.2080002 nan
-0.82221723 -0.5362286 2.2080002 nan
-0.81801146 -0.5362286 2.2080002 nan
-0.81380576 -0.5362286 2.2080002 nan
-0.80960006 -0.5362286 2.2080002 nan
-0.81086576 -0.53987145 2.223 nan
-0.80663151 -0.53987145 2.223 nan
-0.80745053 -0.54327148 2.237 nan
-0.79816294 -0.53987145 2.223 nan
-0.79892862 -0.54327148 2.237 nan
-0.79466766 -0.54327148 2.237 nan
-0.7904067 -0.54327148 2.237 nan
-0.78614575 -0.54327148 2.237 nan
-0.78188479 -0.54327148 2.237 nan
-0.77762383 -0.54327148 2.237 nan
-0.77336293 -0.54327148 2.237 nan
-0.76910198 -0.54327148 2.237 nan
-0.76484102 -0.54327148 2.237 nan
-0.76058006 -0.54327148 2.237 nan
-0.76139051 -0.54691434 2.2520001 nan
-0.75205815 -0.54327148 2.237 nan
-0.75281149 -0.54691434 2.2520001 nan
-0.74852198 -0.54691434 2.2520001 nan
-0.74423242 -0.54691434 2.2520001 nan
-0.73994291 -0.54691434 2.2520001 nan
-0.7356534 -0.54691434 2.2520001 nan
-0.73136383 -0.54691434 2.2520001 nan
-0.72707433 -0.54691434 2.2520001 nan
-0.72278482 -0.54691434 2.2520001 nan
-0.71849531 -0.54691434 2.2520001 nan
-0.71864575 -0.55031431 2.266 nan
-0.7143296 -0.55031431 2.266 nan
-0.71001339 -0.55031431 2.266 nan
-0.70569718 -0.55031431 2.266 nan
-0.70602387 -0.55395716 2.2810001 nan
-0.70167911 -0.55395716 2.2810001 nan
-0.70222574 -0.55784291 2.2970002 nan
-0.69785053 -0.55784291 2.2970002 nan
-0.69800383 -0.56148577 2.312 nan
-0.69360006 -0.56148577 2.312 nan
-0.69366765 -0.56512862 2.3270001 nan
-0.68923527 -0.56512862 2.3270001 nan
-0.68951148 -0.56901431 2.3430002 -3.3828112e+38
-0.68972671 -0.57290006 2.3590002 -2.7294598e+38
-0.68523335 -0.57290006 2.3590002 -2.0780325e+38
-0.68564576 -0.57702863 2.3760002 -2.3973052e+38
-0.68112004 -0.57702863 2.3760002 -2.7029221e+38
-0.6811505 -0.58091432 2.3920002 -2.5961667e+38
-0.67659432 -0.58091432 2.3920002 -2.4890476e+38
-0.67203814 -0.58091432 2.3920002 -2.4613706e+38
-0.66748196 -0.58091432 2.3920002 -2.4217006e+38
-0.65849149 -0.57702863 2.3760002 -2.4086674e+38
-0.65396577 -0.57702863 2.3760002 -2.3953749e+38
-0.64944005 -0.57702863 2.3760002 -2.3953749e+38
-0.64491433 -0.57702863 2.3760002 -2.3952187e+38
-0.64038861 -0.57702863 2.3760002 -2.3950625e+38
-0.63586289 -0.57702863 2.3760002 -2.3950102e+38
-0.63133717 -0.57702863 2.3760002 -2.39501e+38
-0.63103241 -0.58091432 2.3920002 -2.3817692e+38
-0.62647623 -0.58091432 2.3920002 -2.381821e+38
-0.62634003 -0.58504289 2.4090002 -2.381925e+38
-0.62175149 -0.58504289 2.4090002 -2.4085619e+38
-0.62151814 -0.58917147 2.4260001 -2.4353542e+38
-0.62122005 -0.59330004 2.4430001 -2.4620945e+38
-0.62540007 -0.60180002 2.4780002 -2.4886271e+38
-0.62518859 -0.60617149 2.4960001 -2.4753348e+38
-1.0405705 -0.5496124 2.2810001 nan
-1.0362258 -0.5496124 2.2810001 nan
-1.031881 -0.5496124 2.2810001 nan
-1.0275363 -0.5496124 2.2810001 -3.0593615e+38
-1.0231915 -0.5496124 2.2810001 -2.740505e+38
-1.0188468 -0.5496124 2.2810001 -2.4348357e+38
-1.0078305 -0.54599816 2.266 -2.4880578e+38
-1.0035144 -0.54599816 2.266 -2.5548822e+38
-0.99919814 -0.54599816 2.266 -2.5415894e+38
-0.99488199 -0.54599816 2.266 -2.541589e+38
-0.99056578 -0.54599816 2.266 -2.5417962e+38
-0.98624957 -0.54599816 2.266 -2.5418482e+38
-0.97586673 -0.54262477 2.2520001 -2.5286076e+38
-0.97157723 -0.54262477 2.2520001 -2.5285042e+38
-0.96728766 -0.54262477 2.2520001 -2.5285046e+38
-0.96299815 -0.54262477 2.2520001 -2.5150561e+38
-0.95870864 -0.54262477 2.2520001 -2.5282959e+38
-0.94806194 -0.53901052 2.237 -2.5282435e+38
-0.95012957 -0.54262477 2.2520001 -2.5282431e+38
-0.93954009 -0.53901052 2.237 -2.5149513e+38
-0.94155055 -0.54262477 2.2520001 -2.4884188e+38
-0.93101817 -0.53901052 2.237 -2.4750754e+38
-0.92675722 -0.53901052 2.237 -2.4351473e+38
-0.92249626 -0.53901052 2.237 -2.4084593e+38
-0.9182353 -0.53901052 2.237 -2.3552386e+38
-0.91397434 -0.53901052 2.237 -2.3153097e+38
-0.90971339 -0.53901052 2.237 -2.6215511e+38
-0.89978576 -0.5356372 2.223 -2.9290503e+38
-0.8955515 -0.5356372 2.223 -3.2237764e+38
-0.89131719 -0.5356372 2.223 nan
-0.88708293 -0.5356372 2.223 -3.3437183e+38
-0.87689149 -0.53202289 2.2080002 -3.1970314e+38
-0.87268579 -0.53202289 2.2080002 -3.2095404e+38
-0.86848009 -0.53202289 2.2080002 -3.2229903e+38
-0.86427432 -0.53202289 2.2080002 -3.2100633e+38
-0.86006862 -0.53202289 2.2080002 -3.1969276e+38
-0.85586292 -0.53202289 2.2080002 -3.2103763e+38
-0.85165721 -0.53202289 2.2080002 -3.2237207e+38
-0.84745151 -0.53202289 2.2080002 -3.26339e+38
-0.84324574 -0.53202289 2.2080002 -3.3032677e+38
-0.83904004 -0.53202289 2.2080002 -3.3169761e+38
-0.83483434 -0.53202289 2.2080002 -3.3303717e+38
-0.83062863 -0.53202289 2.2080002 -3.343715e+38
-0.82642293 -0.53202289 2.2080002 -3.3572179e+38
-0.82221723 -0.53202289 2.2080002 nan
-0.81801146 -0.53202289 2.2080002 nan
-0.81380576 -0.53202289 2.2080002 nan
-0.80960006 -0.53202289 2.2080002 nan
-0.81086576 -0.5356372 2.223 nan
-0.80663151 -0.5356372 2.223 nan
-0.80745053 -0.53901052 2.237 nan
-0.79816294 -0.5356372 2.223 nan
-0.79892862 -0.53901052 2.237 nan
-0.79466766 -0.53901052 2.237 nan
-0.7904067 -0.53901052 2.237 nan
-0.78614575 -0.53901052 2.237 nan
-0.78188479 -0.53901052 2.237 nan
-0.77762383 -0.53901052 2.237 nan
-0.77336293 -0.53901052 2.237 nan
-0.76910198 -0.53901052 2.237 nan
-0.76484102 -0.53901052 2.237 nan
-0.76568007 -0.54262477 2.2520001 nan
-0.76139051 -0.54262477 2.2520001 nan
-0.757101 -0.54262477 2.2520001 nan
-0.75281149 -0.54262477 2.2520001 nan
-0.74852198 -0.54262477 2.2520001 nan
-0.74423242 -0.54262477 2.2520001 nan
-0.73994291 -0.54262477 2.2520001 nan
-0.7356534 -0.54262477 2.2520001 nan
-0.73136383 -0.54262477 2.2520001 nan
-0.72707433 -0.54262477 2.2520001 nan
-0.72278482 -0.54262477 2.2520001 nan
-0.71849531 -0.54262477 2.2520001 nan
-0.71864575 -0.54599816 2.266 nan
-0.7143296 -0.54599816 2.266 nan
-0.71001339 -0.54599816 2.266 nan
-0.70569718 -0.54599816 2.266 nan
-0.70602387 -0.5496124 2.2810001 nan
-0.70167911 -0.5496124 2.2810001 nan
-0.70222574 -0.55346763 2.2970002 nan
-0.69785053 -0.55346763 2.2970002 nan
-0.69800383 -0.55708194 2.312 nan
-0.69360006 -0.55708194 2.312 nan
-0.69366765 -0.56069624 2.3270001 nan
-0.68923527 -0.56069624 2.3270001 -3.3972016e+38
-0.68480289 -0.56069624 2.3270001 -3.2640644e+38
-0.68504864 -0.56455147 2.3430002 -2.756822e+38
-0.68523335 -0.5684067 2.3590002 -2.2637625e+38
-0.68564576 -0.57250291 2.3760002 -2.5972648e+38
-0.68112004 -0.57250291 2.3760002 -2.9296732e+38
-0.6811505 -0.57635814 2.3920002 -2.8092612e+38
-0.67659432 -0.57635814 2.3920002 -2.7019336e+38
-0.67203814 -0.57635814 2.3920002 -2.5550926e+38
-0.66748196 -0.57635814 2.3920002 -2.4217017e+38
-0.65849149 -0.57250291 2.3760002 -2.4088759e+38
-0.65396577 -0.57250291 2.3760002 -2.3955836e+38
-0.64944005 -0.57250291 2.3760002 -2.3952719e+38
-0.64491433 -0.57250291 2.3760002 -2.4084599e+38
-0.64038861 -0.57250291 2.3760002 -2.3950631e+38
-0.63586289 -0.57250291 2.3760002 -2.3817185e+38
-0.63133717 -0.57250291 2.3760002 -2.3684776e+38
-0.63103241 -0.57635814 2.3920002 -2.355237e+38
-0.62647623 -0.57635814 2.3920002 -2.3685291e+38
-0.62634003 -0.58045435 2.4090002 -2.3952177e+38
-0.62175149 -0.58045435 2.4090002 -2.4085619e+38
-0.62151814 -0.5845505 2.4260001 -2.4354065e+38
-0.62122005 -0.58864671 2.4430001 -2.4620432e+38
-0.62085718 -0.59274292 2.46 -2.5019719e+38
-0.61617148 -0.59274292 2.46 -2.4886275e+38
-1.0337276 -0.54168195 2.266 nan
-1.0294116 -0.54168195 2.266 nan
-1.031881 -0.54526764 2.2810001 nan
-1.0207791 -0.54168195 2.266 nan
-1.0231915 -0.54526764 2.2810001 -3.2989856e+38
-1.0188468 -0.54526764 2.2810001 -2.3283896e+38
-1.0145019 -0.54526764 2.2810001 -2.4607412e+38
-1.0101572 -0.54526764 2.2810001 -2.5811524e+38
-1.0058124 -0.54526764 2.2810001 -2.5947063e+38
-0.99488199 -0.54168195 2.266 -2.5950179e+38
-0.99056578 -0.54168195 2.266 -2.5819331e+38
-0.98624957 -0.54168195 2.266 -2.5685885e+38
-0.98193341 -0.54168195 2.266 -2.5686402e+38
-0.97157723 -0.53833526 2.2520001 -2.5684846e+38
-0.96728766 -0.53833526 2.2520001 -2.5684329e+38
-0.96299815 -0.53833526 2.2520001 -2.5549845e+38
-0.95870864 -0.53833526 2.2520001 -2.5682246e+38
-0.95441914 -0.53833526 2.2520001 -2.5682244e+38
-0.95012957 -0.53833526 2.2520001 -2.5681204e+38
-0.93954009 -0.53474957 2.237 -2.5682244e+38
-0.93527913 -0.53474957 2.237 -2.541692e+38
-0.93101817 -0.53474957 2.237 -2.5150042e+38
-0.92675722 -0.53474957 2.237 -2.475128e+38
-0.91672289 -0.53140289 2.223 -2.4218035e+38
-0.91248864 -0.53140289 2.223 -2.2886215e+38
-0.90825433 -0.53140289 2.223 -2.1425076e+38
-0.90402007 -0.53140289 2.223 -2.6745077e+38
-0.89978576 -0.53140289 2.223 -3.2085498e+38
-0.8955515 -0.53140289 2.223 nan
-0.8853029 -0.52781719 2.2080002 nan
-0.8810972 -0.52781719 2.2080002 nan
-0.87689149 -0.52781719 2.2080002 -3.2503573e+38
-0.87268579 -0.52781719 2.2080002 -3.2225743e+38
-0.86848009 -0.52781719 2.2080002 -3.1963027e+38
-0.86427432 -0.52781719 2.2080002 -3.2098039e+38
-0.86006862 -0.52781719 2.2080002 -3.2232527e+38
-0.85586292 -0.52781719 2.2080002 -3.2367016e+38
-0.85165721 -0.52781719 2.2080002 -3.2500977e+38
-0.84745151 -0.52781719 2.2080002 -3.2765787e+38
-0.84324574 -0.52781719 2.2080002 -3.3036843e+38
-0.83904004 -0.52781719 2.2080002 -3.3041013e+38
-0.82954103 -0.52447051 2.194 -3.2906003e+38
-0.83062863 -0.52781719 2.2080002 -3.2771514e+38
-0.82642293 -0.52781719 2.2080002 -3.26438e+38
-0.82221723 -0.52781719 2.2080002 -3.398291e+38
-0.81801146 -0.52781719 2.2080002 nan
-0.81380576 -0.52781719 2.2080002 nan
-0.80960006 -0.52781719 2.2080002 nan
-0.81086576 -0.53140289 2.223 nan
-0.80663151 -0.53140289 2.223 nan
-0.80745053 -0.53474957 2.237 nan
-0.79816294 -0.53140289 2.223 nan
-0.79392862 -0.53140289 2.223 nan
-0.79466766 -0.53474957 2.237 nan
-0.7904067 -0.53474957 2.237 nan
-0.78614575 -0.53474957 2.237 nan
-0.78188479 -0.53474957 2.237 nan
-0.77762383 -0.53474957 2.237 nan
-0.77336293 -0.53474957 2.237 nan
-0.76910198 -0.53474957 2.237 nan
-0.76484102 -0.53474957 2.237 nan
-0.76568007 -0.53833526 2.2520001 nan
-0.76139051 -0.53833526 2.2520001 nan
-0.757101 -0.53833526 2.2520001 nan
-0.75281149 -0.53833526 2.2520001 nan
-0.74852198 -0.53833526 2.2520001 nan
-0.74423242 -0.53833526 2.2520001 nan
-0.73994291 -0.53833526 2.2520001 nan
-0.7356534 -0.53833526 2.2520001 nan
-0.73136383 -0.53833526 2.2520001 nan
-0.72707433 -0.53833526 2.2520001 nan
-0.72278482 -0.53833526 2.2520001 nan
-0.71849531 -0.53833526 2.2520001 nan
-0.71864575 -0.54168195 2.266 nan
-0.7143296 -0.54168195 2.266 nan
-0.71001339 -0.54168195 2.266 nan
-0.70569718 -0.54168195 2.266 nan
-0.70602387 -0.54526764 2.2810001 nan
-0.70660102 -0.54909241 2.2970002 nan
-0.70222574 -0.54909241 2.2970002 nan
-0.70240766 -0.55267811 2.312 nan
-0.69800383 -0.55267811 2.312 nan
-0.69360006 -0.55267811 2.312 nan
-0.69366765 -0.55626386 2.3270001 nan
-0.68923527 -0.55626386 2.3270001 -3.3307369e+38
-0.68480289 -0.55626386 2.3270001 -3.1303102e+38
-0.68504864 -0.56008863 2.3430002 -2.7833569e+38
-0.68523335 -0.56391335 2.3590002 -2.4381229e+38
-0.68074006 -0.56391335 2.3590002 -2.7982103e+38
-0.68112004 -0.56797719 2.3760002 -3.1563727e+38
-0.6811505 -0.57180196 2.3920002 -3.0359092e+38
-0.67659432 -0.57180196 2.3920002 -2.9023603e+38
-0.67203814 -0.57180196 2.3920002 -2.6619539e+38
-0.66748196 -0.57180196 2.3920002 -2.4093482e+38
-0.65849149 -0.56797719 2.3760002 -2.3962113e+38
-0.65396577 -0.56797719 2.3760002 -2.3823968e+38
-0.64944005 -0.56797719 2.3760002 -2.4082514e+38
-0.64491433 -0.56797719 2.3760002 -2.4215956e+38
-0.64038861 -0.56797719 2.3760002 -2.3950112e+38
-0.63586289 -0.56797719 2.3760002 -2.355134e+38
-0.63558859 -0.57180196 2.3920002 -2.3418413e+38
-0.63103241 -0.57180196 2.3920002 -2.3286005e+38
-0.63092864 -0.57586575 2.4090002 -2.3684772e+38
-0.62634003 -0.57586575 2.4090002 -2.3951658e+38
-0.6261391 -0.57992959 2.4260001 -2.4084063e+38
-0.62587339 -0.58399338 2.4430001 -2.4219584e+38
-0.62122005 -0.58399338 2.4430001 -2.4619914e+38
-0.62085718 -0.58805716 2.46 -2.5018679e+38
-0.61617148 -0.58805716 2.46 -2.5018677e+38
-0.61148578 -0.58805716 2.46 -2.4885235e+38
-1.0405705 -0.54092288 2.2810001 nan
-1.0362258 -0.54092288 2.2810001 nan
-1.031881 -0.54092288 2.2810001 nan
-1.0275363 -0.54092288 2.2810001 nan
-1.0231915 -0.54092288 2.2810001 nan
-1.0259933 -0.54471719 2.2970002 -3.1792472e+38
-1.0145019 -0.54092288 2.2810001 -2.8204583e+38
-1.0101572 -0.54092288 2.2810001 -2.4750192e+38
-1.0058124 -0.54092288 2.2810001 -2.555037e+38
-1.0014677 -0.54092288 2.2810001 -2.6351543e+38
-0.99056578 -0.53736573 2.266 -2.6218623e+38
-0.99277818 -0.54092288 2.2810001 -2.6084136e+38
-0.98193341 -0.53736573 2.266 -2.5951726e+38
-0.9776172 -0.53736573 2.266 -2.5817246e+38
-0.97330099 -0.53736573 2.266 -2.5684323e+38
-0.96898484 -0.53736573 2.266 -2.5682246e+38
-0.95870864 -0.53404576 2.2520001 -2.5683283e+38
-0.95441914 -0.53404576 2.2520001 -2.5683283e+38
-0.94380099 -0.53048861 2.237 -2.5682763e+38
-0.93954009 -0.53048861 2.237 -2.5683285e+38
-0.93527913 -0.53048861 2.237 -2.5283478e+38
-0.93101817 -0.53048861 2.237 -2.5016081e+38
-0.92675722 -0.53048861 2.237 -2.4617838e+38
-0.91672289 -0.52716863 2.223 -2.4218554e+38
-0.91248864 -0.52716863 2.223 -2.2487446e+38
-0.90825433 -0.52716863 2.223 -2.0890764e+38
-0.90402007 -0.52716863 2.223 -2.6219568e+38
-0.89978576 -0.52716863 2.223 -3.1551714e+38
-0.8955515 -0.52716863 2.223 -3.3302731e+38
-0.8853029 -0.52361149 2.2080002 nan
-0.8810972 -0.52361149 2.2080002 nan
-0.87689149 -0.52361149 2.2080002 -3.370612e+38
-0.87268579 -0.52361149 2.2080002 -3.3030561e+38
-0.86848009 -0.52361149 2.2080002 -3.2360763e+38
-0.86427432 -0.52361149 2.2080002 -3.249629e+38
-0.86006862 -0.52361149 2.2080002 -3.2627663e+38
-0.85586292 -0.52361149 2.2080002 -3.2765787e+38
-0.85165721 -0.52361149 2.2080002 -3.2900269e+38
-0.84745151 -0.52361149 2.2080002 -3.2902346e+38
-0.84324574 -0.52361149 2.2080002 -3.3042045e+38
-0.83904004 -0.52361149 2.2080002 -3.3039995e+38
-0.82954103 -0.52029145 2.194 -3.3038944e+38
-0.83062863 -0.52361149 2.2080002 -3.3038413e+38
-0.82642293 -0.52361149 2.2080002 -3.3038938e+38
-0.82221723 -0.52361149 2.2080002 nan
-0.81801146 -0.52361149 2.2080002 nan
-0.81380576 -0.52361149 2.2080002 nan
-0.80960006 -0.52361149 2.2080002 nan
-0.81086576 -0.52716863 2.223 nan
-0.80663151 -0.52716863 2.223 nan
-0.80239719 -0.52716863 2.223 nan
-0.79816294 -0.52716863 2.223 nan
-0.79392862 -0.52716863 2.223 nan
-0.78969431 -0.52716863 2.223 nan
-0.7904067 -0.53048861 2.237 nan
-0.78614575 -0.53048861 2.237 nan
-0.78188479 -0.53048861 2.237 nan
-0.77762383 -0.53048861 2.237 nan
-0.77336293 -0.53048861 2.237 nan
-0.76910198 -0.53048861 2.237 nan
-0.76484102 -0.53048861 2.237 nan
-0.76568007 -0.53404576 2.2520001 nan
-0.76139051 -0.53404576 2.2520001 nan
-0.757101 -0.53404576 2.2520001 nan
-0.75281149 -0.53404576 2.2520001 nan
-0.74852198 -0.53404576 2.2520001 nan
-0.74423242 -0.53404576 2.2520001 nan
-0.73994291 -0.53404576 2.2520001 nan
-0.7356534 -0.53404576 2.2520001 nan
-0.73136383 -0.53404576 2.2520001 nan
