# .PCD v0.7 - Point Cloud Data file format
VERSION 0.7
FIELDS x y z rgb
SIZE 4 4 4 4
TYPE F F F F
COUNT 1 1 1 1
WIDTH 1019
HEIGHT 1
VIEWPOINT 0 0 0 1 0 0 0
POINTS 1019
DATA ascii
0.19527334 -0.2248105 1.723 -2.0490452e+38
0.19763334 -0.22376668 1.715 -2.0623375e+38
0.19984573 -0.2225924 1.7060001 -2.0755779e+38
0.20309526 -0.2225924 1.7060001 -2.088818e+38
0.20537716 -0.22154859 1.6980001 -2.1020063e+38
0.20861144 -0.22154859 1.6980001 -2.115402e+38
0.21184573 -0.22154859 1.6980001 -2.1287462e+38
0.21508001 -0.22154859 1.6980001 -2.1287462e+38
0.2183143 -0.22154859 1.6980001 -2.128746e+38
0.22154859 -0.22154859 1.6980001 -2.1155054e+38
0.22372383 -0.22050478 1.6900001 -2.1022133e+38
0.22694287 -0.22050478 1.6900001 -2.1287981e+38
0.23016192 -0.22050478 1.6900001 -2.1553311e+38
0.23448573 -0.22154859 1.6980001 -2.1552275e+38
0.23660001 -0.22050478 1.6900001 -2.1550719e+38
0.23981906 -0.22050478 1.6900001 -2.1684163e+38
0.24303812 -0.22050478 1.6900001 -2.1816563e+38
0.24494573 -0.21933049 1.6810001 -2.1818117e+38
0.24814764 -0.21933049 1.6810001 -2.1819155e+38
0.25134954 -0.21933049 1.6810001 -2.1553309e+38
0.25455144 -0.21933049 1.6810001 -2.1420908e+38
0.25652668 -0.21828668 1.6730001 -2.1288506e+38
0.25971335 -0.21828668 1.6730001 -2.1287991e+38
0.26290002 -0.21828668 1.6730001 -2.1287993e+38
0.2660867 -0.21828668 1.6730001 -2.1286953e+38
0.26927334 -0.21828668 1.6730001 -2.128747e+38
0.27246001 -0.21828668 1.6730001 -2.1286951e+38
0.27564669 -0.21828668 1.6730001 -2.1287468e+38
0.27883336 -0.21828668 1.6730001 -2.1421954e+38
0.28202003 -0.21828668 1.6730001 -2.142248e+38
0.28657049 -0.21933049 1.6810001 -2.1555409e+38
0.28977239 -0.21933049 1.6810001 -2.1822299e+38
0.29297429 -0.21933049 1.6810001 -2.1955224e+38
0.2961762 -0.21933049 1.6810001 -2.2222108e+38
0.30098099 -0.22050478 1.6900001 -2.2621913e+38
0.30420002 -0.22050478 1.6900001 -2.2622949e+38
0.30741906 -0.22050478 1.6900001 -2.2623983e+38
0.30898383 -0.21933049 1.6810001 -2.2623979e+38
0.31385717 -0.22050478 1.6900001 -2.2756908e+38
0.31707621 -0.22050478 1.6900001 -2.3021721e+38
0.32029524 -0.22050478 1.6900001 -2.3286537e+38
0.32351431 -0.22050478 1.6900001 -2.3287062e+38
0.32673335 -0.22050478 1.6900001 -2.3419987e+38
0.3315143 -0.22154859 1.6980001 -2.3288622e+38
0.3347486 -0.22154859 1.6980001 -2.3155699e+38
0.33957526 -0.2225924 1.7060001 -2.3156216e+38
0.34282479 -0.2225924 1.7060001 -2.3155701e+38
0.34790003 -0.22376668 1.715 -2.3289145e+38
0.3511667 -0.22376668 1.715 -2.3554997e+38
0.35443336 -0.22376668 1.715 -2.3556558e+38
0.35936859 -0.2248105 1.723 -2.3557599e+38
0.36454478 -0.22598478 1.7320001 -2.3692601e+38
0.36784384 -0.22598478 1.7320001 -2.3959489e+38
0.37114289 -0.22598478 1.7320001 -2.4491703e+38
0.37444192 -0.22598478 1.7320001 -2.5157331e+38
0.37970382 -0.22715907 1.7410001 -2.2756387e+38
0.38500002 -0.22833335 1.7500001 -2.0349861e+38
0.39033049 -0.22950764 1.7590001 -2.6762968e+38
0.39569527 -0.23068193 1.7680001 -3.3057172e+38
0.40109432 -0.23185621 1.7770001 nan
0.40652764 -0.2330305 1.7860001 nan
0.40992954 -0.2330305 1.7860001 nan
0.41333145 -0.2330305 1.7860001 nan
0.41673335 -0.2330305 1.7860001 nan
0.095046669 -0.24210002 1.8830001 -2.2098073e+38
0.098109528 -0.2408143 1.8730001 -2.4489636e+38
0.10222001 -0.24210002 1.8830001 -2.395586e+38
0.10468286 -0.23952858 1.863 -2.3424163e+38
0.10765048 -0.23824288 1.853 -2.3158311e+38
0.11058 -0.23695716 1.8430001 -2.2891417e+38
0.11347143 -0.23567145 1.8330001 -2.2757448e+38
0.11575048 -0.23322859 1.8140001 -2.2490558e+38
0.11854858 -0.23194288 1.8040001 -2.2488996e+38
0.1213762 -0.23078573 1.7950001 -2.2355037e+38
0.12479524 -0.23078573 1.7950001 -2.2354e+38
0.12757143 -0.22962859 1.7860001 -2.2353998e+38
0.13031334 -0.22847144 1.7770001 -2.2354517e+38
0.13369811 -0.22847144 1.7770001 -2.2220552e+38
0.13638858 -0.22731429 1.7680001 -2.2086587e+38
0.1397562 -0.22731429 1.7680001 -2.1952098e+38
0.14312382 -0.22731429 1.7680001 -2.1950534e+38
0.14649144 -0.22731429 1.7680001 -2.1951043e+38
0.14909621 -0.22615716 1.7590001 -2.1818113e+38
0.15244667 -0.22615716 1.7590001 -2.1552788e+38
0.15579715 -0.22615716 1.7590001 -2.1552792e+38
0.15914764 -0.22615716 1.7590001 -2.1419871e+38
0.16166668 -0.22500001 1.7500001 -2.1419876e+38
0.16415145 -0.22384287 1.7410001 -2.1287474e+38
0.16746762 -0.22384287 1.7410001 -2.1022152e+38
0.17078382 -0.22384287 1.7410001 -2.0624418e+38
0.17320001 -0.22268572 1.7320001 -2.0624935e+38
0.17649905 -0.22268572 1.7320001 -2.0624412e+38
0.17886382 -0.22152859 1.723 -2.075733e+38
0.18214573 -0.22152859 1.723 -2.0757328e+38
0.18542764 -0.22152859 1.723 -2.0623886e+38
0.18870954 -0.22152859 1.723 -2.0358045e+38
0.19199145 -0.22152859 1.723 -2.0623894e+38
0.19527334 -0.22152859 1.723 -2.088974e+38
0.19763334 -0.22050001 1.715 -2.1022665e+38
0.19984573 -0.21934287 1.7060001 -2.1154547e+38
0.20214286 -0.2183143 1.6980001 -2.1286431e+38
0.20537716 -0.2183143 1.6980001 -2.1286427e+38
0.20861144 -0.2183143 1.6980001 -2.1285906e+38
0.21184573 -0.2183143 1.6980001 -2.1286945e+38
0.21508001 -0.2183143 1.6980001 -2.1287462e+38
0.21728572 -0.21728572 1.6900001 -2.1287981e+38
0.22050478 -0.21728572 1.6900001 -2.1022655e+38
0.22372383 -0.21728572 1.6900001 -2.0756811e+38
0.22694287 -0.21728572 1.6900001 -2.1022661e+38
0.23016192 -0.21728572 1.6900001 -2.1287989e+38
0.23338097 -0.21728572 1.6900001 -2.15528e+38
0.23660001 -0.21728572 1.6900001 -2.1685204e+38
0.23981906 -0.21728572 1.6900001 -2.1684685e+38
0.24303812 -0.21728572 1.6900001 -2.16852e+38
0.24494573 -0.21612859 1.6810001 -2.1685715e+38
0.24814764 -0.21612859 1.6810001 -2.1686236e+38
0.25134954 -0.21612859 1.6810001 -2.1686756e+38
0.25455144 -0.21612859 1.6810001 -2.1554354e+38
0.25652668 -0.21510002 1.6730001 -2.1421954e+38
0.25971335 -0.21510002 1.6730001 -2.115559e+38
0.26290002 -0.21510002 1.6730001 -2.1287993e+38
0.2660867 -0.21510002 1.6730001 -2.1420914e+38
0.26927334 -0.21510002 1.6730001 -2.142091e+38
0.27246001 -0.21510002 1.6730001 -2.1420393e+38
0.27564669 -0.21510002 1.6730001 -2.1419354e+38
0.27883336 -0.21510002 1.6730001 -2.142092e+38
0.28202003 -0.21510002 1.6730001 -2.1554887e+38
0.28657049 -0.21612859 1.6810001 -2.1555413e+38
0.28977239 -0.21612859 1.6810001 -2.1822303e+38
0.29297429 -0.21612859 1.6810001 -2.2089189e+38
0.2961762 -0.21612859 1.6810001 -2.2488479e+38
0.30098099 -0.21728572 1.6900001 -2.2889322e+38
0.30420002 -0.21728572 1.6900001 -2.2891916e+38
0.30741906 -0.21728572 1.6900001 -2.2757951e+38
0.30898383 -0.21612859 1.6810001 -2.2891389e+38
0.31218573 -0.21612859 1.6810001 -2.3022756e+38
0.31707621 -0.21728572 1.6900001 -2.3287565e+38
0.31858954 -0.21612859 1.6810001 -2.3421013e+38
0.32179144 -0.21612859 1.6810001 -2.3554463e+38
0.32673335 -0.21728572 1.6900001 -2.3555506e+38
0.32995239 -0.21728572 1.6900001 -2.3556029e+38
0.33317146 -0.21728572 1.6900001 -2.3556027e+38
0.33798289 -0.2183143 1.6980001 -2.3556027e+38
0.34282479 -0.21934287 1.7060001 -2.3556029e+38
0.34607431 -0.21934287 1.7060001 -2.3688435e+38
0.34932384 -0.21934287 1.7060001 -2.3689996e+38
0.35443336 -0.22050001 1.715 -2.3691039e+38
0.35936859 -0.22152859 1.723 -2.3692079e+38
0.36265051 -0.22152859 1.723 -2.382656e+38
0.36784384 -0.22268572 1.7320001 -2.3959489e+38
0.37114289 -0.22268572 1.7320001 -2.4491184e+38
0.37444192 -0.22268572 1.7320001 -2.5024425e+38
0.37970382 -0.22384287 1.7410001 -2.3294861e+38
0.38500002 -0.22500001 1.7500001 -2.1427753e+38
0.38833335 -0.22500001 1.7500001 -2.6477305e+38
0.39569527 -0.22731429 1.7680001 -3.1578874e+38
0.40109432 -0.22847144 1.7770001 nan
0.40447909 -0.22847144 1.7770001 nan
0.40786383 -0.22847144 1.7770001 nan
0.41333145 -0.22962859 1.7860001 nan
0.42093337 -0.23194288 1.8040001 nan
0.10222001 -0.23851335 1.8830001 -2.369053e+38
0.10468286 -0.23598002 1.863 -2.3289159e+38
0.10765048 -0.23471335 1.853 -2.3156748e+38
0.11058 -0.23344669 1.8430001 -2.3023293e+38
0.11291429 -0.23104002 1.8240001 -2.2889839e+38
0.11575048 -0.22977334 1.8140001 -2.2622949e+38
0.11920572 -0.22977334 1.8140001 -2.2621385e+38
0.1213762 -0.22736669 1.7950001 -2.2486911e+38
0.12479524 -0.22736669 1.7950001 -2.2487434e+38
0.1282143 -0.22736669 1.7950001 -2.2487436e+38
0.13031334 -0.22508667 1.7770001 -2.2221593e+38
0.13437524 -0.22622669 1.7860001 -2.2087629e+38
0.13708286 -0.22508667 1.7770001 -2.1953666e+38
0.1397562 -0.22394668 1.7680001 -2.1951579e+38
0.14312382 -0.22394668 1.7680001 -2.1818646e+38
0.14649144 -0.22394668 1.7680001 -2.1818123e+38
0.14985906 -0.22394668 1.7680001 -2.1685713e+38
0.15322667 -0.22394668 1.7680001 -2.1553311e+38
0.15579715 -0.22280668 1.7590001 -2.1420389e+38
0.15914764 -0.22280668 1.7590001 -2.1420393e+38
0.16166668 -0.22166668 1.7500001 -2.1420914e+38
0.16415145 -0.22052668 1.7410001 -2.1287474e+38
0.16746762 -0.22052668 1.7410001 -2.1023188e+38
0.17078382 -0.22052668 1.7410001 -2.0758379e+38
0.17320001 -0.21938668 1.7320001 -2.0757856e+38
0.17649905 -0.21938668 1.7320001 -2.0890257e+38
0.17886382 -0.21824668 1.723 -2.1023697e+38
0.18214573 -0.21824668 1.723 -2.115662e+38
0.18542764 -0.21824668 1.723 -2.1156101e+38
0.18870954 -0.21824668 1.723 -2.1022661e+38
0.19199145 -0.21824668 1.723 -2.1023182e+38
0.19436668 -0.21723334 1.715 -2.1155588e+38
0.19763334 -0.21723334 1.715 -2.115559e+38
0.19984573 -0.21609335 1.7060001 -2.1286953e+38
0.20214286 -0.21508001 1.6980001 -2.1286951e+38
0.20537716 -0.21508001 1.6980001 -2.1287468e+38
0.20861144 -0.21508001 1.6980001 -2.1154024e+38
0.21184573 -0.21508001 1.6980001 -2.1154541e+38
0.21508001 -0.21508001 1.6980001 -2.1022135e+38
0.21728572 -0.21406668 1.6900001 -2.1022657e+38
0.22050478 -0.21406668 1.6900001 -2.0889736e+38
0.22372383 -0.21406668 1.6900001 -2.0756298e+38
0.22694287 -0.21406668 1.6900001 -2.0889223e+38
0.23016192 -0.21406668 1.6900001 -2.102215e+38
0.23448573 -0.21508001 1.6980001 -2.1154555e+38
0.23660001 -0.21406668 1.6900001 -2.1419882e+38
0.23981906 -0.21406668 1.6900001 -2.1552802e+38
0.24303812 -0.21406668 1.6900001 -2.168624e+38
0.24494573 -0.21292669 1.6810001 -2.1553314e+38
0.24814764 -0.21292669 1.6810001 -2.1553835e+38
0.25134954 -0.21292669 1.6810001 -2.1554356e+38
0.25455144 -0.21292669 1.6810001 -2.1554879e+38
0.25652668 -0.21191335 1.6730001 -2.1421959e+38
0.25971335 -0.21191335 1.6730001 -2.1421437e+38
0.26290002 -0.21191335 1.6730001 -2.1421435e+38
0.2660867 -0.21191335 1.6730001 -2.1421431e+38
0.26927334 -0.21191335 1.6730001 -2.1420908e+38
0.27246001 -0.21191335 1.6730001 -2.1553835e+38
0.27564669 -0.21191335 1.6730001 -2.1553318e+38
0.27883336 -0.21191335 1.6730001 -2.1553845e+38
0.28202003 -0.21191335 1.6730001 -2.1553853e+38
0.28657049 -0.21292669 1.6810001 -2.1554898e+38
0.28977239 -0.21292669 1.6810001 -2.1689382e+38
0.29297429 -0.21292669 1.6810001 -2.1690944e+38
0.2961762 -0.21292669 1.6810001 -2.2090755e+38
0.30098099 -0.21406668 1.6900001 -2.2624521e+38
0.30420002 -0.21406668 1.6900001 -2.275744e+38
0.30741906 -0.21406668 1.6900001 -2.2889839e+38
0.30898383 -0.21292669 1.6810001 -2.3023277e+38
0.31385717 -0.21406668 1.6900001 -2.3288601e+38
0.31707621 -0.21406668 1.6900001 -2.3421522e+38
0.31858954 -0.21292669 1.6810001 -2.3687895e+38
0.32179144 -0.21292669 1.6810001 -2.368998e+38
0.32673335 -0.21406668 1.6900001 -2.3691544e+38
0.32995239 -0.21406668 1.6900001 -2.3823434e+38
0.33317146 -0.21406668 1.6900001 -2.3955319e+38
0.33798289 -0.21508001 1.6980001 -2.3823952e+38
0.34121716 -0.21508001 1.6980001 -2.3823954e+38
0.34607431 -0.21609335 1.7060001 -2.3823956e+38
0.34932384 -0.21609335 1.7060001 -2.3824998e+38
0.35443336 -0.21723334 1.715 -2.3825519e+38
0.35770002 -0.21723334 1.715 -2.3958961e+38
0.36265051 -0.21824668 1.723 -2.4092923e+38
0.3659324 -0.21824668 1.723 -2.4358255e+38
0.37114289 -0.21938668 1.7320001 -2.4758587e+38
0.37444192 -0.21938668 1.7320001 -2.5292364e+38
0.37970382 -0.22052668 1.7410001 -2.4361391e+38
0.38500002 -0.22166668 1.7500001 -2.3563319e+38
0.38833335 -0.22166668 1.7500001 -2.449376e+38
0.39569527 -0.22394668 1.7680001 -2.5444646e+38
0.39906287 -0.22394668 1.7680001 nan
0.40447909 -0.22508667 1.7770001 nan
0.40579811 -0.22394668 1.7680001 nan
0.41333145 -0.22622669 1.7860001 nan
0.10167715 -0.23367906 1.8730001 -2.3426755e+38
0.10468286 -0.23243144 1.863 -2.3157788e+38
0.10706953 -0.22993621 1.8430001 -2.3156745e+38
0.11058 -0.22993621 1.8430001 -2.3155697e+38
0.11347143 -0.22868858 1.8330001 -2.3022245e+38
0.11575048 -0.22631811 1.8140001 -2.2755872e+38
0.11920572 -0.22631811 1.8140001 -2.2754308e+38
0.12198477 -0.22507049 1.8040001 -2.262087e+38
0.12479524 -0.22394763 1.7950001 -2.2620874e+38
0.1282143 -0.22394763 1.7950001 -2.2487951e+38
0.13097334 -0.22282478 1.7860001 -2.2221586e+38
0.13437524 -0.22282478 1.7860001 -2.1954702e+38
0.13708286 -0.22170192 1.7770001 -2.1953664e+38
0.14046763 -0.22170192 1.7770001 -2.1820216e+38
0.1438524 -0.22170192 1.7770001 -2.1820729e+38
0.14723715 -0.22170192 1.7770001 -2.1686766e+38
0.14985906 -0.22057906 1.7680001 -2.1553322e+38
0.15322667 -0.22057906 1.7680001 -2.1420918e+38
0.15579715 -0.21945621 1.7590001 -2.1421437e+38
0.15914764 -0.21945621 1.7590001 -2.1421437e+38
0.16166668 -0.21833335 1.7500001 -2.1421957e+38
0.16415145 -0.21721049 1.7410001 -2.1289034e+38
0.16660191 -0.21608764 1.7320001 -2.1024229e+38
0.16990097 -0.21608764 1.7320001 -2.0758381e+38
0.17320001 -0.21608764 1.7320001 -2.1024225e+38
0.17649905 -0.21608764 1.7320001 -2.1157143e+38
0.17886382 -0.21496478 1.723 -2.1422985e+38
0.18214573 -0.21496478 1.723 -2.1555392e+38
0.18542764 -0.21496478 1.723 -2.1688317e+38
0.18870954 -0.21496478 1.723 -2.1688321e+38
0.19110002 -0.21396668 1.715 -2.1555922e+38
0.19436668 -0.21396668 1.715 -2.128904e+38
0.19763334 -0.21396668 1.715 -2.1289042e+38
0.19984573 -0.21284382 1.7060001 -2.1287482e+38
0.20214286 -0.21184573 1.6980001 -2.128748e+38
0.20537716 -0.21184573 1.6980001 -2.1154032e+38
0.20861144 -0.21184573 1.6980001 -2.1020586e+38
0.21184573 -0.21184573 1.6980001 -2.0888702e+38
0.21406668 -0.21084763 1.6900001 -2.0756298e+38
0.21728572 -0.21084763 1.6900001 -2.0623894e+38
0.22050478 -0.21084763 1.6900001 -2.0756819e+38
0.22372383 -0.21084763 1.6900001 -2.0756821e+38
0.22694287 -0.21084763 1.6900001 -2.0756306e+38
0.23016192 -0.21084763 1.6900001 -2.0756306e+38
0.23448573 -0.21184573 1.6980001 -2.0889231e+38
0.23660001 -0.21084763 1.6900001 -2.1021634e+38
0.23854192 -0.20972477 1.6810001 -2.1287478e+38
0.24174383 -0.20972477 1.6810001 -2.1553841e+38
0.24494573 -0.20972477 1.6810001 -2.1420918e+38
0.24814764 -0.20972477 1.6810001 -2.1289036e+38
0.25134954 -0.20972477 1.6810001 -2.1422482e+38
0.25455144 -0.20972477 1.6810001 -2.1421965e+38
0.25775334 -0.20972477 1.6810001 -2.1554891e+38
0.25971335 -0.20872667 1.6730001 -2.1686772e+38
0.26290002 -0.20872667 1.6730001 -2.1553845e+38
0.2660867 -0.20872667 1.6730001 -2.1420916e+38
0.26927334 -0.20872667 1.6730001 -2.1553311e+38
0.27246001 -0.20872667 1.6730001 -2.1553314e+38
0.27564669 -0.20872667 1.6730001 -2.1553314e+38
0.27883336 -0.20872667 1.6730001 -2.15528e+38
0.28202003 -0.20872667 1.6730001 -2.1551251e+38
0.28520668 -0.20872667 1.6730001 -2.1554889e+38
0.28839335 -0.20872667 1.6730001 -2.142405e+38
0.29158002 -0.20872667 1.6730001 -2.1292171e+38
0.2961762 -0.20972477 1.6810001 -2.1824909e+38
0.29937813 -0.20972477 1.6810001 -2.2224714e+38
0.30420002 -0.21084763 1.6900001 -2.262348e+38
0.30741906 -0.21084763 1.6900001 -2.289036e+38
0.30898383 -0.20972477 1.6810001 -2.3156202e+38
0.31218573 -0.20972477 1.6810001 -2.3422565e+38
0.31538764 -0.20972477 1.6810001 -2.3688408e+38
0.31858954 -0.20972477 1.6810001 -2.3822897e+38
0.32026002 -0.20872667 1.6730001 -2.3825501e+38
0.32499334 -0.20972477 1.6810001 -2.3824988e+38
0.32819527 -0.20972477 1.6810001 -2.4091359e+38
0.33317146 -0.21084763 1.6900001 -2.4223762e+38
0.33798289 -0.21184573 1.6980001 -2.422532e+38
0.34121716 -0.21184573 1.6980001 -2.4091359e+38
0.34607431 -0.21284382 1.7060001 -2.3958438e+38
0.34932384 -0.21284382 1.7060001 -2.3826035e+38
0.35257336 -0.21284382 1.7060001 -2.3959996e+38
0.35582289 -0.21284382 1.7060001 -2.4093438e+38
0.36096668 -0.21396668 1.715 -2.4492728e+38
0.3659324 -0.21496478 1.723 -2.47591e+38
0.37114289 -0.21608764 1.7320001 -2.5158913e+38
0.37444192 -0.21608764 1.7320001 -2.542581e+38
0.37970382 -0.21721049 1.7410001 -2.5559783e+38
0.38302001 -0.21721049 1.7410001 -2.5689566e+38
0.38833335 -0.21833335 1.7500001 -2.2490051e+38
0.39368099 -0.21945621 1.7590001 -1.9192072e+38
0.39703146 -0.21945621 1.7590001 -3.347002e+38
0.4024305 -0.22057906 1.7680001 nan
0.40579811 -0.22057906 1.7680001 nan
0.40916574 -0.22057906 1.7680001 nan
0.10113429 -0.22888288 1.863 -2.4088246e+38
0.10412096 -0.22765431 1.853 -2.3687917e+38
0.10706953 -0.22642572 1.8430001 -2.3554471e+38
0.10998001 -0.22519715 1.8330001 -2.3287579e+38
0.11347143 -0.22519715 1.8330001 -2.3155168e+38
0.11638858 -0.22409144 1.8240001 -2.2888795e+38
0.11920572 -0.22286287 1.8140001 -2.2887748e+38
0.12198477 -0.2216343 1.8040001 -2.2754829e+38
0.12542096 -0.2216343 1.8040001 -2.2621391e+38
0.1282143 -0.22052859 1.7950001 -2.2355024e+38
0.13097334 -0.21942288 1.7860001 -2.2088658e+38
0.13437524 -0.21942288 1.7860001 -2.1954698e+38
0.13777715 -0.21942288 1.7860001 -2.1821258e+38
0.14046763 -0.21831715 1.7770001 -2.1687295e+38
0.1438524 -0.21831715 1.7770001 -2.1554887e+38
0.14723715 -0.21831715 1.7770001 -2.1553851e+38
0.14985906 -0.21721144 1.7680001 -2.1420928e+38
0.15322667 -0.21721144 1.7680001 -2.1421447e+38
0.15579715 -0.21610573 1.7590001 -2.1420926e+38
0.15914764 -0.21610573 1.7590001 -2.1420924e+38
0.16166668 -0.21500002 1.7500001 -2.1289036e+38
0.16415145 -0.21389429 1.7410001 -2.1156632e+38
0.16660191 -0.21278858 1.7320001 -2.1023709e+38
0.16990097 -0.21278858 1.7320001 -2.1023709e+38
0.17320001 -0.21278858 1.7320001 -2.1157151e+38
0.17558192 -0.21168287 1.723 -2.1290068e+38
0.17886382 -0.21168287 1.723 -2.1422466e+38
0.18214573 -0.21168287 1.723 -2.1688317e+38
0.18542764 -0.21168287 1.723 -2.1555401e+38
0.18870954 -0.21168287 1.723 -2.1555407e+38
0.19110002 -0.21070002 1.715 -2.1421969e+38
0.19436668 -0.21070002 1.715 -2.1420934e+38
0.19763334 -0.21070002 1.715 -2.1288014e+38
0.19984573 -0.20959429 1.7060001 -2.1286973e+38
0.20214286 -0.20861144 1.6980001 -2.1419892e+38
0.20537716 -0.20861144 1.6980001 -2.1552806e+38
0.20861144 -0.20861144 1.6980001 -2.1552798e+38
0.21084763 -0.20762858 1.6900001 -2.15528e+38
0.21406668 -0.20762858 1.6900001 -2.1287995e+38
0.21728572 -0.20762858 1.6900001 -2.1022669e+38
0.22050478 -0.20762858 1.6900001 -2.1022669e+38
0.22372383 -0.20762858 1.6900001 -2.1155596e+38
0.22694287 -0.20762858 1.6900001 -2.1155079e+38
0.22893621 -0.20652287 1.6810001 -2.1154559e+38
0.23338097 -0.20762858 1.6900001 -2.1288001e+38
0.23660001 -0.20762858 1.6900001 -2.1420405e+38
0.23981906 -0.20762858 1.6900001 -2.1554364e+38
0.24174383 -0.20652287 1.6810001 -2.1687808e+38
0.24494573 -0.20652287 1.6810001 -2.1554885e+38
0.24814764 -0.20652287 1.6810001 -2.1555409e+38
0.25134954 -0.20652287 1.6810001 -2.1554894e+38
0.25455144 -0.20652287 1.6810001 -2.1686782e+38
0.25775334 -0.20652287 1.6810001 -2.1686786e+38
0.25971335 -0.20554002 1.6730001 -2.1818145e+38
0.26290002 -0.20554002 1.6730001 -2.1686774e+38
0.2660867 -0.20554002 1.6730001 -2.1687283e+38
0.26927334 -0.20554002 1.6730001 -2.1686754e+38
0.27246001 -0.20554002 1.6730001 -2.1685715e+38
0.27564669 -0.20554002 1.6730001 -2.1686232e+38
0.27883336 -0.20554002 1.6730001 -2.1685719e+38
0.28202003 -0.20554002 1.6730001 -2.1553839e+38
0.28520668 -0.20554002 1.6730001 -2.1556441e+38
0.28839335 -0.20554002 1.6730001 -2.1556966e+38
0.29158002 -0.20554002 1.6730001 -2.1557496e+38
0.2961762 -0.20652287 1.6810001 -2.1824388e+38
0.30098099 -0.20762858 1.6900001 -2.2090753e+38
0.30420002 -0.20762858 1.6900001 -2.2490558e+38
0.30578193 -0.20652287 1.6810001 -2.2757959e+38
0.30751336 -0.20554002 1.6730001 -2.3156723e+38
0.31070003 -0.20554002 1.6730001 -2.3423605e+38
0.31538764 -0.20652287 1.6810001 -2.3556526e+38
0.31707335 -0.20554002 1.6730001 -2.3823418e+38
0.32026002 -0.20554002 1.6730001 -2.3823945e+38
0.32499334 -0.20652287 1.6810001 -2.3823952e+38
0.32819527 -0.20652287 1.6810001 -2.3957917e+38
0.33317146 -0.20762858 1.6900001 -2.4224803e+38
0.3363905 -0.20762858 1.6900001 -2.4224803e+38
0.34121716 -0.20861144 1.6980001 -2.4224286e+38
0.34445146 -0.20861144 1.6980001 -2.4224805e+38
0.34768572 -0.20861144 1.6980001 -2.4358762e+38
0.35092002 -0.20861144 1.6980001 -2.4359277e+38
0.35582289 -0.20959429 1.7060001 -2.4492723e+38
0.35907242 -0.20959429 1.7060001 -2.475961e+38
0.36423334 -0.21070002 1.715 -2.5025982e+38
0.3692143 -0.21168287 1.723 -2.5425278e+38
0.37444192 -0.21278858 1.7320001 -2.5824582e+38
0.37970382 -0.21389429 1.7410001 -2.5959598e+38
0.38302001 -0.21389429 1.7410001 -2.6226973e+38
0.38633621 -0.21389429 1.7410001 -2.2624527e+38
0.39166668 -0.21500002 1.7500001 -1.8890911e+38
0.39703146 -0.21610573 1.7590001 -3.2386374e+38
0.4024305 -0.21721144 1.7680001 nan
0.40579811 -0.21721144 1.7680001 nan
0.40916574 -0.21721144 1.7680001 nan
0.097585723 -0.2253343 1.863 -2.5425286e+38
0.10113429 -0.2253343 1.863 -2.4880594e+38
0.10412096 -0.22412477 1.853 -2.421857e+38
0.10706953 -0.22291525 1.8430001 -2.3819798e+38
0.10998001 -0.22170573 1.8330001 -2.3421023e+38
0.11347143 -0.22170573 1.8330001 -2.3288612e+38
0.11638858 -0.22061716 1.8240001 -2.3021723e+38
0.11920572 -0.21940763 1.8140001 -2.3020679e+38
0.12198477 -0.21819811 1.8040001 -2.2887756e+38
0.12479524 -0.21710953 1.7950001 -2.2621911e+38
0.1282143 -0.21710953 1.7950001 -2.2222621e+38
0.13163334 -0.21710953 1.7950001 -2.2089179e+38
0.13437524 -0.21602097 1.7860001 -2.1822293e+38
0.13777715 -0.21602097 1.7860001 -2.1688851e+38
0.14117905 -0.21602097 1.7860001 -2.1422486e+38
0.1438524 -0.2149324 1.7770001 -2.1422488e+38
0.14723715 -0.2149324 1.7770001 -2.1288525e+38
0.15062192 -0.2149324 1.7770001 -2.1420409e+38
0.15322667 -0.21384382 1.7680001 -2.1420928e+38
0.15579715 -0.21275525 1.7590001 -2.1420409e+38
0.15914764 -0.21275525 1.7590001 -2.1421445e+38
0.16166668 -0.21166667 1.7500001 -2.1156638e+38
0.16415145 -0.21057811 1.7410001 -2.0890791e+38
0.16660191 -0.20948954 1.7320001 -2.1156636e+38
0.16990097 -0.20948954 1.7320001 -2.1289559e+38
0.17320001 -0.20948954 1.7320001 -2.1289559e+38
0.17558192 -0.20840096 1.723 -2.1289555e+38
0.17886382 -0.20840096 1.723 -2.1554358e+38
0.18214573 -0.20840096 1.723 -2.1687802e+38
0.18542764 -0.20840096 1.723 -2.1554881e+38
0.18870954 -0.20840096 1.723 -2.1289038e+38
0.19110002 -0.20743334 1.715 -2.1421965e+38
0.19436668 -0.20743334 1.715 -2.1421447e+38
0.19763334 -0.20743334 1.715 -2.1421451e+38
0.19984573 -0.20634477 1.7060001 -2.1287482e+38
0.20214286 -0.20537716 1.6980001 -2.15528e+38
0.20537716 -0.20537716 1.6980001 -2.1818638e+38
0.20861144 -0.20537716 1.6980001 -2.1951555e+38
0.21084763 -0.20440954 1.6900001 -2.2084999e+38
0.21406668 -0.20440954 1.6900001 -2.1819676e+38
0.21728572 -0.20440954 1.6900001 -2.1420912e+38
0.22050478 -0.20440954 1.6900001 -2.1420916e+38
0.22372383 -0.20440954 1.6900001 -2.1421435e+38
0.22694287 -0.20440954 1.6900001 -2.1421437e+38
0.22893621 -0.20332097 1.6810001 -2.142092e+38
0.23338097 -0.20440954 1.6900001 -2.1687287e+38
0.23660001 -0.20440954 1.6900001 -2.182021e+38
0.23981906 -0.20440954 1.6900001 -2.1820729e+38
0.24303812 -0.20440954 1.6900001 -2.1687806e+38
0.24494573 -0.20332097 1.6810001 -2.1687289e+38
0.24814764 -0.20332097 1.6810001 -2.1687812e+38
0.25134954 -0.20332097 1.6810001 -2.1820739e+38
0.25455144 -0.20332097 1.6810001 -2.1820224e+38
0.25775334 -0.20332097 1.6810001 -2.1819192e+38
0.25971335 -0.20235334 1.6730001 -2.1819703e+38
0.26290002 -0.20235334 1.6730001 -2.1953139e+38
0.2660867 -0.20235334 1.6730001 -2.1953131e+38
0.26927334 -0.20235334 1.6730001 -2.1952603e+38
0.27246001 -0.20235334 1.6730001 -2.18202e+38
0.27564669 -0.20235334 1.6730001 -2.1820721e+38
0.2775 -0.20138572 1.6650001 -2.16878e+38
0.28202003 -0.20235334 1.6730001 -2.1688323e+38
0.28520668 -0.20235334 1.6730001 -2.1556445e+38
0.28839335 -0.20235334 1.6730001 -2.1689893e+38
0.29158002 -0.20235334 1.6730001 -2.1823341e+38
0.2961762 -0.20332097 1.6810001 -2.195627e+38
0.29937813 -0.20332097 1.6810001 -2.1957828e+38
0.30258003 -0.20332097 1.6810001 -2.2357635e+38
0.30578193 -0.20332097 1.6810001 -2.2623998e+38
0.30898383 -0.20332097 1.6810001 -2.3022766e+38
0.31218573 -0.20332097 1.6810001 -2.3422052e+38
0.31538764 -0.20332097 1.6810001 -2.3555494e+38
0.31858954 -0.20332097 1.6810001 -2.368998e+38
0.32026002 -0.20235334 1.6730001 -2.3822909e+38
0.32499334 -0.20332097 1.6810001 -2.3823952e+38
0.32819527 -0.20332097 1.6810001 -2.3957917e+38
0.33317146 -0.20440954 1.6900001 -2.4091363e+38
0.3363905 -0.20440954 1.6900001 -2.4224809e+38
0.33960953 -0.20440954 1.6900001 -2.422533e+38
0.34445146 -0.20537716 1.6980001 -2.449118e+38
0.34768572 -0.20537716 1.6980001 -2.475806e+38
0.35092002 -0.20537716 1.6980001 -2.48915e+38
0.35582289 -0.20634477 1.7060001 -2.489254e+38
0.36096668 -0.20743334 1.715 -2.5025985e+38
0.3659324 -0.20840096 1.723 -2.5159437e+38
0.37114289 -0.20948954 1.7320001 -2.569114e+38
0.37444192 -0.20948954 1.7320001 -2.6091998e+38
0.37970382 -0.21057811 1.7410001 -2.6491817e+38
0.38302001 -0.21057811 1.7410001 -2.6755559e+38
0.38633621 -0.21057811 1.7410001 -2.2756428e+38
0.39166668 -0.21166667 1.7500001 -1.8652061e+38
0.39703146 -0.21275525 1.7590001 -3.133439e+38
0.4024305 -0.21384382 1.7680001 nan
0.40579811 -0.21384382 1.7680001 nan
0.40916574 -0.21384382 1.7680001 nan
0.094541907 -0.22297621 1.8730001 -2.8362131e+38
0.097585723 -0.22178572 1.863 -2.4764339e+38
0.10113429 -0.22178572 1.863 -2.4488578e+38
0.10412096 -0.22059526 1.853 -2.4353572e+38
0.10706953 -0.21940477 1.8430001 -2.395324e+38
0.10998001 -0.2182143 1.8330001 -2.3552908e+38
0.11347143 -0.2182143 1.8330001 -2.3420498e+38
0.11575048 -0.2159524 1.8140001 -2.3153612e+38
0.11920572 -0.2159524 1.8140001 -2.3154129e+38
0.12198477 -0.21476191 1.8040001 -2.3020683e+38
0.12479524 -0.21369049 1.7950001 -2.2754833e+38
0.1282143 -0.21369049 1.7950001 -2.2488988e+38
0.13163334 -0.21369049 1.7950001 -2.2089698e+38
0.13437524 -0.21261907 1.7860001 -2.1822293e+38
0.13847144 -0.21369049 1.7950001 -2.1556443e+38
0.14117905 -0.21261907 1.7860001 -2.1290602e+38
0.1438524 -0.21154763 1.7770001 -2.1289567e+38
0.14723715 -0.21154763 1.7770001 -2.1289046e+38
0.14985906 -0.2104762 1.7680001 -2.1288525e+38
0.15322667 -0.2104762 1.7680001 -2.1421449e+38
0.15579715 -0.20940478 1.7590001 -2.1421449e+38
0.15914764 -0.20940478 1.7590001 -2.1421449e+38
0.16166668 -0.20833334 1.7500001 -2.1422488e+38
0.16415145 -0.20726192 1.7410001 -2.1289563e+38
0.16660191 -0.2061905 1.7320001 -2.1422484e+38
0.16990097 -0.2061905 1.7320001 -2.1421967e+38
0.17320001 -0.2061905 1.7320001 -2.1422486e+38
0.17558192 -0.20511906 1.723 -2.1555407e+38
0.17886382 -0.20511906 1.723 -2.1554883e+38
0.18214573 -0.20511906 1.723 -2.1554883e+38
0.18542764 -0.20511906 1.723 -2.1554881e+38
0.18870954 -0.20511906 1.723 -2.1554881e+38
0.19110002 -0.20416668 1.715 -2.1688323e+38
0.19436668 -0.20416668 1.715 -2.1687808e+38
0.19763334 -0.20416668 1.715 -2.1819697e+38
0.19984573 -0.20309526 1.7060001 -2.1818125e+38
0.20214286 -0.20214286 1.6980001 -2.1819149e+38
0.20537716 -0.20214286 1.6980001 -2.1951548e+38
0.20861144 -0.20214286 1.6980001 -2.1951542e+38
0.21084763 -0.20119049 1.6900001 -2.2084988e+38
0.21406668 -0.20119049 1.6900001 -2.1819145e+38
0.21728572 -0.20119049 1.6900001 -2.1685711e+38
0.22050478 -0.20119049 1.6900001 -2.1686758e+38
0.22372383 -0.20119049 1.6900001 -2.1686758e+38
0.22694287 -0.20119049 1.6900001 -2.1686756e+38
0.23016192 -0.20119049 1.6900001 -2.1819163e+38
0.23338097 -0.20119049 1.6900001 -2.1820206e+38
0.23660001 -0.20119049 1.6900001 -2.1820727e+38
0.23981906 -0.20119049 1.6900001 -2.1687804e+38
0.24303812 -0.20119049 1.6900001 -2.1687287e+38
0.24494573 -0.20011906 1.6810001 -2.1687806e+38
0.24814764 -0.20011906 1.6810001 -2.1820214e+38
0.25134954 -0.20011906 1.6810001 -2.1820218e+38
0.25455144 -0.20011906 1.6810001 -2.1820745e+38
0.25775334 -0.20011906 1.6810001 -2.1820232e+38
0.25971335 -0.19916669 1.6730001 -2.168782e+38
0.26290002 -0.19916669 1.6730001 -2.1821252e+38
0.2660867 -0.19916669 1.6730001 -2.1954169e+38
0.26927334 -0.19916669 1.6730001 -2.1954163e+38
0.27246001 -0.19916669 1.6730001 -2.1954167e+38
0.27564669 -0.19916669 1.6730001 -2.1821246e+38
0.27883336 -0.19916669 1.6730001 -2.1821248e+38
0.28202003 -0.19916669 1.6730001 -2.1555924e+38
0.28520668 -0.19916669 1.6730001 -2.1423526e+38
0.28839335 -0.19916669 1.6730001 -2.1556453e+38
0.29158002 -0.19916669 1.6730001 -2.1822822e+38
0.2961762 -0.20011906 1.6810001 -2.1823345e+38
0.29937813 -0.20011906 1.6810001 -2.1824386e+38
0.30258003 -0.20011906 1.6810001 -2.2223674e+38
0.30578193 -0.20011906 1.6810001 -2.2622442e+38
0.30751336 -0.19916669 1.6730001 -2.2889326e+38
0.31070003 -0.19916669 1.6730001 -2.3155174e+38
0.31538764 -0.20011906 1.6810001 -2.3422577e+38
0.31707335 -0.19916669 1.6730001 -2.3689984e+38
0.32026002 -0.19916669 1.6730001 -2.3690508e+38
0.32344669 -0.19916669 1.6730001 -2.3824473e+38
0.32819527 -0.20011906 1.6810001 -2.3957917e+38
0.33139718 -0.20011906 1.6810001 -2.4091367e+38
0.3363905 -0.20119049 1.6900001 -2.4092931e+38
0.33960953 -0.20119049 1.6900001 -2.4093973e+38
0.34445146 -0.20214286 1.6980001 -2.4492227e+38
0.34768572 -0.20214286 1.6980001 -2.475807e+38
0.35092002 -0.20214286 1.6980001 -2.4759107e+38
0.35582289 -0.20309526 1.7060001 -2.4760666e+38
0.35907242 -0.20309526 1.7060001 -2.4894108e+38
0.36423334 -0.20416668 1.715 -2.5161009e+38
0.3692143 -0.20511906 1.723 -2.5693752e+38
0.37444192 -0.2061905 1.7320001 -2.622649e+38
0.37970382 -0.20726192 1.7410001 -2.649338e+38
0.38302001 -0.20726192 1.7410001 -2.6761283e+38
0.38833335 -0.20833334 1.7500001 -2.276423e+38
0.39166668 -0.20833334 1.7500001 -1.8773037e+38
0.39703146 -0.20940478 1.7590001 -2.8919948e+38
0.40038192 -0.20940478 1.7590001 nan
0.40579811 -0.2104762 1.7680001 nan
0.40916574 -0.2104762 1.7680001 nan
0.094541907 -0.21940859 1.8730001 -2.6484566e+38
0.098109528 -0.21940859 1.8730001 -2.3959e+38
0.10113429 -0.21823716 1.863 -2.4220661e+38
0.10412096 -0.21706572 1.853 -2.4486499e+38
0.10706953 -0.2158943 1.8430001 -2.4086684e+38
0.10998001 -0.21472287 1.8330001 -2.3687388e+38
0.11347143 -0.21472287 1.8330001 -2.355394e+38
0.11638858 -0.21366858 1.8240001 -2.3287573e+38
0.11920572 -0.21249716 1.8140001 -2.3287571e+38
0.12198477 -0.21132573 1.8040001 -2.3154125e+38
0.12542096 -0.21132573 1.8040001 -2.2888275e+38
0.1282143 -0.21027145 1.7950001 -2.2621908e+38
0.13163334 -0.21027145 1.7950001 -2.222314e+38
0.13505238 -0.21027145 1.7950001 -2.1823331e+38
0.13847144 -0.21027145 1.7950001 -2.1424044e+38
0.14117905 -0.20921716 1.7860001 -2.1024756e+38
0.14458096 -0.20921716 1.7860001 -2.115664e+38
0.14723715 -0.20816287 1.7770001 -2.1156638e+38
0.14985906 -0.20710859 1.7680001 -2.1289557e+38
0.15244667 -0.2060543 1.7590001 -2.1289557e+38
0.15579715 -0.2060543 1.7590001 -2.1422482e+38
0.15914764 -0.2060543 1.7590001 -2.1422484e+38
0.16166668 -0.20500001 1.7500001 -2.1555928e+38
0.16415145 -0.20394573 1.7410001 -2.1688329e+38
0.16660191 -0.20289144 1.7320001 -2.1688327e+38
0.16990097 -0.20289144 1.7320001 -2.1554887e+38
0.17320001 -0.20289144 1.7320001 -2.1687814e+38
0.17649905 -0.20289144 1.7320001 -2.1688331e+38
0.17886382 -0.20183715 1.723 -2.1555407e+38
0.18214573 -0.20183715 1.723 -2.1422484e+38
0.18542764 -0.20183715 1.723 -2.1688329e+38
0.18870954 -0.20183715 1.723 -2.182125e+38
0.19110002 -0.20090002 1.715 -2.195469e+38
0.19436668 -0.20090002 1.715 -2.1953652e+38
0.19659621 -0.19984573 1.7060001 -2.221898e+38
0.19984573 -0.19984573 1.7060001 -2.2351376e+38
0.20214286 -0.19890858 1.6980001 -2.2218964e+38
0.20537716 -0.19890858 1.6980001 -2.1952074e+38
0.20861144 -0.19890858 1.6980001 -2.1951548e+38
0.21084763 -0.19797145 1.6900001 -2.1951551e+38
0.21406668 -0.19797145 1.6900001 -2.1951553e+38
0.21728572 -0.19797145 1.6900001 -2.1952076e+38
0.22050478 -0.19797145 1.6900001 -2.1952601e+38
0.22372383 -0.19797145 1.6900001 -2.1819678e+38
0.22694287 -0.19797145 1.6900001 -2.195312e+38
0.23016192 -0.19797145 1.6900001 -2.2086047e+38
0.23338097 -0.19797145 1.6900001 -2.1954165e+38
0.23660001 -0.19797145 1.6900001 -2.1687802e+38
0.23981906 -0.19797145 1.6900001 -2.1687285e+38
0.24174383 -0.19691716 1.6810001 -2.1687806e+38
0.24494573 -0.19691716 1.6810001 -2.1821252e+38
0.24814764 -0.19691716 1.6810001 -2.1820739e+38
0.25134954 -0.19691716 1.6810001 -2.1819705e+38
0.25455144 -0.19691716 1.6810001 -2.1820745e+38
0.25652668 -0.19598001 1.6730001 -2.1687824e+38
0.25971335 -0.19598001 1.6730001 -2.1555415e+38
0.26290002 -0.19598001 1.6730001 -2.1821774e+38
0.2660867 -0.19598001 1.6730001 -2.1954692e+38
0.26927334 -0.19598001 1.6730001 -2.1954688e+38
0.27246001 -0.19598001 1.6730001 -2.1954173e+38
0.27564669 -0.19598001 1.6730001 -2.1954179e+38
0.27883336 -0.19598001 1.6730001 -2.182178e+38
0.28202003 -0.19598001 1.6730001 -2.1555938e+38
0.28520668 -0.19598001 1.6730001 -2.1290614e+38
0.28839335 -0.19598001 1.6730001 -2.1555942e+38
0.29158002 -0.19598001 1.6730001 -2.1689903e+38
0.2961762 -0.19691716 1.6810001 -2.1690421e+38
0.29937813 -0.19691716 1.6810001 -2.1691459e+38
0.30114001 -0.19598001 1.6730001 -2.2223669e+38
0.30432668 -0.19598001 1.6730001 -2.2622438e+38
0.30751336 -0.19598001 1.6730001 -2.2755882e+38
0.31070003 -0.19598001 1.6730001 -2.2889326e+38
0.3138867 -0.19598001 1.6730001 -2.3288618e+38
0.31707335 -0.19598001 1.6730001 -2.3556025e+38
0.32026002 -0.19598001 1.6730001 -2.3689471e+38
0.32344669 -0.19598001 1.6730001 -2.3824471e+38
0.32819527 -0.19691716 1.6810001 -2.3958434e+38
0.33139718 -0.19691716 1.6810001 -2.4092921e+38
0.33459908 -0.19691716 1.6810001 -2.4094482e+38
0.33960953 -0.19797145 1.6900001 -2.3961044e+38
0.3428286 -0.19797145 1.6900001 -2.4359819e+38
0.34768572 -0.19890858 1.6980001 -2.4758587e+38
0.35092002 -0.19890858 1.6980001 -2.4759107e+38
0.35582289 -0.19984573 1.7060001 -2.4627224e+38
0.35907242 -0.19984573 1.7060001 -2.4893591e+38
0.3659324 -0.20183715 1.723 -2.5029122e+38
0.37114289 -0.20289144 1.7320001 -2.5695306e+38
0.37444192 -0.20289144 1.7320001 -2.6227001e+38
0.37970382 -0.20394573 1.7410001 -2.6493372e+38
0.38302001 -0.20394573 1.7410001 -2.6626281e+38
0.38833335 -0.20500001 1.7500001 -2.2766313e+38
0.39368099 -0.2060543 1.7590001 -1.8915801e+38
0.39703146 -0.2060543 1.7590001 -2.664359e+38
0.4024305 -0.20710859 1.7680001 nan
0.40579811 -0.20710859 1.7680001 nan
0.41124859 -0.20816287 1.7770001 nan
0.095046669 -0.21699335 1.8830001 -2.4759133e+38
0.098109528 -0.21584097 1.8730001 -2.3955353e+38
0.10113429 -0.21468858 1.863 -2.4088262e+38
0.10412096 -0.2135362 1.853 -2.4220655e+38
0.10706953 -0.21238382 1.8430001 -2.395428e+38
0.10998001 -0.21123144 1.8330001 -2.3687907e+38
0.11291429 -0.2101943 1.8240001 -2.3554457e+38
0.11638858 -0.2101943 1.8240001 -2.3421013e+38
0.11920572 -0.20904192 1.8140001 -2.3420492e+38
0.12198477 -0.20788954 1.8040001 -2.3287046e+38
0.12542096 -0.20788954 1.8040001 -2.3021196e+38
0.1282143 -0.20685239 1.7950001 -2.2754312e+38
0.13163334 -0.20685239 1.7950001 -2.2355544e+38
0.13437524 -0.20581526 1.7860001 -2.208866e+38
0.13847144 -0.20685239 1.7950001 -2.1689891e+38
0.14117905 -0.20581526 1.7860001 -2.1290602e+38
0.1438524 -0.20477811 1.7770001 -2.1157675e+38
0.14723715 -0.20477811 1.7770001 -2.1157671e+38
0.14985906 -0.20374097 1.7680001 -2.1290589e+38
0.15244667 -0.20270382 1.7590001 -2.1422993e+38
0.15579715 -0.20270382 1.7590001 -2.1556435e+38
0.15914764 -0.20270382 1.7590001 -2.1689362e+38
0.16166668 -0.20166668 1.7500001 -2.1688847e+38
0.16415145 -0.20062953 1.7410001 -2.1821248e+38
0.16746762 -0.20062953 1.7410001 -2.1821246e+38
0.16990097 -0.1995924 1.7320001 -2.1820214e+38
0.17320001 -0.1995924 1.7320001 -2.1687814e+38
0.17649905 -0.1995924 1.7320001 -2.1687814e+38
0.17886382 -0.19855525 1.723 -2.1555411e+38
0.18214573 -0.19855525 1.723 -2.1422488e+38
0.18542764 -0.19855525 1.723 -2.1555411e+38
0.18870954 -0.19855525 1.723 -2.1688329e+38
0.19110002 -0.19763334 1.715 -2.1688325e+38
0.19436668 -0.19763334 1.715 -2.1686766e+38
0.19659621 -0.19659621 1.7060001 -2.1819686e+38
0.19984573 -0.19659621 1.7060001 -2.1952088e+38
0.20214286 -0.1956743 1.6980001 -2.1952605e+38
0.20537716 -0.1956743 1.6980001 -2.1818638e+38
0.20861144 -0.1956743 1.6980001 -2.181863e+38
0.21084763 -0.1947524 1.6900001 -2.1951555e+38
0.21406668 -0.1947524 1.6900001 -2.1952074e+38
0.21728572 -0.1947524 1.6900001 -2.2085518e+38
0.22050478 -0.1947524 1.6900001 -2.1952597e+38
0.22372383 -0.1947524 1.6900001 -2.1819676e+38
0.22694287 -0.1947524 1.6900001 -2.1819678e+38
0.22893621 -0.19371524 1.6810001 -2.1953122e+38
0.23338097 -0.1947524 1.6900001 -2.1687798e+38
0.23660001 -0.1947524 1.6900001 -2.1554358e+38
0.23981906 -0.1947524 1.6900001 -2.1554879e+38
0.24174383 -0.19371524 1.6810001 -2.1688327e+38
0.24494573 -0.19371524 1.6810001 -2.1821776e+38
0.24814764 -0.19371524 1.6810001 -2.1954185e+38
0.25134954 -0.19371524 1.6810001 -2.1953672e+38
0.25334001 -0.19279334 1.6730001 -2.195367e+38
0.25652668 -0.19279334 1.6730001 -2.1954704e+38
0.25971335 -0.19279334 1.6730001 -2.195522e+38
0.26290002 -0.19279334 1.6730001 -2.1954177e+38
0.2660867 -0.19279334 1.6730001 -2.2087098e+38
0.26927334 -0.19279334 1.6730001 -2.2087096e+38
0.27246001 -0.19279334 1.6730001 -2.1953662e+38
0.27564669 -0.19279334 1.6730001 -2.1821264e+38
0.2775 -0.19187143 1.6650001 -2.1555944e+38
0.28202003 -0.19279334 1.6730001 -2.1423547e+38
0.28520668 -0.19279334 1.6730001 -2.1291143e+38
0.28839335 -0.19279334 1.6730001 -2.1291143e+38
0.29158002 -0.19279334 1.6730001 -2.1424579e+38
0.2961762 -0.19371524 1.6810001 -2.1558015e+38
0.29937813 -0.19371524 1.6810001 -2.1824897e+38
0.30114001 -0.19279334 1.6730001 -2.2223663e+38
0.30432668 -0.19279334 1.6730001 -2.2622434e+38
0.30751336 -0.19279334 1.6730001 -2.2755878e+38
0.31070003 -0.19279334 1.6730001 -2.3022768e+38
0.31538764 -0.19371524 1.6810001 -2.3288618e+38
0.31858954 -0.19371524 1.6810001 -2.3555506e+38
0.32026002 -0.19279334 1.6730001 -2.3691029e+38
0.32499334 -0.19371524 1.6810001 -2.3826028e+38
0.32819527 -0.19371524 1.6810001 -2.3959471e+38
0.33139718 -0.19371524 1.6810001 -2.4093436e+38
0.33459908 -0.19371524 1.6810001 -2.422688e+38
0.33960953 -0.1947524 1.6900001 -2.4226367e+38
0.3428286 -0.1947524 1.6900001 -2.4492736e+38
0.34768572 -0.1956743 1.6980001 -2.4758583e+38
0.35092002 -0.1956743 1.6980001 -2.4759624e+38
0.35582289 -0.19659621 1.7060001 -2.489307e+38
0.35907242 -0.19659621 1.7060001 -2.5160475e+38
0.3659324 -0.19855525 1.723 -2.5428927e+38
0.37114289 -0.1995924 1.7320001 -2.5827704e+38
0.37444192 -0.1995924 1.7320001 -2.6226476e+38
0.37970382 -0.20062953 1.7410001 -2.6494403e+38
0.38302001 -0.20062953 1.7410001 -2.6762838e+38
0.38633621 -0.20062953 1.7410001 -2.3965221e+38
0.39166668 -0.20166668 1.7500001 -2.1303195e+38
0.39703146 -0.20270382 1.7590001 -2.7038669e+38
0.40038192 -0.20270382 1.7590001 -3.2658918e+38
0.40579811 -0.20374097 1.7680001 nan
0.40916574 -0.20374097 1.7680001 nan
0.092480004 -0.21578668 1.904 -2.1967241e+38
0.095046669 -0.21340668 1.8830001 -2.3027492e+38
0.098633341 -0.21340668 1.8830001 -2.3956382e+38
0.10113429 -0.21114001 1.863 -2.3955852e+38
0.10412096 -0.21000668 1.853 -2.3955325e+38
0.10706953 -0.20887335 1.8430001 -2.3820838e+38
0.10998001 -0.20774001 1.8330001 -2.3687907e+38
0.11291429 -0.20672001 1.8240001 -2.368738e+38
0.11575048 -0.20558669 1.8140001 -2.3553934e+38
0.11920572 -0.20558669 1.8140001 -2.3552891e+38
0.12198477 -0.20445335 1.8040001 -2.3419965e+38
0.12542096 -0.20445335 1.8040001 -2.3154117e+38
0.1282143 -0.20343335 1.7950001 -2.2754827e+38
0.13163334 -0.20343335 1.7950001 -2.2488462e+38
0.13505238 -0.20343335 1.7950001 -2.22221e+38
0.13847144 -0.20343335 1.7950001 -2.1956256e+38
0.14117905 -0.20241335 1.7860001 -2.1556964e+38
0.14458096 -0.20241335 1.7860001 -2.1291117e+38
0.14723715 -0.20139335 1.7770001 -2.1025265e+38
0.14985906 -0.20037335 1.7680001 -2.1291107e+38
0.15244667 -0.19935335 1.7590001 -2.1424029e+38
0.15579715 -0.19935335 1.7590001 -2.1689875e+38
0.15914764 -0.19935335 1.7590001 -2.1822798e+38
0.16166668 -0.19833335 1.7500001 -2.1821761e+38
0.16415145 -0.19731335 1.7410001 -2.1821763e+38
0.16746762 -0.19731335 1.7410001 -2.1954688e+38
0.16990097 -0.19629334 1.7320001 -2.1954173e+38
0.17320001 -0.19629334 1.7320001 -2.1821254e+38
0.17558192 -0.19527334 1.723 -2.1687814e+38
0.17886382 -0.19527334 1.723 -2.1555413e+38
0.18214573 -0.19527334 1.723 -2.142249e+38
0.18542764 -0.19527334 1.723 -2.142249e+38
0.18870954 -0.19527334 1.723 -2.1422486e+38
0.19110002 -0.19436668 1.715 -2.1422484e+38
0.19436668 -0.19436668 1.715 -2.1289038e+38
0.19763334 -0.19436668 1.715 -2.1421437e+38
0.19984573 -0.19334668 1.7060001 -2.155436e+38
0.20214286 -0.19244002 1.6980001 -2.1686764e+38
0.20537716 -0.19244002 1.6980001 -2.168676e+38
0.20861144 -0.19244002 1.6980001 -2.1819159e+38
0.21084763 -0.19153334 1.6900001 -2.1819157e+38
0.21406668 -0.19153334 1.6900001 -2.1953118e+38
0.21728572 -0.19153334 1.6900001 -2.2085522e+38
0.22050478 -0.19153334 1.6900001 -2.1952599e+38
0.22372383 -0.19153334 1.6900001 -2.181968e+38
0.22694287 -0.19153334 1.6900001 -2.1819165e+38
0.22893621 -0.19051334 1.6810001 -2.1687283e+38
0.23338097 -0.19153334 1.6900001 -2.1554364e+38
0.23660001 -0.19153334 1.6900001 -2.1289557e+38
0.23854192 -0.19051334 1.6810001 -2.1422999e+38
0.24174383 -0.19051334 1.6810001 -2.1556443e+38
0.24494573 -0.19051334 1.6810001 -2.1822293e+38
0.24814764 -0.19051334 1.6810001 -2.195522e+38
0.25134954 -0.19051334 1.6810001 -2.1954704e+38
0.25455144 -0.19051334 1.6810001 -2.1954704e+38
0.25652668 -0.18960668 1.6730001 -2.2088146e+38
0.25971335 -0.18960668 1.6730001 -2.2220027e+38
0.26290002 -0.18960668 1.6730001 -2.2218984e+38
0.2660867 -0.18960668 1.6730001 -2.2220023e+38
0.26927334 -0.18960668 1.6730001 -2.20871e+38
0.27246001 -0.18960668 1.6730001 -2.19547e+38
0.27564669 -0.18960668 1.6730001 -2.1688861e+38
0.2775 -0.18870001 1.6650001 -2.1290097e+38
0.28202003 -0.18960668 1.6730001 -2.1290103e+38
0.28520668 -0.18960668 1.6730001 -2.1158216e+38
0.28839335 -0.18960668 1.6730001 -2.1158214e+38
0.29158002 -0.18960668 1.6730001 -2.1026326e+38
0.29476669 -0.18960668 1.6730001 -2.1558532e+38
0.29795337 -0.18960668 1.6730001 -2.1957299e+38
0.30114001 -0.18960668 1.6730001 -2.2356067e+38
0.30432668 -0.18960668 1.6730001 -2.2622434e+38
0.30751336 -0.18960668 1.6730001 -2.2888283e+38
0.31070003 -0.18960668 1.6730001 -2.3021732e+38
0.3138867 -0.18960668 1.6730001 -2.3287585e+38
0.31858954 -0.19051334 1.6810001 -2.3423108e+38
0.32026002 -0.18960668 1.6730001 -2.3692071e+38
0.32499334 -0.19051334 1.6810001 -2.3825515e+38
0.32819527 -0.19051334 1.6810001 -2.3958959e+38
0.33139718 -0.19051334 1.6810001 -2.4092919e+38
0.33459908 -0.19051334 1.6810001 -2.4359283e+38
0.33960953 -0.19153334 1.6900001 -2.4492732e+38
0.3428286 -0.19153334 1.6900001 -2.4625658e+38
0.34768572 -0.19244002 1.6980001 -2.4759102e+38
0.35092002 -0.19244002 1.6980001 -2.4892545e+38
0.35582289 -0.19334668 1.7060001 -2.502651e+38
0.36096668 -0.19436668 1.715 -2.5425802e+38
0.3659324 -0.19527334 1.723 -2.5692692e+38
0.37114289 -0.19629334 1.7320001 -2.5959065e+38
0.37444192 -0.19629334 1.7320001 -2.6094594e+38
0.37774098 -0.19629334 1.7320001 -2.6495447e+38
0.38302001 -0.19731335 1.7410001 -2.6760254e+38
0.38633621 -0.19731335 1.7410001 -2.5294469e+38
0.39166668 -0.19833335 1.7500001 -2.369632e+38
0.39703146 -0.19935335 1.7590001 -2.7415603e+38
0.40038192 -0.19935335 1.7590001 -3.1054485e+38
0.40579811 -0.20037335 1.7680001 nan
0.40916574 -0.20037335 1.7680001 nan
0.092480004 -0.21216002 1.904 -2.2892472e+38
0.095046669 -0.20982002 1.8830001 -2.3292287e+38
0.098633341 -0.20982002 1.8830001 -2.382397e+38
0.10113429 -0.20759144 1.863 -2.369052e+38
0.10412096 -0.20647715 1.853 -2.3689996e+38
0.10706953 -0.20536287 1.8430001 -2.3556029e+38
0.10998001 -0.20424859 1.8330001 -2.3555504e+38
0.11291429 -0.20324573 1.8240001 -2.3421534e+38
0.11575048 -0.20213144 1.8140001 -2.342049e+38
0.11854858 -0.20101716 1.8040001 -2.3420482e+38
0.12198477 -0.20101716 1.8040001 -2.3287038e+38
0.12542096 -0.20101716 1.8040001 -2.3020671e+38
0.1282143 -0.20001429 1.7950001 -2.2887229e+38
0.13163334 -0.20001429 1.7950001 -2.2621381e+38
0.13505238 -0.20001429 1.7950001 -2.2487424e+38
0.13847144 -0.20001429 1.7950001 -2.2222102e+38
0.14117905 -0.19901145 1.7860001 -2.1956252e+38
0.14458096 -0.19901145 1.7860001 -2.1823325e+38
0.14723715 -0.19800858 1.7770001 -2.1690398e+38
0.14985906 -0.19700573 1.7680001 -2.1690392e+38
0.15244667 -0.19600287 1.7590001 -2.1689873e+38
0.15579715 -0.19600287 1.7590001 -2.1823832e+38
0.15914764 -0.19600287 1.7590001 -2.1956755e+38
0.16166668 -0.19500001 1.7500001 -2.1955714e+38
0.16500001 -0.19500001 1.7500001 -2.2087605e+38
0.16746762 -0.19399716 1.7410001 -2.2087609e+38
0.16990097 -0.1929943 1.7320001 -2.2220017e+38
0.17320001 -0.1929943 1.7320001 -2.2087096e+38
0.17558192 -0.19199145 1.723 -2.2086063e+38
0.17886382 -0.19199145 1.723 -2.1820741e+38
0.18214573 -0.19199145 1.723 -2.1687818e+38
0.18542764 -0.19199145 1.723 -2.1554894e+38
0.18783334 -0.19110002 1.715 -2.1288527e+38
0.19110002 -0.19110002 1.715 -2.1289044e+38
0.19436668 -0.19110002 1.715 -2.128904e+38
0.19659621 -0.19009715 1.7060001 -2.1289034e+38
0.19984573 -0.19009715 1.7060001 -2.1289036e+38
0.20214286 -0.18920572 1.6980001 -2.1421441e+38
0.20537716 -0.18920572 1.6980001 -2.1554883e+38
0.20861144 -0.18920572 1.6980001 -2.1686766e+38
0.21084763 -0.1883143 1.6900001 -2.1819165e+38
0.21406668 -0.1883143 1.6900001 -2.181968e+38
0.21728572 -0.1883143 1.6900001 -2.1952082e+38
0.22050478 -0.1883143 1.6900001 -2.1952599e+38
0.22372383 -0.1883143 1.6900001 -2.1820202e+38
0.22694287 -0.1883143 1.6900001 -2.1687285e+38
0.22893621 -0.18731144 1.6810001 -2.1687289e+38
0.23213811 -0.18731144 1.6810001 -2.1554889e+38
0.23534001 -0.18731144 1.6810001 -2.1423003e+38
0.23854192 -0.18731144 1.6810001 -2.1556443e+38
0.24174383 -0.18731144 1.6810001 -2.182281e+38
0.24494573 -0.18731144 1.6810001 -2.1955214e+38
0.24696669 -0.18642001 1.6730001 -2.2088658e+38
0.25015336 -0.18642001 1.6730001 -2.2087619e+38
0.25334001 -0.18642001 1.6730001 -2.2220027e+38
0.25652668 -0.18642001 1.6730001 -2.2087625e+38
0.25971335 -0.18642001 1.6730001 -2.2086585e+38
0.26290002 -0.18642001 1.6730001 -2.2086581e+38
0.2660867 -0.18642001 1.6730001 -2.2087102e+38
0.26927334 -0.18642001 1.6730001 -2.1954698e+38
0.27246001 -0.18642001 1.6730001 -2.1822299e+38
0.27564669 -0.18642001 1.6730001 -2.1556455e+38
0.27883336 -0.18642001 1.6730001 -2.1423019e+38
0.28202003 -0.18642001 1.6730001 -2.1157697e+38
0.28520668 -0.18642001 1.6730001 -2.1025289e+38
0.28839335 -0.18642001 1.6730001 -2.0892882e+38
0.29158002 -0.18642001 1.6730001 -2.0760476e+38
0.29476669 -0.18642001 1.6730001 -2.115976e+38
0.29795337 -0.18642001 1.6730001 -2.1691451e+38
0.30114001 -0.18642001 1.6730001 -2.2090219e+38
0.30432668 -0.18642001 1.6730001 -2.2356069e+38
0.30751336 -0.18642001 1.6730001 -2.2622438e+38
0.31070003 -0.18642001 1.6730001 -2.2888813e+38
0.31538764 -0.18731144 1.6810001 -2.3022265e+38
0.31858954 -0.18731144 1.6810001 -2.3157267e+38
0.32179144 -0.18731144 1.6810001 -2.3424153e+38
0.32499334 -0.18731144 1.6810001 -2.369156e+38
0.32819527 -0.18731144 1.6810001 -2.3958446e+38
0.33317146 -0.1883143 1.6900001 -2.4225326e+38
0.3363905 -0.1883143 1.6900001 -2.4492206e+38
0.33960953 -0.1883143 1.6900001 -2.4626174e+38
0.34445146 -0.18920572 1.6980001 -2.47591e+38
0.34768572 -0.18920572 1.6980001 -2.5025985e+38
0.35092002 -0.18920572 1.6980001 -2.5025985e+38
0.35582289 -0.19009715 1.7060001 -2.5159431e+38
0.36096668 -0.19110002 1.715 -2.5425799e+38
0.36423334 -0.19110002 1.715 -2.5691651e+38
0.37114289 -0.1929943 1.7320001 -2.595958e+38
0.37444192 -0.1929943 1.7320001 -2.6095113e+38
0.37774098 -0.1929943 1.7320001 -2.6494415e+38
0.38302001 -0.19399716 1.7410001 -2.6893191e+38
0.38633621 -0.19399716 1.7410001 -2.5427931e+38
0.39166668 -0.19500001 1.7500001 -2.4095085e+38
0.39500004 -0.19500001 1.7500001 -2.7293037e+38
0.40038192 -0.19600287 1.7590001 -3.0645839e+38
0.40579811 -0.19700573 1.7680001 nan
