# .PCD v0.7 - Point Cloud Data file format
VERSION 0.7
FIELDS x y z rgb
SIZE 4 4 4 4
TYPE F F F F
COUNT 1 1 1 1
WIDTH 1237
HEIGHT 1
VIEWPOINT 0 0 0 1 0 0 0
POINTS 1237
DATA ascii
2.1601982 -0.42902857 1.9994359 nan
2.1601796 -0.43277901 1.9994359 nan
2.138181 -0.43246031 1.9909502 nan
2.1271727 -0.43411326 1.9867074 nan
2.1271544 -0.43780085 1.9867074 nan
2.1161463 -0.43939099 1.9824646 nan
2.1061375 -0.44113183 1.9786074 nan
2.1061194 -0.4447794 1.9786074 nan
2.0951118 -0.44626668 1.9743645 nan
2.095094 -0.44989333 1.9743645 nan
2.0950758 -0.45351994 1.9743645 nan
2.095058 -0.45714656 1.9743645 nan
2.0950398 -0.46077317 1.9743645 nan
2.085032 -0.46234062 1.9705074 nan
2.0950038 -0.46802643 1.9743645 nan
2.0849962 -0.4695558 1.9705074 nan
2.0849783 -0.47316337 1.9705074 nan
2.0849602 -0.47677094 1.9705074 nan
2.0849423 -0.48037854 1.9705074 nan
2.0739362 -0.48159534 1.9662645 nan
2.0739186 -0.48518196 1.9662645 nan
2.0639114 -0.48655707 1.9624074 nan
2.0638938 -0.49012464 1.9624074 nan
2.0538871 -0.49144259 1.9585502 nan
2.0538695 -0.49499115 1.9585502 nan
2.0538518 -0.49853966 1.9585502 nan
2.0538342 -0.50208819 1.9585502 nan
2.043828 -0.50331092 1.9546931 nan
2.0438106 -0.50684041 1.9546931 nan
2.043793 -0.5103699 1.9546931 nan
2.0337873 -0.51151645 1.9508359 nan
2.0337698 -0.51502687 1.9508359 nan
2.0337524 -0.51853728 1.9508359 nan
2.023747 -0.51960766 1.9469788 nan
2.0237296 -0.52309901 1.9469788 nan
2.0237122 -0.52659041 1.9469788 nan
2.023695 -0.53008181 1.9469788 nan
2.0236776 -0.53357321 1.9469788 nan
2.0146716 -0.53478277 1.9435074 nan
2.0146544 -0.538257 1.9435074 nan
2.014637 -0.54173124 1.9435074 nan
2.0146198 -0.54520553 1.9435074 nan
2.0046153 -0.54606825 1.9396503 nan
2.0045981 -0.54952347 1.9396503 nan
1.9945942 -0.55032903 1.9357932 nan
1.9945772 -0.55376518 1.9357932 nan
1.9945601 -0.55720133 1.9357932 nan
1.9855549 -0.55820143 1.9323217 nan
1.985538 -0.56162041 1.9323217 nan
1.985521 -0.5650394 1.9323217 nan
1.985504 -0.56845844 1.9323217 nan
1.9854871 -0.57187742 1.9323217 -3.3967284e+38
1.9764825 -0.57277465 1.9288502 -3.370196e+38
1.9764657 -0.57617652 1.9288502 -3.3568e+38
1.9764488 -0.5795784 1.9288502 -3.3437676e+38
1.976432 -0.58298022 1.9288502 -3.3307341e+38
1.976415 -0.58638203 1.9288502 -3.3039408e+38
1.9763981 -0.58978397 1.9288502 -3.277408e+38
1.9763813 -0.59318578 1.9288502 -3.2770443e+38
1.9763644 -0.59658766 1.9288502 -3.2898691e+38
1.9763474 -0.59998953 1.9288502 -3.3034206e+38
1.9673437 -0.60071534 1.9253788 -3.3034727e+38
1.9763137 -0.60679322 1.9288502 -3.3037323e+38
1.9673101 -0.60748482 1.9253788 -3.2905964e+38
1.9672933 -0.61086953 1.9253788 -3.2775122e+38
1.9672765 -0.61425424 1.9253788 -3.26422e+38
1.9582734 -0.61487716 1.9219074 -3.25072e+38
1.9582566 -0.61824477 1.9219074 -3.2505125e+38
1.9492537 -0.61881626 1.9184359 -3.2906492e+38
1.949237 -0.62216669 1.9184359 -3.330786e+38
1.9492204 -0.62551713 1.9184359 -3.3706633e+38
1.9492037 -0.62886757 1.9184359 nan
1.9491872 -0.632218 1.9184359 nan
1.9491705 -0.63556844 1.9184359 nan
1.9401683 -0.63601989 1.9149646 nan
1.9491372 -0.64226931 1.9184359 -3.3834872e+38
1.9401351 -0.64268655 1.9149646 -3.3699867e+38
1.9401186 -0.64601982 1.9149646 -3.3432978e+38
1.940102 -0.64935309 1.9149646 -3.3432974e+38
1.9400855 -0.65268642 1.9149646 -3.3433494e+38
1.940069 -0.65601969 1.9149646 -3.3437128e+38
1.9400524 -0.65935296 1.9149646 -3.3441815e+38
1.9400358 -0.66268629 1.9149646 -3.3307868e+38
1.9400192 -0.66601956 1.9149646 -3.3040469e+38
1.9400028 -0.66935283 1.9149646 -3.3037875e+38
1.9399862 -0.67268616 1.9149646 -3.3037354e+38
1.9309849 -0.6729148 1.9114931 -3.2505659e+38
1.9399531 -0.6793527 1.9149646 -3.2110529e+38
1.930952 -0.67954713 1.9114931 -3.2647414e+38
1.9309355 -0.68286324 1.9114931 -3.3314626e+38
1.9309191 -0.68617946 1.9114931 -3.3978723e+38
1.9219184 -0.68630522 1.9080217 nan
1.9219021 -0.68960422 1.9080217 nan
1.9308697 -0.69612789 1.9114931 nan
1.9308532 -0.699444 1.9114931 nan
1.9398208 -0.7060191 1.9149646 nan
1.9308203 -0.70607632 1.9114931 -3.1833155e+38
1.9487714 -0.71597892 1.9184359 -2.7972181e+38
1.9487548 -0.7193293 1.9184359 -2.8770774e+38
1.9487381 -0.72267973 1.9184359 -2.9568317e+38
1.9487214 -0.72603017 1.9184359 -2.9966051e+38
1.9487048 -0.72938061 1.9184359 -3.0232418e+38
1.9486881 -0.73273104 1.9184359 -3.0498783e+38
1.9486716 -0.73608148 1.9184359 -3.0765663e+38
1.9396719 -0.73601866 1.9149646 -3.1299427e+38
1.9396553 -0.73935199 1.9149646 -3.1832686e+38
1.9396387 -0.74268526 1.9149646 -3.2495753e+38
1.9396222 -0.74601853 1.9149646 -3.3160371e+38
1.9396057 -0.74935186 1.9149646 -3.3828102e+38
1.9306064 -0.74918628 1.9114931 nan
1.9305898 -0.75250244 1.9114931 nan
1.9305733 -0.75581855 1.9114931 nan
1.9215745 -0.7555843 1.9080217 nan
1.9305404 -0.76245087 1.9114931 nan
1.930524 -0.76576698 1.9114931 nan
1.9305075 -0.7690832 1.9114931 nan
1.9304911 -0.77239931 1.9114931 nan
1.9304746 -0.77571547 1.9114931 nan
1.9304582 -0.77903163 1.9114931 nan
1.9394237 -0.78601807 1.9149646 nan
1.9394071 -0.78935134 1.9149646 nan
1.9393905 -0.79268467 1.9149646 nan
1.939374 -0.79601794 1.9149646 nan
1.9393575 -0.79935122 1.9149646 nan
1.9393409 -0.80268455 1.9149646 nan
1.9393244 -0.80601782 1.9149646 nan
1.9393078 -0.80935109 1.9149646 nan
1.93031 -0.80887693 1.9114931 nan
2.20631 -0.40665719 2.0133407 nan
2.1943007 -0.40848142 2.0087349 nan
2.1942816 -0.41229659 2.0087349 nan
2.1942627 -0.41611183 2.0087349 nan
2.1942437 -0.419927 2.0087349 nan
2.1832345 -0.42181236 2.004513 nan
2.1832156 -0.42560661 2.004513 nan
2.1712072 -0.42724988 1.9999074 nan
2.1601982 -0.42902857 1.9956855 nan
2.1491895 -0.43076542 1.9914637 nan
2.1271911 -0.4304257 1.9830198 nan
2.1271727 -0.43411326 1.9830198 nan
2.1161644 -0.43572438 1.9787979 nan
2.1161463 -0.43939099 1.9787979 nan
2.1061375 -0.44113183 1.9749599 nan
2.09513 -0.44264007 1.9707379 nan
2.0951118 -0.44626668 1.9707379 nan
2.095094 -0.44989333 1.9707379 nan
2.0850856 -0.45151794 1.9668998 nan
2.0850677 -0.45512548 1.9668998 nan
2.0850499 -0.45873308 1.9668998 nan
2.074043 -0.46007559 1.9626778 nan
2.0740254 -0.46366224 1.9626778 nan
2.0740075 -0.46724883 1.9626778 nan
2.0739896 -0.47083548 1.9626778 nan
2.073972 -0.47442207 1.9626778 nan
2.0739541 -0.47800872 1.9626778 nan
2.063947 -0.47942191 1.9588398 nan
2.0639293 -0.48298949 1.9588398 nan
2.0639114 -0.48655707 1.9588398 nan
2.0638938 -0.49012464 1.9588398 nan
2.0538871 -0.49144259 1.9550016 nan
2.0538695 -0.49499115 1.9550016 nan
2.0538518 -0.49853966 1.9550016 nan
2.0538342 -0.50208819 1.9550016 nan
2.0538166 -0.50563675 1.9550016 nan
2.0438106 -0.50684041 1.9511635 nan
2.043793 -0.5103699 1.9511635 nan
2.0337873 -0.51151645 1.9473255 nan
2.0337698 -0.51502687 1.9473255 nan
2.0337524 -0.51853728 1.9473255 nan
2.023747 -0.51960766 1.9434874 nan
2.0237296 -0.52309901 1.9434874 nan
2.0237122 -0.52659041 1.9434874 nan
2.023695 -0.53008181 1.9434874 nan
2.0236776 -0.53357321 1.9434874 nan
2.0146716 -0.53478277 1.9400331 nan
2.0146544 -0.538257 1.9400331 nan
2.014637 -0.54173124 1.9400331 nan
2.0046325 -0.54261309 1.936195 nan
2.0046153 -0.54606825 1.936195 nan
1.9946113 -0.54689288 1.9323568 nan
1.9945942 -0.55032903 1.9323568 nan
1.9855889 -0.55136341 1.9289026 nan
1.985572 -0.55478239 1.9289026 nan
1.976567 -0.55576533 1.9254484 nan
1.9765501 -0.55916721 1.9254484 nan
1.9765332 -0.56256908 1.9254484 nan
1.9765164 -0.5659709 1.9254484 nan
1.9764994 -0.56937277 1.9254484 nan
1.9764825 -0.57277465 1.9254484 nan
1.9764657 -0.57617652 1.9254484 -3.3835402e+38
1.9674613 -0.57702231 1.921994 -3.357215e+38
1.9674445 -0.58040702 1.921994 -3.3173378e+38
1.9674277 -0.58379173 1.921994 -3.3172854e+38
1.9674109 -0.58717644 1.921994 -3.3038893e+38
1.9673941 -0.59056121 1.921994 -3.3169739e+38
1.9673773 -0.59394592 1.921994 -3.330266e+38
1.9673605 -0.59733063 1.921994 -3.343714e+38
1.958357 -0.59803927 1.9185398 -3.3437658e+38
1.9673269 -0.60410011 1.921994 -3.3572657e+38
1.9583235 -0.60477442 1.9185398 -3.3573698e+38
1.9583068 -0.60814202 1.9185398 -3.3576296e+38
1.9582901 -0.61150956 1.9185398 -3.3440777e+38
1.9492869 -0.61211538 1.9150856 -3.3040453e+38
1.9492702 -0.61546582 1.9150856 -3.2508764e+38
1.9492537 -0.61881626 1.9150856 -3.2909613e+38
1.949237 -0.62216669 1.9150856 -3.3175463e+38
1.9492204 -0.62551713 1.9150856 -3.3574756e+38
1.9492037 -0.62886757 1.9150856 -3.3973527e+38
1.9491872 -0.632218 1.9150856 nan
1.9401847 -0.63268661 1.9116311 nan
1.9401683 -0.63601989 1.9116311 -3.3969884e+38
1.9401517 -0.63935322 1.9116311 -3.3567994e+38
1.9401351 -0.64268655 1.9116311 -3.3432989e+38
1.9401186 -0.64601982 1.9116311 -3.3300583e+38
1.940102 -0.64935309 1.9116311 -3.3300581e+38
1.9400855 -0.65268642 1.9116311 -3.3303696e+38
1.940069 -0.65601969 1.9116311 -3.3440775e+38
1.9400524 -0.65935296 1.9116311 -3.3441304e+38
1.9400358 -0.66268629 1.9116311 -3.3308913e+38
1.9400192 -0.66601956 1.9116311 -3.3170771e+38
1.9400028 -0.66935283 1.9116311 -3.3031592e+38
1.9399862 -0.67268616 1.9116311 -3.2900253e+38
1.9309849 -0.6729148 1.9081769 -3.2102744e+38
1.9309684 -0.67623097 1.9081769 -3.118059e+38
1.930952 -0.67954713 1.9081769 -3.2253317e+38
1.9219512 -0.67970717 1.9047227 -3.3181704e+38
1.9219347 -0.68300617 1.9047227 -3.3978206e+38
1.9219184 -0.68630522 1.9047227 nan
1.9219021 -0.68960422 1.9047227 nan
1.9218856 -0.69290316 1.9047227 nan
1.9308532 -0.699444 1.9081769 nan
1.9398208 -0.7060191 1.9116311 nan
1.9308203 -0.70607632 1.9081769 -3.2092792e+38
1.9487714 -0.71597892 1.9150856 -2.9299342e+38
1.9487548 -0.7193293 1.9150856 -2.9700196e+38
1.9487381 -0.72267973 1.9150856 -3.0098447e+38
1.9487214 -0.72603017 1.9150856 -3.0363775e+38
1.9487048 -0.72938061 1.9150856 -3.0496698e+38
1.9486881 -0.73273104 1.9150856 -3.0629104e+38
1.9486716 -0.73608148 1.9150856 -3.0632736e+38
1.9486549 -0.73943192 1.9150856 -3.1299944e+38
1.9396553 -0.73935199 1.9116311 -3.1830593e+38
1.9396387 -0.74268526 1.9116311 -3.2360205e+38
1.9396222 -0.74601853 1.9116311 -3.2897115e+38
1.9396057 -0.74935186 1.9116311 -3.3832274e+38
1.9395891 -0.75268513 1.9116311 nan
1.9395726 -0.75601846 1.9116311 nan
1.9305733 -0.75581855 1.9081769 nan
1.9305569 -0.75913477 1.9081769 nan
1.939523 -0.76601833 1.9116311 nan
1.930524 -0.76576698 1.9081769 nan
1.9305075 -0.7690832 1.9081769 nan
1.9304911 -0.77239931 1.9081769 nan
1.9304746 -0.77571547 1.9081769 nan
1.9304582 -0.77903163 1.9081769 nan
1.9394237 -0.78601807 1.9116311 nan
1.9304253 -0.7856639 1.9081769 nan
1.9393905 -0.79268467 1.9116311 nan
1.939374 -0.79601794 1.9116311 nan
1.9393575 -0.79935122 1.9116311 nan
1.9393409 -0.80268455 1.9116311 nan
1.9393244 -0.80601782 1.9116311 nan
1.9393078 -0.80935109 1.9116311 nan
1.9392912 -0.81268448 1.9116311 nan
1.9302936 -0.81219316 1.9081769 nan
2.1943195 -0.40466624 2.0049198 nan
2.1943007 -0.40848142 2.0049198 nan
2.1942816 -0.41229659 2.0049198 nan
2.1942627 -0.41611183 2.0049198 nan
2.1832533 -0.4180181 2.0007188 nan
2.1832345 -0.42181236 2.0007188 nan
2.171226 -0.42347851 1.996136 nan
2.1712072 -0.42724988 1.996136 nan
2.1601982 -0.42902857 1.991935 nan
2.1491895 -0.43076542 1.9877341 nan
2.1271911 -0.4304257 1.9793322 nan
2.1271727 -0.43411326 1.9793322 nan
2.1161644 -0.43572438 1.9751313 nan
2.1061556 -0.43748426 1.9713122 nan
2.1061375 -0.44113183 1.9713122 nan
2.09513 -0.44264007 1.9671111 nan
2.0951118 -0.44626668 1.9671111 nan
2.095094 -0.44989333 1.9671111 nan
2.0850856 -0.45151794 1.9632921 nan
2.0850677 -0.45512548 1.9632921 nan
2.0850499 -0.45873308 1.9632921 nan
2.074043 -0.46007559 1.9590912 nan
2.0740254 -0.46366224 1.9590912 nan
2.0740075 -0.46724883 1.9590912 nan
2.0739896 -0.47083548 1.9590912 nan
2.073972 -0.47442207 1.9590912 nan
2.0739541 -0.47800872 1.9590912 nan
2.063947 -0.47942191 1.9552722 nan
2.0639293 -0.48298949 1.9552722 nan
2.0639114 -0.48655707 1.9552722 nan
2.0638938 -0.49012464 1.9552722 nan
2.0538871 -0.49144259 1.9514531 nan
2.0538695 -0.49499115 1.9514531 nan
2.0538518 -0.49853966 1.9514531 nan
2.0538342 -0.50208819 1.9514531 nan
2.0538166 -0.50563675 1.9514531 nan
2.0438106 -0.50684041 1.947634 nan
2.043793 -0.5103699 1.947634 nan
2.0337873 -0.51151645 1.943815 nan
2.0337698 -0.51502687 1.943815 nan
2.0337524 -0.51853728 1.943815 nan
2.023747 -0.51960766 1.939996 nan
2.0237296 -0.52309901 1.939996 nan
2.0237122 -0.52659041 1.939996 nan
2.0147061 -0.5278343 1.9365588 nan
2.0146887 -0.53130853 1.9365588 nan
2.0146716 -0.53478277 1.9365588 nan
2.0146544 -0.538257 1.9365588 nan
2.0046496 -0.53915787 1.9327397 nan
2.0046325 -0.54261309 1.9327397 nan
2.0046153 -0.54606825 1.9327397 nan
1.9946113 -0.54689288 1.9289207 nan
1.9856058 -0.54794437 1.9254836 nan
1.9855889 -0.55136341 1.9254836 nan
1.985572 -0.55478239 1.9254836 nan
1.976567 -0.55576533 1.9220464 nan
1.9765501 -0.55916721 1.9220464 nan
1.9765332 -0.56256908 1.9220464 nan
1.9765164 -0.5659709 1.9220464 nan
1.9764994 -0.56937277 1.9220464 nan
1.9764825 -0.57277465 1.9220464 nan
1.9674782 -0.5736376 1.9186094 nan
1.9674613 -0.57702231 1.9186094 -3.383643e+38
1.9674445 -0.58040702 1.9186094 -3.3571625e+38
1.9584405 -0.58120131 1.9151721 -3.3438704e+38
1.9584239 -0.58456898 1.9151721 -3.3438187e+38
1.958407 -0.58793652 1.9151721 -3.3438187e+38
1.9583904 -0.59130406 1.9151721 -3.3571631e+38
1.9583737 -0.59467173 1.9151721 -3.3572669e+38
1.958357 -0.59803927 1.9151721 -3.3706629e+38
1.9583403 -0.60140681 1.9151721 -3.3973511e+38
1.9583235 -0.60477442 1.9151721 nan
1.9583068 -0.60814202 1.9151721 nan
1.9582901 -0.61150956 1.9151721 -3.3971953e+38
1.9492869 -0.61211538 1.9117351 -3.3441302e+38
1.9492702 -0.61546582 1.9117351 -3.3042538e+38
1.9492537 -0.61881626 1.9117351 -3.3308905e+38
1.949237 -0.62216669 1.9117351 -3.3707681e+38
1.9492204 -0.62551713 1.9117351 -3.3973014e+38
1.9492037 -0.62886757 1.9117351 nan
1.9491872 -0.632218 1.9117351 nan
1.9401847 -0.63268661 1.9082978 nan
1.9401683 -0.63601989 1.9082978 -3.3835408e+38
1.9401517 -0.63935322 1.9082978 -3.3566443e+38
1.9401351 -0.64268655 1.9082978 -3.3433514e+38
1.9401186 -0.64601982 1.9082978 -3.330111e+38
1.940102 -0.64935309 1.9082978 -3.3568512e+38
1.9400855 -0.65268642 1.9082978 -3.3970917e+38
1.940069 -0.65601969 1.9082978 nan
1.9400524 -0.65935296 1.9082978 nan
1.9310508 -0.65965021 1.9048607 -3.3838012e+38
1.9400192 -0.66601956 1.9082978 -3.3435035e+38
1.9400028 -0.66935283 1.9082978 -3.3296346e+38
1.9310014 -0.66959864 1.9048607 -3.3162441e+38
1.9220003 -0.66981018 1.9014236 -3.2638076e+38
1.9309684 -0.67623097 1.9048607 -3.2110533e+38
1.930952 -0.67954713 1.9048607 -3.2913773e+38
1.9309355 -0.68286324 1.9048607 -3.3579432e+38
1.9219347 -0.68300617 1.9014236 -3.3975091e+38
1.9219184 -0.68630522 1.9014236 nan
1.9219021 -0.68960422 1.9014236 nan
1.9308697 -0.69612789 1.9048607 nan
1.9308532 -0.699444 1.9048607 nan
1.9398208 -0.7060191 1.9082978 nan
1.9308203 -0.70607632 1.9048607 -3.1694046e+38
1.9487714 -0.71597892 1.9117351 -2.9027797e+38
1.9487548 -0.7193293 1.9117351 -2.9430194e+38
1.9487381 -0.72267973 1.9117351 -2.9962924e+38
1.9487214 -0.72603017 1.9117351 -2.9963962e+38
1.9487048 -0.72938061 1.9117351 -3.0096366e+38
1.9486881 -0.73273104 1.9117351 -3.0364808e+38
1.9486716 -0.73608148 1.9117351 -3.0501365e+38
1.9486549 -0.73943192 1.9117351 -3.1164941e+38
1.9396553 -0.73935199 1.9082978 -3.1695579e+38
1.9396387 -0.74268526 1.9082978 -3.2230369e+38
1.9396222 -0.74601853 1.9082978 -3.2633862e+38
1.9396057 -0.74935186 1.9082978 -3.3433524e+38
1.9395891 -0.75268513 1.9082978 nan
1.9395726 -0.75601846 1.9082978 nan
1.939556 -0.75935179 1.9082978 nan
1.9305569 -0.75913477 1.9048607 nan
1.939523 -0.76601833 1.9082978 nan
1.930524 -0.76576698 1.9048607 nan
1.9394898 -0.77268493 1.9082978 nan
1.9304911 -0.77239931 1.9048607 nan
1.9304746 -0.77571547 1.9048607 nan
1.9304582 -0.77903163 1.9048607 nan
1.9394237 -0.78601807 1.9082978 nan
1.9394071 -0.78935134 1.9082978 nan
1.9393905 -0.79268467 1.9082978 nan
1.939374 -0.79601794 1.9082978 nan
1.9393575 -0.79935122 1.9082978 nan
1.9393409 -0.80268455 1.9082978 nan
1.9393244 -0.80601782 1.9082978 nan
1.9393078 -0.80935109 1.9082978 nan
1.9392912 -0.81268448 1.9082978 nan
1.9392748 -0.81601775 1.9082978 nan
2.2063291 -0.40281913 2.0056646 nan
2.1943195 -0.40466624 2.0011046 nan
2.1943007 -0.40848142 2.0011046 nan
2.1942816 -0.41229659 2.0011046 nan
2.1832721 -0.41422391 1.9969245 nan
2.1832533 -0.4180181 1.9969245 nan
2.1832345 -0.42181236 1.9969245 nan
2.171226 -0.42347851 1.9923645 nan
2.1712072 -0.42724988 1.9923645 nan
2.1601982 -0.42902857 1.9881845 nan
2.1491895 -0.43076542 1.9840045 nan
2.1271911 -0.4304257 1.9756446 nan
2.1161828 -0.43205774 1.9714645 nan
2.1161644 -0.43572438 1.9714645 nan
2.1061556 -0.43748426 1.9676645 nan
2.1061375 -0.44113183 1.9676645 nan
2.09513 -0.44264007 1.9634845 nan
2.0951118 -0.44626668 1.9634845 nan
2.0851035 -0.44791034 1.9596846 nan
2.0850856 -0.45151794 1.9596846 nan
2.0850677 -0.45512548 1.9596846 nan
2.0850499 -0.45873308 1.9596846 nan
2.074043 -0.46007559 1.9555045 nan
2.0740254 -0.46366224 1.9555045 nan
2.0740075 -0.46724883 1.9555045 nan
2.0739896 -0.47083548 1.9555045 nan
2.0639825 -0.47228676 1.9517045 nan
2.0639646 -0.47585434 1.9517045 nan
2.063947 -0.47942191 1.9517045 nan
2.0639293 -0.48298949 1.9517045 nan
2.0639114 -0.48655707 1.9517045 nan
2.0638938 -0.49012464 1.9517045 nan
2.0538871 -0.49144259 1.9479046 nan
2.0538695 -0.49499115 1.9479046 nan
2.0538518 -0.49853966 1.9479046 nan
2.0538342 -0.50208819 1.9479046 nan
2.0538166 -0.50563675 1.9479046 nan
2.0438106 -0.50684041 1.9441046 nan
2.0338047 -0.50800598 1.9403045 nan
2.0237989 -0.50913352 1.9365046 nan
2.0237815 -0.51262486 1.9365046 nan
2.0237641 -0.51611626 1.9365046 nan
2.023747 -0.51960766 1.9365046 nan
2.0237296 -0.52309901 1.9365046 nan
2.0237122 -0.52659041 1.9365046 nan
2.0147061 -0.5278343 1.9330845 nan
2.0146887 -0.53130853 1.9330845 nan
2.0146716 -0.53478277 1.9330845 nan
2.0046668 -0.53570271 1.9292846 nan
2.0046496 -0.53915787 1.9292846 nan
2.0046325 -0.54261309 1.9292846 nan
1.9946283 -0.54345673 1.9254845 nan
1.9946113 -0.54689288 1.9254845 nan
1.9856058 -0.54794437 1.9220645 nan
1.9855889 -0.55136341 1.9220645 nan
1.985572 -0.55478239 1.9220645 nan
1.976567 -0.55576533 1.9186445 nan
1.9765501 -0.55916721 1.9186445 nan
1.9765332 -0.56256908 1.9186445 nan
1.9765164 -0.5659709 1.9186445 nan
1.9764994 -0.56937277 1.9186445 nan
1.967495 -0.5702529 1.9152246 nan
1.9674782 -0.5736376 1.9152246 nan
1.9584739 -0.57446623 1.9118046 nan
1.9584572 -0.57783377 1.9118046 -3.3970923e+38
1.9584405 -0.58120131 1.9118046 -3.3838e+38
1.9584239 -0.58456898 1.9118046 -3.3705596e+38
1.958407 -0.58793652 1.9118046 -3.3838519e+38
1.9583904 -0.59130406 1.9118046 -3.3839038e+38
1.9583737 -0.59467173 1.9118046 -3.3840077e+38
1.958357 -0.59803927 1.9118046 -3.3840596e+38
1.9583403 -0.60140681 1.9118046 nan
1.9493368 -0.60206407 1.9083846 nan
1.9493202 -0.60541451 1.9083846 nan
1.9582901 -0.61150956 1.9118046 nan
1.9492869 -0.61211538 1.9083846 -3.3975081e+38
1.9492702 -0.61546582 1.9083846 -3.3442353e+38
1.9492537 -0.61881626 1.9083846 -3.3841123e+38
1.949237 -0.62216669 1.9083846 nan
1.9492204 -0.62551713 1.9083846 nan
1.9492037 -0.62886757 1.9083846 nan
1.9402013 -0.62935328 1.9049644 nan
1.9401847 -0.63268661 1.9049644 -3.3969375e+38
1.9401683 -0.63601989 1.9049644 -3.3700406e+38
1.9401517 -0.63935322 1.9049644 -3.3434043e+38
1.9401351 -0.64268655 1.9049644 -3.3433007e+38
1.9401186 -0.64601982 1.9049644 -3.3302161e+38
1.940102 -0.64935309 1.9049644 -3.3966256e+38
1.9400855 -0.65268642 1.9049644 nan
1.940069 -0.65601969 1.9049644 nan
1.9400524 -0.65935296 1.9049644 nan
1.9310508 -0.65965021 1.9015446 nan
1.9310343 -0.66296643 1.9015446 -3.3564323e+38
1.9310179 -0.66628253 1.9015446 -3.3423044e+38
1.9310014 -0.66959864 1.9015446 -3.3297451e+38
1.9309849 -0.6729148 1.9015446 -3.317653e+38
1.9309684 -0.67623097 1.9015446 -3.3043597e+38
1.930952 -0.67954713 1.9015446 -3.357891e+38
1.9309355 -0.68286324 1.9015446 -3.3975606e+38
1.9219347 -0.68300617 1.8981245 nan
1.9219184 -0.68630522 1.8981245 nan
1.9219021 -0.68960422 1.8981245 -3.3967826e+38
1.9308697 -0.69612789 1.9015446 -3.3706657e+38
1.9308532 -0.699444 1.9015446 -3.3709257e+38
1.9308368 -0.70276016 1.9015446 -3.3696747e+38
1.9308203 -0.70607632 1.9015446 -3.1281244e+38
1.9487714 -0.71597892 1.9083846 -2.8761937e+38
1.9487548 -0.7193293 1.9083846 -2.9295704e+38
1.9577217 -0.72600722 1.9118046 -2.9696549e+38
1.9487214 -0.72603017 1.9083846 -2.9697589e+38
1.9487048 -0.72938061 1.9083846 -2.9698632e+38
1.9486881 -0.73273104 1.9083846 -3.01e+38
1.9486716 -0.73608148 1.9083846 -3.0365329e+38
1.9486549 -0.73943192 1.9083846 -3.1029943e+38
1.9486383 -0.74278235 1.9083846 -3.1563186e+38
1.9396387 -0.74268526 1.9049644 -3.1965063e+38
1.9306393 -0.74255395 1.9015446 -3.2364905e+38
1.9306228 -0.74587011 1.9015446 -3.3161435e+38
1.9395891 -0.75268513 1.9049644 -3.3966254e+38
1.9395726 -0.75601846 1.9049644 nan
1.9305733 -0.75581855 1.9015446 nan
1.9305569 -0.75913477 1.9015446 nan
1.939523 -0.76601833 1.9049644 nan
1.9395064 -0.76935166 1.9049644 nan
1.9394898 -0.77268493 1.9049644 nan
1.9394733 -0.7760182 1.9049644 nan
1.9304746 -0.77571547 1.9015446 nan
1.9394403 -0.7826848 1.9049644 nan
1.9394237 -0.78601807 1.9049644 nan
1.9394071 -0.78935134 1.9049644 nan
1.9393905 -0.79268467 1.9049644 nan
1.939374 -0.79601794 1.9049644 nan
1.9393575 -0.79935122 1.9049644 nan
1.9393409 -0.80268455 1.9049644 nan
1.9393244 -0.80601782 1.9049644 nan
1.9393078 -0.80935109 1.9049644 nan
1.9392912 -0.81268448 1.9049644 nan
1.9392748 -0.81601775 1.9049644 nan
2.1943386 -0.40085104 1.9972893 nan
2.1943195 -0.40466624 1.9972893 nan
2.1943007 -0.40848142 1.9972893 nan
2.1942816 -0.41229659 1.9972893 nan
2.1832721 -0.41422391 1.9931302 nan
2.1832533 -0.4180181 1.9931302 nan
2.1712446 -0.41970712 1.9885931 nan
2.171226 -0.42347851 1.9885931 nan
2.1712072 -0.42724988 1.9885931 nan
2.1601982 -0.42902857 1.9844341 nan
2.1491895 -0.43076542 1.980275 nan
2.1271911 -0.4304257 1.971957 nan
2.1161828 -0.43205774 1.9677979 nan
2.1061738 -0.43383667 1.9640169 nan
2.1061556 -0.43748426 1.9640169 nan
2.1061375 -0.44113183 1.9640169 nan
2.09513 -0.44264007 1.9598579 nan
2.0951118 -0.44626668 1.9598579 nan
2.0851035 -0.44791034 1.9560769 nan
2.0740964 -0.44931573 1.9519179 nan
2.0740788 -0.45290235 1.9519179 nan
2.0740609 -0.456489 1.9519179 nan
2.074043 -0.46007559 1.9519179 nan
2.0640354 -0.46158403 1.9481369 nan
2.0640178 -0.46515161 1.9481369 nan
2.0640001 -0.46871918 1.9481369 nan
2.0639825 -0.47228676 1.9481369 nan
2.0639646 -0.47585434 1.9481369 nan
2.063947 -0.47942191 1.9481369 nan
2.0639293 -0.48298949 1.9481369 nan
2.0639114 -0.48655707 1.9481369 nan
2.0539048 -0.48789409 1.944356 nan
2.0538871 -0.49144259 1.944356 nan
2.0538695 -0.49499115 1.944356 nan
2.0538518 -0.49853966 1.944356 nan
2.0538342 -0.50208819 1.944356 nan
2.043828 -0.50331092 1.940575 nan
2.0438106 -0.50684041 1.940575 nan
2.0338047 -0.50800598 1.936794 nan
2.0237989 -0.50913352 1.9330131 nan
2.0237815 -0.51262486 1.9330131 nan
2.0237641 -0.51611626 1.9330131 nan
2.023747 -0.51960766 1.9330131 nan
2.0237296 -0.52309901 1.9330131 nan
2.0147233 -0.52436006 1.9296103 nan
2.0147061 -0.5278343 1.9296103 nan
2.0146887 -0.53130853 1.9296103 nan
2.004684 -0.53224748 1.9258293 nan
1.9946795 -0.53314829 1.9220483 nan
2.0046496 -0.53915787 1.9258293 nan
1.9946454 -0.54002059 1.9220483 nan
1.9946283 -0.54345673 1.9220483 nan
1.9946113 -0.54689288 1.9220483 nan
1.9856058 -0.54794437 1.9186455 nan
1.9855889 -0.55136341 1.9186455 nan
1.985572 -0.55478239 1.9186455 nan
1.976567 -0.55576533 1.9152427 nan
1.9765501 -0.55916721 1.9152427 nan
1.9765332 -0.56256908 1.9152427 nan
1.9765164 -0.5659709 1.9152427 nan
1.9675118 -0.56686813 1.9118397 nan
1.967495 -0.5702529 1.9118397 nan
1.9584907 -0.57109863 1.9084369 nan
1.9584739 -0.57446623 1.9084369 nan
1.9584572 -0.57783377 1.9084369 nan
1.9494532 -0.57861102 1.9050341 -3.3971967e+38
1.9494365 -0.58196145 1.9050341 -3.3839564e+38
1.958407 -0.58793652 1.9084369 -3.3839562e+38
1.9494033 -0.58866233 1.9050341 -3.3973004e+38
1.9493867 -0.59201276 1.9050341 -3.3973523e+38
1.94937 -0.59536326 1.9050341 nan
1.9493535 -0.59871364 1.9050341 nan
1.9493368 -0.60206407 1.9050341 nan
1.9493202 -0.60541451 1.9050341 nan
1.9493035 -0.60876495 1.9050341 nan
1.9492869 -0.61211538 1.9050341 nan
1.9492702 -0.61546582 1.9050341 -3.3973533e+38
1.9402674 -0.61602014 1.9016311 nan
1.940251 -0.61935347 1.9016311 nan
1.9402344 -0.62268674 1.9016311 nan
1.9402179 -0.62602001 1.9016311 nan
1.9402013 -0.62935328 1.9016311 nan
1.9401847 -0.63268661 1.9016311 nan
1.9401683 -0.63601989 1.9016311 nan
1.9401517 -0.63935322 1.9016311 nan
1.9311495 -0.63975328 1.8982284 nan
1.931133 -0.64306951 1.8982284 -3.3970424e+38
1.940102 -0.64935309 1.9016311 nan
1.9400855 -0.65268642 1.9016311 nan
1.9310837 -0.65301794 1.8982284 nan
1.9310672 -0.6563341 1.8982284 nan
1.9310508 -0.65965021 1.8982284 -3.3964688e+38
1.9310343 -0.66296643 1.8982284 -3.3162437e+38
1.9310179 -0.66628253 1.8982284 -3.3293243e+38
1.9310014 -0.66959864 1.8982284 -3.3428305e+38
1.9309849 -0.6729148 1.8982284 -3.3305311e+38
1.9309684 -0.67623097 1.8982284 -3.3043086e+38
1.930952 -0.67954713 1.8982284 -3.3443915e+38
1.9309355 -0.68286324 1.8982284 -3.384061e+38
1.9309191 -0.68617946 1.8982284 -3.3839574e+38
1.9309026 -0.68949556 1.8982284 -3.3971979e+38
1.9308861 -0.69281173 1.8982284 nan
1.9308697 -0.69612789 1.8982284 nan
1.9308532 -0.699444 1.8982284 -3.1705029e+38
1.9398208 -0.7060191 1.9016311 -2.8908922e+38
1.9308203 -0.70607632 1.8982284 -2.8896406e+38
1.9487714 -0.71597892 1.9050341 -2.8898483e+38
1.9577385 -0.72263962 1.9084369 -2.9163809e+38
1.9577217 -0.72600722 1.9084369 -2.9564137e+38
1.957705 -0.72937483 1.9084369 -2.9696541e+38
1.9576883 -0.73274237 1.9084369 -2.9830512e+38
1.9486881 -0.73273104 1.9050341 -3.0096366e+38
1.9486716 -0.73608148 1.9050341 -3.0494098e+38
1.9486549 -0.73943192 1.9050341 -3.1028387e+38
1.9486383 -0.74278235 1.9050341 -3.1562679e+38
1.9396387 -0.74268526 1.9016311 -3.2229372e+38
1.9396222 -0.74601853 1.9016311 -3.3029004e+38
1.9396057 -0.74935186 1.9016311 -3.3562269e+38
1.9395891 -0.75268513 1.9016311 nan
1.9395726 -0.75601846 1.9016311 nan
1.939556 -0.75935179 1.9016311 nan
1.9395394 -0.76268506 1.9016311 nan
1.939523 -0.76601833 1.9016311 nan
1.9395064 -0.76935166 1.9016311 nan
1.9394898 -0.77268493 1.9016311 nan
1.9394733 -0.7760182 1.9016311 nan
1.9304746 -0.77571547 1.8982284 nan
1.9394403 -0.7826848 1.9016311 nan
1.9394237 -0.78601807 1.9016311 nan
1.9394071 -0.78935134 1.9016311 nan
1.9393905 -0.79268467 1.9016311 nan
1.939374 -0.79601794 1.9016311 nan
1.9393575 -0.79935122 1.9016311 nan
1.9393409 -0.80268455 1.9016311 nan
1.9393244 -0.80601782 1.9016311 nan
1.9393078 -0.80935109 1.9016311 nan
1.9392912 -0.81268448 1.9016311 nan
1.9482558 -0.81984234 1.9050341 nan
1.9482392 -0.82319278 1.9050341 nan
2.1943574 -0.39703587 1.993474 nan
2.1943386 -0.40085104 1.993474 nan
2.1943195 -0.40466624 1.993474 nan
2.1943007 -0.40848142 1.993474 nan
2.1942816 -0.41229659 1.993474 nan
2.1832721 -0.41422391 1.989336 nan
2.1832533 -0.4180181 1.989336 nan
2.1832345 -0.42181236 1.989336 nan
2.171226 -0.42347851 1.9848217 nan
2.1712072 -0.42724988 1.9848217 nan
2.1601982 -0.42902857 1.9806836 nan
2.1491895 -0.43076542 1.9765456 nan
2.1271911 -0.4304257 1.9682693 nan
2.1161828 -0.43205774 1.9641311 nan
2.1061738 -0.43383667 1.9603693 nan
2.1061556 -0.43748426 1.9603693 nan
2.1061375 -0.44113183 1.9603693 nan
2.09513 -0.44264007 1.9562311 nan
2.0851214 -0.44430277 1.9524693 nan
2.0851035 -0.44791034 1.9524693 nan
2.0740964 -0.44931573 1.9483311 nan
2.0740788 -0.45290235 1.9483311 nan
2.0740609 -0.456489 1.9483311 nan
2.0640533 -0.45801646 1.9445693 nan
2.0640354 -0.46158403 1.9445693 nan
2.0640178 -0.46515161 1.9445693 nan
2.0640001 -0.46871918 1.9445693 nan
2.0639825 -0.47228676 1.9445693 nan
2.0639646 -0.47585434 1.9445693 nan
2.0539575 -0.47724849 1.9408073 nan
2.0639293 -0.48298949 1.9445693 nan
2.0539224 -0.48434556 1.9408073 nan
2.0539048 -0.48789409 1.9408073 nan
2.0538871 -0.49144259 1.9408073 nan
2.0538695 -0.49499115 1.9408073 nan
2.0538518 -0.49853966 1.9408073 nan
2.0538342 -0.50208819 1.9408073 nan
2.043828 -0.50331092 1.9370455 nan
2.0338221 -0.50449556 1.9332836 nan
2.0338047 -0.50800598 1.9332836 nan
2.0237989 -0.50913352 1.9295217 nan
2.0237815 -0.51262486 1.9295217 nan
2.0237641 -0.51611626 1.9295217 nan
2.023747 -0.51960766 1.9295217 nan
2.0147405 -0.52088583 1.926136 nan
2.0147233 -0.52436006 1.926136 nan
2.0147061 -0.5278343 1.926136 nan
2.0047011 -0.52879226 1.922374 nan
2.004684 -0.53224748 1.922374 nan
1.9946795 -0.53314829 1.9186121 nan
1.9946624 -0.53658444 1.9186121 nan
1.9946454 -0.54002059 1.9186121 nan
1.9856398 -0.5411064 1.9152265 nan
1.9856229 -0.54452538 1.9152265 nan
1.9856058 -0.54794437 1.9152265 nan
1.9855889 -0.55136341 1.9152265 nan
1.985572 -0.55478239 1.9152265 nan
1.976567 -0.55576533 1.9118407 nan
1.9765501 -0.55916721 1.9118407 nan
1.9765332 -0.56256908 1.9118407 nan
1.9765164 -0.5659709 1.9118407 nan
1.9675118 -0.56686813 1.908455 nan
1.9585074 -0.56773108 1.9050694 nan
1.9584907 -0.57109863 1.9050694 nan
1.9584739 -0.57446623 1.9050694 nan
1.9494698 -0.57526058 1.9016836 nan
1.9494532 -0.57861102 1.9016836 nan
1.9494365 -0.58196145 1.9016836 -3.3971971e+38
1.94942 -0.58531195 1.9016836 -3.3971969e+38
1.9494033 -0.58866233 1.9016836 -3.3973008e+38
1.9493867 -0.59201276 1.9016836 nan
1.94937 -0.59536326 1.9016836 nan
1.9493535 -0.59871364 1.9016836 nan
1.9493368 -0.60206407 1.9016836 nan
1.9493202 -0.60541451 1.9016836 nan
1.9493035 -0.60876495 1.9016836 nan
1.9403006 -0.6093536 1.8982978 nan
1.940284 -0.61268687 1.8982978 nan
1.9402674 -0.61602014 1.8982978 nan
1.940251 -0.61935347 1.8982978 nan
1.9402344 -0.62268674 1.8982978 nan
1.9402179 -0.62602001 1.8982978 nan
1.9402013 -0.62935328 1.8982978 nan
1.9401847 -0.63268661 1.8982978 nan
1.9401683 -0.63601989 1.8982978 nan
1.9401517 -0.63935322 1.8982978 nan
1.9311495 -0.63975328 1.8949121 nan
1.931133 -0.64306951 1.8949121 nan
1.9311166 -0.64638561 1.8949121 nan
1.9311001 -0.64970177 1.8949121 nan
1.9310837 -0.65301794 1.8949121 nan
1.9310672 -0.6563341 1.8949121 nan
1.9310508 -0.65965021 1.8949121 -3.3560198e+38
1.9310343 -0.66296643 1.8949121 -3.2762639e+38
1.9310179 -0.66628253 1.8949121 -3.3159829e+38
1.9310014 -0.66959864 1.8949121 -3.356435e+38
1.9309849 -0.6729148 1.8949121 -3.3306852e+38
1.9309684 -0.67623097 1.8949121 -3.3043086e+38
1.930952 -0.67954713 1.8949121 -3.3312049e+38
1.9399201 -0.6860193 1.8982978 -3.3574754e+38
1.9309191 -0.68617946 1.8949121 -3.3706612e+38
1.9309026 -0.68949556 1.8949121 -3.370713e+38
1.9308861 -0.69281173 1.8949121 nan
1.9308697 -0.69612789 1.8949121 nan
1.9398373 -0.70268577 1.8982978 -2.9692421e+38
1.9398208 -0.7060191 1.8982978 -2.3975165e+38
1.9398042 -0.70935237 1.8982978 -2.6496526e+38
1.9487714 -0.71597892 1.9016836 -2.8894846e+38
1.9577385 -0.72263962 1.9050694 -2.9162247e+38
1.9577217 -0.72600722 1.9050694 -2.9295693e+38
1.957705 -0.72937483 1.9050694 -2.9559985e+38
1.9576883 -0.73274237 1.9050694 -2.9828435e+38
1.9486881 -0.73273104 1.9016836 -3.0227212e+38
1.9486716 -0.73608148 1.9016836 -3.0493581e+38
1.9486549 -0.73943192 1.9016836 -3.1025795e+38
1.9486383 -0.74278235 1.9016836 -3.1428204e+38
1.9396387 -0.74268526 1.8982978 -3.2626592e+38
1.9396222 -0.74601853 1.8982978 -3.3693626e+38
1.9396057 -0.74935186 1.8982978 -3.3967276e+38
1.9395891 -0.75268513 1.8982978 nan
1.9395726 -0.75601846 1.8982978 nan
1.939556 -0.75935179 1.8982978 nan
1.9395394 -0.76268506 1.8982978 nan
1.939523 -0.76601833 1.8982978 nan
1.9395064 -0.76935166 1.8982978 nan
1.9394898 -0.77268493 1.8982978 nan
1.9394733 -0.7760182 1.8982978 nan
1.9304746 -0.77571547 1.8949121 nan
1.9394403 -0.7826848 1.8982978 nan
1.9394237 -0.78601807 1.8982978 nan
1.9394071 -0.78935134 1.8982978 nan
1.9304088 -0.78898007 1.8949121 nan
1.939374 -0.79601794 1.8982978 nan
1.9393575 -0.79935122 1.8982978 nan
1.9393409 -0.80268455 1.8982978 nan
1.9393244 -0.80601782 1.8982978 nan
1.9393078 -0.80935109 1.8982978 nan
1.9482725 -0.81649196 1.9016836 nan
1.9482558 -0.81984234 1.9016836 nan
1.9482392 -0.82319278 1.9016836 nan
1.9572035 -0.83040214 1.9050694 nan
2.1943574 -0.39703587 1.9896588 nan
2.1943386 -0.40085104 1.9896588 nan
2.1943195 -0.40466624 1.9896588 nan
2.1943007 -0.40848142 1.9896588 nan
2.1942816 -0.41229659 1.9896588 nan
2.1832721 -0.41422391 1.9855417 nan
2.1832533 -0.4180181 1.9855417 nan
2.1712446 -0.41970712 1.9810503 nan
2.171226 -0.42347851 1.9810503 nan
2.1712072 -0.42724988 1.9810503 nan
2.1601982 -0.42902857 1.9769331 nan
2.1491895 -0.43076542 1.972816 nan
2.1271911 -0.4304257 1.9645817 nan
2.1161828 -0.43205774 1.9604645 nan
2.1061738 -0.43383667 1.9567217 nan
2.1061556 -0.43748426 1.9567217 nan
2.1061375 -0.44113183 1.9567217 nan
2.09513 -0.44264007 1.9526045 nan
2.0851214 -0.44430277 1.9488616 nan
2.0851035 -0.44791034 1.9488616 nan
2.0740964 -0.44931573 1.9447446 nan
2.0740788 -0.45290235 1.9447446 nan
2.0740609 -0.456489 1.9447446 nan
2.0640533 -0.45801646 1.9410017 nan
2.0640354 -0.46158403 1.9410017 nan
2.0640178 -0.46515161 1.9410017 nan
2.0640001 -0.46871918 1.9410017 nan
2.0539927 -0.47015145 1.9372588 nan
2.0539751 -0.47369999 1.9372588 nan
2.0539575 -0.47724849 1.9372588 nan
2.0539398 -0.48079702 1.9372588 nan
2.0539224 -0.48434556 1.9372588 nan
2.0539048 -0.48789409 1.9372588 nan
2.0538871 -0.49144259 1.9372588 nan
2.0538695 -0.49499115 1.9372588 nan
2.0438631 -0.49625194 1.933516 nan
2.0438457 -0.49978143 1.933516 nan
2.043828 -0.50331092 1.933516 nan
2.0338221 -0.50449556 1.9297731 nan
2.0238163 -0.50564212 1.9260302 nan
2.0237989 -0.50913352 1.9260302 nan
2.0237815 -0.51262486 1.9260302 nan
2.0237641 -0.51611626 1.9260302 nan
2.0147579 -0.51741153 1.9226617 nan
2.0147405 -0.52088583 1.9226617 nan
2.0147233 -0.52436006 1.9226617 nan
2.0147061 -0.5278343 1.9226617 nan
1.9947135 -0.52627599 1.9151759 nan
1.9946965 -0.52971214 1.9151759 nan
1.9856907 -0.53084934 1.9118073 nan
1.9856738 -0.53426838 1.9118073 nan
1.9856567 -0.53768736 1.9118073 nan
1.9856398 -0.5411064 1.9118073 nan
1.9856229 -0.54452538 1.9118073 nan
1.9856058 -0.54794437 1.9118073 nan
1.9855889 -0.55136341 1.9118073 nan
1.985572 -0.55478239 1.9118073 nan
1.976567 -0.55576533 1.9084388 nan
1.9765501 -0.55916721 1.9084388 nan
1.9675453 -0.56009871 1.9050703 nan
1.9675286 -0.56348342 1.9050703 nan
1.9585241 -0.56436348 1.9017017 nan
1.9585074 -0.56773108 1.9017017 nan
1.9495031 -0.56855971 1.8983331 nan
1.9494865 -0.57191014 1.8983331 nan
1.9494698 -0.57526058 1.8983331 nan
1.9494532 -0.57861102 1.8983331 nan
1.9494365 -0.58196145 1.8983331 nan
1.94942 -0.58531195 1.8983331 nan
1.9494033 -0.58866233 1.8983331 nan
1.9493867 -0.59201276 1.8983331 nan
1.94937 -0.59536326 1.8983331 nan
1.9493535 -0.59871364 1.8983331 nan
1.9493368 -0.60206407 1.8983331 nan
1.9493202 -0.60541451 1.8983331 nan
1.9403172 -0.60602027 1.8949645 nan
1.9403006 -0.6093536 1.8949645 nan
1.940284 -0.61268687 1.8949645 nan
1.9402674 -0.61602014 1.8949645 nan
1.940251 -0.61935347 1.8949645 nan
1.9402344 -0.62268674 1.8949645 nan
1.9402179 -0.62602001 1.8949645 nan
1.9402013 -0.62935328 1.8949645 nan
1.9401847 -0.63268661 1.8949645 nan
1.9311824 -0.63312107 1.891596 nan
1.9311659 -0.63643718 1.891596 nan
1.9221641 -0.63682008 1.8882275 nan
1.9221476 -0.64011908 1.8882275 nan
1.9311166 -0.64638561 1.891596 nan
1.9221148 -0.64671713 1.8882275 nan
1.9310837 -0.65301794 1.891596 nan
1.9310672 -0.6563341 1.891596 -3.3837462e+38
1.9310508 -0.65965021 1.891596 -3.3429859e+38
1.9310343 -0.66296643 1.891596 -3.3162456e+38
1.9310179 -0.66628253 1.891596 -3.3428818e+38
1.9310014 -0.66959864 1.891596 -3.3698317e+38
1.9309849 -0.6729148 1.891596 -3.3570603e+38
1.9309684 -0.67623097 1.891596 -3.3441335e+38
1.930952 -0.67954713 1.891596 -3.3441355e+38
1.9399201 -0.6860193 1.8949645 -3.3439225e+38
1.9309191 -0.68617946 1.891596 -3.3303132e+38
1.9309026 -0.68949556 1.891596 -3.317384e+38
1.9308861 -0.69281173 1.891596 -3.2774027e+38
1.9398538 -0.6993525 1.8949645 -3.2504003e+38
1.9398373 -0.70268577 1.8949645 -2.8626889e+38
1.9398208 -0.7060191 1.8949645 -2.4759165e+38
1.9398042 -0.70935237 1.8949645 -2.6895295e+38
1.9487714 -0.71597892 1.8983331 -2.8895882e+38
1.9577385 -0.72263962 1.9017017 -2.9161203e+38
1.9667053 -0.72933477 1.9050703 -2.9295172e+38
1.957705 -0.72937483 1.9017017 -2.9561545e+38
1.9576883 -0.73274237 1.9017017 -2.9829476e+38
1.9576716 -0.73610991 1.9017017 -3.0094808e+38
1.9576548 -0.73947752 1.9017017 -3.0493063e+38
1.9486549 -0.73943192 1.8983331 -3.1026838e+38
1.9486383 -0.74278235 1.8983331 -3.1428732e+38
1.9396387 -0.74268526 1.8949645 -3.2226796e+38
1.9396222 -0.74601853 1.8949645 -3.3024347e+38
1.9396057 -0.74935186 1.8949645 -3.3435591e+38
1.9395891 -0.75268513 1.8949645 -3.3972484e+38
1.9395726 -0.75601846 1.8949645 -3.3974052e+38
1.939556 -0.75935179 1.8949645 nan
1.9395394 -0.76268506 1.8949645 nan
1.939523 -0.76601833 1.8949645 nan
1.9395064 -0.76935166 1.8949645 nan
1.9394898 -0.77268493 1.8949645 nan
1.9394733 -0.7760182 1.8949645 nan
1.9394567 -0.77935147 1.8949645 nan
1.9394403 -0.7826848 1.8949645 nan
1.9394237 -0.78601807 1.8949645 nan
1.9394071 -0.78935134 1.8949645 nan
1.9393905 -0.79268467 1.8949645 nan
1.939374 -0.79601794 1.8949645 nan
1.9393575 -0.79935122 1.8949645 nan
1.9393409 -0.80268455 1.8949645 nan
1.9393244 -0.80601782 1.8949645 nan
1.9393078 -0.80935109 1.8949645 nan
1.9392912 -0.81268448 1.8949645 nan
1.9392748 -0.81601775 1.8949645 nan
1.9392582 -0.81935102 1.8949645 nan
1.9482225 -0.82654327 1.8983331 nan
2.2063673 -0.39514303 1.9903121 nan
2.2063482 -0.39898109 1.9903121 nan
2.1943386 -0.40085104 1.9858437 nan
2.1943195 -0.40466624 1.9858437 nan
2.1943007 -0.40848142 1.9858437 nan
2.1942816 -0.41229659 1.9858437 nan
2.1832721 -0.41422391 1.9817474 nan
2.1832533 -0.4180181 1.9817474 nan
2.1712446 -0.41970712 1.9772788 nan
2.171226 -0.42347851 1.9772788 nan
2.1602168 -0.42527816 1.9731827 nan
2.1601982 -0.42902857 1.9731827 nan
2.1491895 -0.43076542 1.9690864 nan
2.138181 -0.43246031 1.9649903 nan
2.1271727 -0.43411326 1.9608941 nan
2.1061738 -0.43383667 1.953074 nan
2.1061556 -0.43748426 1.953074 nan
2.0951478 -0.43901345 1.9489779 nan
2.09513 -0.44264007 1.9489779 nan
2.0851214 -0.44430277 1.9452541 nan
2.0741143 -0.44572911 1.9411578 nan
2.0740964 -0.44931573 1.9411578 nan
2.0640886 -0.4508813 1.9374341 nan
2.0640709 -0.45444888 1.9374341 nan
2.0640533 -0.45801646 1.9374341 nan
2.0640354 -0.46158403 1.9374341 nan
2.054028 -0.46305439 1.9337102 nan
2.0540104 -0.46660292 1.9337102 nan
2.0539927 -0.47015145 1.9337102 nan
2.0539751 -0.47369999 1.9337102 nan
2.0539575 -0.47724849 1.9337102 nan
2.0539398 -0.48079702 1.9337102 nan
2.0539224 -0.48434556 1.9337102 nan
2.0539048 -0.48789409 1.9337102 nan
2.0538871 -0.49144259 1.9337102 nan
2.0538695 -0.49499115 1.9337102 nan
2.0438631 -0.49625194 1.9299865 nan
2.0438457 -0.49978143 1.9299865 nan
2.043828 -0.50331092 1.9299865 nan
2.0338221 -0.50449556 1.9262626 nan
2.0238163 -0.50564212 1.9225388 nan
2.0237989 -0.50913352 1.9225388 nan
2.0237815 -0.51262486 1.9225388 nan
2.0237641 -0.51611626 1.9225388 nan
2.0147579 -0.51741153 1.9191873 nan
2.0147405 -0.52088583 1.9191873 nan
2.0147233 -0.52436006 1.9191873 nan
2.0147061 -0.5278343 1.9191873 nan
2.0047011 -0.52879226 1.9154636 nan
1.9946965 -0.52971214 1.9117398 nan
1.9856907 -0.53084934 1.9083884 nan
1.9856738 -0.53426838 1.9083884 nan
1.9856567 -0.53768736 1.9083884 nan
1.9856398 -0.5411064 1.9083884 nan
1.9856229 -0.54452538 1.9083884 nan
1.9856058 -0.54794437 1.9083884 nan
1.9766008 -0.54896158 1.9050369 nan
1.9765838 -0.55236346 1.9050369 nan
1.976567 -0.55576533 1.9050369 nan
1.9675621 -0.556714 1.9016855 nan
1.9585575 -0.55762833 1.898334 nan
1.9585408 -0.56099594 1.898334 nan
1.9585241 -0.56436348 1.898334 nan
1.9585074 -0.56773108 1.898334 nan
1.9495031 -0.56855971 1.8949826 nan
1.9494865 -0.57191014 1.8949826 nan
1.9494698 -0.57526058 1.8949826 nan
1.9494532 -0.57861102 1.8949826 nan
1.9494365 -0.58196145 1.8949826 nan
1.94942 -0.58531195 1.8949826 nan
1.9494033 -0.58866233 1.8949826 nan
1.9493867 -0.59201276 1.8949826 nan
1.94937 -0.59536326 1.8949826 nan
1.9493535 -0.59871364 1.8949826 nan
1.9493368 -0.60206407 1.8949826 nan
1.9493202 -0.60541451 1.8949826 nan
1.9403172 -0.60602027 1.8916311 nan
1.9403006 -0.6093536 1.8916311 nan
1.940284 -0.61268687 1.8916311 nan
1.9402674 -0.61602014 1.8916311 nan
1.940251 -0.61935347 1.8916311 nan
1.9402344 -0.62268674 1.8916311 nan
1.9402179 -0.62602001 1.8916311 nan
1.9402013 -0.62935328 1.8916311 nan
1.9401847 -0.63268661 1.8916311 nan
1.9311824 -0.63312107 1.8882798 nan
1.9311659 -0.63643718 1.8882798 nan
1.9221641 -0.63682008 1.8849283 nan
1.9221476 -0.64011908 1.8849283 nan
1.9311166 -0.64638561 1.8882798 nan
1.9311001 -0.64970177 1.8882798 nan
1.9310837 -0.65301794 1.8882798 nan
1.9310672 -0.6563341 1.8882798 -3.3302644e+38
1.9310508 -0.65965021 1.8882798 -3.3425151e+38
1.9310343 -0.66296643 1.8882798 -3.3560149e+38
1.9310179 -0.66628253 1.8882798 -3.369411e+38
1.9310014 -0.66959864 1.8882798 -3.3698826e+38
1.9309849 -0.6729148 1.8882798 -3.3703022e+38
1.9309684 -0.67623097 1.8882798 -3.3705621e+38
1.930952 -0.67954713 1.8882798 -3.3440296e+38
1.9309355 -0.68286324 1.8882798 -3.316922e+38
1.9309191 -0.68617946 1.8882798 -3.2892953e+38
1.9309026 -0.68949556 1.8882798 -3.2635411e+38
1.9308861 -0.69281173 1.8882798 -3.1175852e+38
1.9398538 -0.6993525 1.8916311 -2.9569311e+38
1.9308532 -0.699444 1.8882798 -2.7551021e+38
1.9398208 -0.7060191 1.8916311 -2.5559801e+38
1.9398042 -0.70935237 1.8916311 -2.7295613e+38
1.9487714 -0.71597892 1.8949826 -2.8892244e+38
1.9487548 -0.7193293 1.8949826 -2.9158611e+38
1.9577217 -0.72600722 1.898334 -2.9294138e+38
1.957705 -0.72937483 1.898334 -2.956103e+38
1.9576883 -0.73274237 1.898334 -2.9695518e+38
1.9576716 -0.73610991 1.898334 -3.0094814e+38
1.9486716 -0.73608148 1.8949826 -3.0494106e+38
1.9486549 -0.73943192 1.8949826 -3.1026322e+38
1.9486383 -0.74278235 1.8949826 -3.1428734e+38
1.9486216 -0.74613279 1.8949826 -3.1960435e+38
1.9396222 -0.74601853 1.8916311 -3.2367004e+38
1.9396057 -0.74935186 1.8916311 -3.3043055e+38
1.9395891 -0.75268513 1.8916311 -3.3707675e+38
1.9395726 -0.75601846 1.8916311 -3.3841645e+38
1.939556 -0.75935179 1.8916311 -3.3973014e+38
1.9395394 -0.76268506 1.8916311 nan
1.939523 -0.76601833 1.8916311 nan
1.9395064 -0.76935166 1.8916311 nan
1.9394898 -0.77268493 1.8916311 nan
1.9394733 -0.7760182 1.8916311 nan
1.9394567 -0.77935147 1.8916311 nan
1.9394403 -0.7826848 1.8916311 nan
1.9394237 -0.78601807 1.8916311 nan
1.9394071 -0.78935134 1.8916311 nan
1.9393905 -0.79268467 1.8916311 -3.3842707e+38
1.939374 -0.79601794 1.8916311 -3.3176522e+38
1.9393575 -0.79935122 1.8916311 -3.239619e+38
1.9393409 -0.80268455 1.8916311 nan
1.9393244 -0.80601782 1.8916311 nan
1.9393078 -0.80935109 1.8916311 nan
1.9392912 -0.81268448 1.8916311 nan
1.9392748 -0.81601775 1.8916311 nan
1.9392582 -0.81935102 1.8916311 nan
1.9482225 -0.82654327 1.8949826 nan
1.9571868 -0.83376968 1.898334 nan
2.2063673 -0.39514303 1.986474 nan
2.2063482 -0.39898109 1.986474 nan
2.1943386 -0.40085104 1.9820284 nan
2.1943195 -0.40466624 1.9820284 nan
2.1943007 -0.40848142 1.9820284 nan
2.1942816 -0.41229659 1.9820284 nan
2.1832721 -0.41422391 1.9779531 nan
2.1832533 -0.4180181 1.9779531 nan
2.1712446 -0.41970712 1.9735074 nan
2.171226 -0.42347851 1.9735074 nan
2.1602168 -0.42527816 1.9694321 nan
2.1492078 -0.42703593 1.9653568 nan
2.1491895 -0.43076542 1.9653568 nan
2.138181 -0.43246031 1.9612817 nan
2.1271727 -0.43411326 1.9572065 nan
2.1161644 -0.43572438 1.9531312 nan
2.1061556 -0.43748426 1.9494264 nan
2.0951478 -0.43901345 1.9453511 nan
2.09513 -0.44264007 1.9453511 nan
2.0851214 -0.44430277 1.9416465 nan
2.0741143 -0.44572911 1.9375712 nan
2.0740964 -0.44931573 1.9375712 nan
2.0640886 -0.4508813 1.9338665 nan
2.0640709 -0.45444888 1.9338665 nan
2.0640533 -0.45801646 1.9338665 nan
2.0540457 -0.45950589 1.9301617 nan
2.054028 -0.46305439 1.9301617 nan
2.0540104 -0.46660292 1.9301617 nan
2.0539927 -0.47015145 1.9301617 nan
2.0439856 -0.47154561 1.9264569 nan
2.0439682 -0.47507507 1.9264569 nan
2.0439506 -0.47860456 1.9264569 nan
2.0439332 -0.48213401 1.9264569 nan
2.0539048 -0.48789409 1.9301617 nan
2.0438981 -0.48919299 1.9264569 nan
2.0438807 -0.49272248 1.9264569 nan
2.0438631 -0.49625194 1.9264569 nan
2.0438457 -0.49978143 1.9264569 nan
2.0338395 -0.50098515 1.9227521 nan
2.0238335 -0.50215071 1.9190474 nan
2.0238163 -0.50564212 1.9190474 nan
2.0237989 -0.50913352 1.9190474 nan
2.0237815 -0.51262486 1.9190474 nan
2.014775 -0.51393735 1.9157131 nan
2.0147579 -0.51741153 1.9157131 nan
2.0147405 -0.52088583 1.9157131 nan
2.0147233 -0.52436006 1.9157131 nan
2.0147061 -0.5278343 1.9157131 nan
2.0047011 -0.52879226 1.9120083 nan
1.9946965 -0.52971214 1.9083035 nan
1.9946795 -0.53314829 1.9083035 nan
1.9856738 -0.53426838 1.9049692 nan
1.9856567 -0.53768736 1.9049692 nan
1.9856398 -0.5411064 1.9049692 nan
1.9856229 -0.54452538 1.9049692 nan
1.9856058 -0.54794437 1.9049692 nan
1.9766008 -0.54896158 1.9016349 nan
1.9765838 -0.55236346 1.9016349 nan
1.9675789 -0.55332929 1.8983006 nan
1.9675621 -0.556714 1.8983006 nan
1.9585575 -0.55762833 1.8949664 nan
1.9585408 -0.56099594 1.8949664 nan
1.9495363 -0.56185883 1.8916321 nan
1.9495198 -0.56520933 1.8916321 nan
1.9495031 -0.56855971 1.8916321 nan
1.9494865 -0.57191014 1.8916321 nan
1.9494698 -0.57526058 1.8916321 nan
1.9494532 -0.57861102 1.8916321 nan
1.9494365 -0.58196145 1.8916321 nan
1.94942 -0.58531195 1.8916321 nan
1.9494033 -0.58866233 1.8916321 nan
1.9493867 -0.59201276 1.8916321 nan
1.94937 -0.59536326 1.8916321 nan
1.9493535 -0.59871364 1.8916321 nan
1.9403502 -0.59935373 1.8882978 nan
1.9493202 -0.60541451 1.8916321 nan
1.9403172 -0.60602027 1.8882978 nan
1.9403006 -0.6093536 1.8882978 nan
1.940284 -0.61268687 1.8882978 nan
1.9402674 -0.61602014 1.8882978 nan
1.940251 -0.61935347 1.8882978 nan
1.9402344 -0.62268674 1.8882978 nan
1.9402179 -0.62602001 1.8882978 nan
1.9312154 -0.62648875 1.8849635 nan
1.9311988 -0.62980485 1.8849635 nan
1.9311824 -0.63312107 1.8849635 nan
1.9311659 -0.63643718 1.8849635 nan
1.9221641 -0.63682008 1.8816292 nan
1.9221476 -0.64011908 1.8816292 nan
1.9311166 -0.64638561 1.8849635 nan
1.9221148 -0.64671713 1.8816292 nan
1.9220985 -0.65001613 1.8816292 nan
1.9310672 -0.6563341 1.8849635 -3.3834323e+38
1.9220657 -0.65661412 1.8816292 -3.3297384e+38
1.9310343 -0.66296643 1.8849635 -3.2895501e+38
1.9310179 -0.66628253 1.8849635 -3.3431344e+38
1.9310014 -0.66959864 1.8849635 nan
1.9309849 -0.6729148 1.8849635 -3.3837e+38
1.9309684 -0.67623097 1.8849635 -3.3706657e+38
1.930952 -0.67954713 1.8849635 -3.3572158e+38
1.9399201 -0.6860193 1.8882978 -3.3436619e+38
1.9399035 -0.68935257 1.8882978 -3.3298482e+38
1.9309026 -0.68949556 1.8849635 -3.3166076e+38
1.9308861 -0.69281173 1.8849635 -3.1437556e+38
1.9398538 -0.6993525 1.8882978 -2.9837747e+38
1.9398373 -0.70268577 1.8882978 -2.8488204e+38
1.9398208 -0.7060191 1.8882978 -2.715278e+38
1.9398042 -0.70935237 1.8882978 -2.7823659e+38
1.9487714 -0.71597892 1.8916321 -2.8356916e+38
1.9487548 -0.7193293 1.8916321 -2.8891731e+38
1.9577217 -0.72600722 1.8949664 -2.9427065e+38
1.957705 -0.72937483 1.8949664 -2.9561034e+38
1.9576883 -0.73274237 1.8949664 -2.9696044e+38
1.9486881 -0.73273104 1.8916321 -3.009534e+38
1.9576548 -0.73947752 1.8949664 -3.0361708e+38
1.9486549 -0.73943192 1.8916321 -3.0896517e+38
1.9486383 -0.74278235 1.8916321 -3.1299449e+38
1.9486216 -0.74613279 1.8916321 -3.1301015e+38
1.9396222 -0.74601853 1.8882978 -3.14407e+38
1.9396057 -0.74935186 1.8882978 -3.2508249e+38
1.9395891 -0.75268513 1.8882978 -3.357475e+38
1.9395726 -0.75601846 1.8882978 -3.3574235e+38
1.939556 -0.75935179 1.8882978 -3.357372e+38
1.9395394 -0.76268506 1.8882978 -3.3837493e+38
1.939523 -0.76601833 1.8882978 nan
1.9395064 -0.76935166 1.8882978 nan
1.9394898 -0.77268493 1.8882978 nan
1.9394733 -0.7760182 1.8882978 nan
1.9394567 -0.77935147 1.8882978 nan
1.9394403 -0.7826848 1.8882978 nan
1.9394237 -0.78601807 1.8882978 nan
1.9394071 -0.78935134 1.8882978 nan
1.9393905 -0.79268467 1.8882978 nan
