# .PCD v0.7 - Point Cloud Data file format
VERSION 0.7
FIELDS x y z rgb
SIZE 4 4 4 4
TYPE F F F F
COUNT 1 1 1 1
WIDTH 1193
HEIGHT 1
VIEWPOINT 0 0 0 1 0 0 0
POINTS 1193
DATA ascii
2.7048819 0.53078318 0.75392449 nan
2.7048709 0.52599466 0.75392449 nan
2.518338 0.72993433 0.78564537 nan
2.5183277 0.72550195 0.78564537 nan
2.5183175 0.72106957 0.78564537 nan
2.5183074 0.71663719 0.78564537 nan
2.5032856 0.7071678 0.78857398 nan
2.5032756 0.70276397 0.78857398 nan
2.4882541 0.6933803 0.79150259 nan
2.4882441 0.68900508 0.79150259 nan
2.488234 0.68462986 0.79150259 nan
2.488224 0.68025464 0.79150259 nan
2.488214 0.67587942 0.79150259 nan
2.488204 0.67150414 0.79150259 nan
2.488194 0.66712892 0.79150259 nan
2.488184 0.66275376 0.79150259 nan
2.488174 0.65837848 0.79150259 nan
2.4881639 0.65400326 0.79150259 nan
2.4881539 0.64962804 0.79150259 nan
2.4881439 0.64525282 0.79150259 nan
2.4881339 0.6408776 0.79150259 nan
2.5031343 0.64111084 0.78857398 nan
2.5031242 0.63670701 0.78857398 nan
2.5031142 0.63230324 0.78857398 nan
2.503104 0.62789941 0.78857398 nan
2.503094 0.62349558 0.78857398 -3.3575272e+38
2.5030837 0.61909181 0.78857398 nan
2.5030737 0.61468804 0.78857398 nan
2.5030637 0.61028421 0.78857398 nan
2.7231569 0.65082735 0.74562156 nan
2.7051344 0.6409201 0.74913585 nan
2.7051234 0.63613153 0.74913585 nan
2.7051125 0.63134295 0.74913585 nan
2.6870899 0.62157285 0.75265014 nan
2.6870792 0.61681861 0.75265014 nan
2.6870682 0.6120643 0.75265014 nan
2.6870573 0.60731006 0.75265014 nan
2.6870465 0.60255575 0.75265014 nan
2.6870356 0.59780145 0.75265014 nan
2.6870246 0.59304726 0.75265014 nan
2.6870136 0.58829296 0.75265014 nan
2.6870029 0.58353865 0.75265014 nan
2.6869919 0.57878435 0.75265014 nan
2.686981 0.5740301 0.75265014 -3.3830698e+38
2.6869702 0.56927586 0.75265014 -3.3696751e+38
2.6869593 0.56452155 0.75265014 -3.3564861e+38
2.6869483 0.55976731 0.75265014 nan
2.6869373 0.555013 0.75265014 nan
2.6869266 0.5502587 0.75265014 nan
2.7049258 0.54993749 0.74913585 nan
2.7049148 0.54514891 0.74913585 nan
2.7049038 0.54036033 0.74913585 nan
2.7048929 0.53557175 0.74913585 nan
2.7048819 0.53078318 0.74913585 nan
2.7048709 0.52599466 0.74913585 nan
2.518338 0.72993433 0.78121305 nan
2.5183277 0.72550195 0.78121305 nan
2.5183175 0.72106957 0.78121305 nan
2.5183074 0.71663719 0.78121305 nan
2.5032856 0.7071678 0.78417015 nan
2.5032756 0.70276397 0.78417015 nan
2.4882541 0.6933803 0.78712732 nan
2.4882441 0.68900508 0.78712732 nan
2.488234 0.68462986 0.78712732 nan
2.488224 0.68025464 0.78712732 nan
2.488214 0.67587942 0.78712732 nan
2.488204 0.67150414 0.78712732 nan
2.488194 0.66712892 0.78712732 nan
2.488184 0.66275376 0.78712732 nan
2.488174 0.65837848 0.78712732 nan
2.4881639 0.65400326 0.78712732 nan
2.4881539 0.64962804 0.78712732 nan
2.4881439 0.64525282 0.78712732 nan
2.4881339 0.6408776 0.78712732 nan
2.4881239 0.63650239 0.78712732 nan
2.5031242 0.63670701 0.78417015 nan
2.5031142 0.63230324 0.78417015 nan
2.503104 0.62789941 0.78417015 -3.3968286e+38
2.503094 0.62349558 0.78417015 -3.2900293e+38
2.5030837 0.61909181 0.78417015 nan
2.5030737 0.61468804 0.78417015 nan
2.5030637 0.61028421 0.78417015 nan
2.5030534 0.60588044 0.78417015 nan
2.7231569 0.65082735 0.74079871 nan
2.7051344 0.6409201 0.74434733 nan
2.7051234 0.63613153 0.74434733 nan
2.7051125 0.63134295 0.74434733 nan
2.6870899 0.62157285 0.74789584 nan
2.6870792 0.61681861 0.74789584 nan
2.6870682 0.6120643 0.74789584 nan
2.6870573 0.60731006 0.74789584 nan
2.6870465 0.60255575 0.74789584 nan
2.6870356 0.59780145 0.74789584 nan
2.6870246 0.59304726 0.74789584 nan
2.6870136 0.58829296 0.74789584 nan
2.6870029 0.58353865 0.74789584 nan
2.6869919 0.57878435 0.74789584 nan
2.686981 0.5740301 0.74789584 nan
2.6869702 0.56927586 0.74789584 nan
2.6869593 0.56452155 0.74789584 nan
2.6869483 0.55976731 0.74789584 nan
2.6869373 0.555013 0.74789584 nan
2.6869266 0.5502587 0.74789584 nan
2.7049258 0.54993749 0.74434733 nan
2.7049148 0.54514891 0.74434733 nan
2.6868937 0.5359959 0.74789584 nan
2.7048929 0.53557175 0.74434733 nan
2.7048819 0.53078318 0.74434733 nan
2.7048709 0.52599466 0.74434733 nan
2.5343609 0.73989183 0.77359587 nan
2.518338 0.72993433 0.77678061 nan
2.5183277 0.72550195 0.77678061 nan
2.5183175 0.72106957 0.77678061 nan
2.5183074 0.71663719 0.77678061 nan
2.5032856 0.7071678 0.77976632 nan
2.5032756 0.70276397 0.77976632 nan
2.4882541 0.6933803 0.78275204 nan
2.4882441 0.68900508 0.78275204 -3.3984447e+38
2.488234 0.68462986 0.78275204 nan
2.488224 0.68025464 0.78275204 nan
2.488214 0.67587942 0.78275204 nan
2.488204 0.67150414 0.78275204 nan
2.488194 0.66712892 0.78275204 nan
2.488184 0.66275376 0.78275204 -3.2631265e+38
2.488174 0.65837848 0.78275204 -3.3159847e+38
2.4881639 0.65400326 0.78275204 -3.3693609e+38
2.4881539 0.64962804 0.78275204 -3.3694642e+38
2.4881439 0.64525282 0.78275204 -3.3699315e+38
2.4881339 0.6408776 0.78275204 nan
2.5031343 0.64111084 0.77976632 nan
2.5031242 0.63670701 0.77976632 nan
2.5031142 0.63230324 0.77976632 nan
2.503104 0.62789941 0.77976632 -3.3701933e+38
2.503094 0.62349558 0.77976632 -3.2239302e+38
2.5030837 0.61909181 0.77976632 -3.1571092e+38
2.5030737 0.61468804 0.77976632 -3.0918438e+38
2.5030637 0.61028421 0.77976632 -3.2512492e+38
2.5030534 0.60588044 0.77976632 -3.4001689e+38
2.7051454 0.64570862 0.73955876 nan
2.7051344 0.6409201 0.73955876 nan
2.7051234 0.63613153 0.73955876 nan
2.7051125 0.63134295 0.73955876 nan
2.6870899 0.62157285 0.74314159 nan
2.6870792 0.61681861 0.74314159 nan
2.6870682 0.6120643 0.74314159 nan
2.6870573 0.60731006 0.74314159 nan
2.6870465 0.60255575 0.74314159 nan
2.6870356 0.59780145 0.74314159 nan
2.6870246 0.59304726 0.74314159 nan
2.6870136 0.58829296 0.74314159 nan
2.6870029 0.58353865 0.74314159 nan
2.6869919 0.57878435 0.74314159 nan
2.686981 0.5740301 0.74314159 nan
2.6869702 0.56927586 0.74314159 nan
2.6869593 0.56452155 0.74314159 nan
2.6869483 0.55976731 0.74314159 nan
2.6869373 0.555013 0.74314159 -3.3969359e+38
2.6869266 0.5502587 0.74314159 nan
2.7049258 0.54993749 0.73955876 nan
2.7049148 0.54514891 0.73955876 nan
2.6868937 0.5359959 0.74314159 nan
2.686883 0.53124166 0.74314159 nan
2.7048819 0.53078318 0.73955876 nan
2.7048709 0.52599466 0.73955876 nan
2.5343609 0.73989183 0.76913303 nan
2.518338 0.72993433 0.77234828 nan
2.5183277 0.72550195 0.77234828 nan
2.5183175 0.72106957 0.77234828 nan
2.5183074 0.71663719 0.77234828 nan
2.5032856 0.7071678 0.77536255 nan
2.5032756 0.70276397 0.77536255 nan
2.4882541 0.6933803 0.77837682 nan
2.4882441 0.68900508 0.77837682 nan
2.488234 0.68462986 0.77837682 nan
2.488224 0.68025464 0.77837682 nan
2.488214 0.67587942 0.77837682 nan
2.488204 0.67150414 0.77837682 nan
2.488194 0.66712892 0.77837682 -3.3294293e+38
2.488184 0.66275376 0.77837682 -3.2224173e+38
2.488174 0.65837848 0.77837682 -3.3958932e+38
2.4881639 0.65400326 0.77837682 nan
2.4881539 0.64962804 0.77837682 nan
2.4881439 0.64525282 0.77837682 nan
2.5031445 0.64551461 0.77536255 nan
2.4881239 0.63650239 0.77837682 nan
2.5031242 0.63670701 0.77536255 nan
2.5031142 0.63230324 0.77536255 nan
2.503104 0.62789941 0.77536255 nan
2.503094 0.62349558 0.77536255 nan
2.5030837 0.61909181 0.77536255 nan
2.5030737 0.61468804 0.77536255 nan
2.5030637 0.61028421 0.77536255 nan
2.5180635 0.61026031 0.77234828 nan
2.5180533 0.60582793 0.77234828 nan
2.5180433 0.60139555 0.77234828 nan
2.7051454 0.64570862 0.73477018 nan
2.7051344 0.6409201 0.73477018 nan
2.7051234 0.63613153 0.73477018 nan
2.7051125 0.63134295 0.73477018 nan
2.6870899 0.62157285 0.73838729 nan
2.6870792 0.61681861 0.73838729 nan
2.6870682 0.6120643 0.73838729 nan
2.6870573 0.60731006 0.73838729 nan
2.6870465 0.60255575 0.73838729 -3.102413e+38
2.6870356 0.59780145 0.73838729 -3.1559484e+38
2.6870246 0.59304726 0.73838729 -3.2228796e+38
2.6870136 0.58829296 0.73838729 -3.1960897e+38
2.6870029 0.58353865 0.73838729 -3.1840426e+38
2.6869919 0.57878435 0.73838729 -3.1963471e+38
2.686981 0.5740301 0.73838729 -3.2102138e+38
2.6869702 0.56927586 0.73838729 -3.3166589e+38
2.6869593 0.56452155 0.73838729 nan
2.6869483 0.55976731 0.73838729 nan
2.6869373 0.555013 0.73838729 nan
2.6869266 0.5502587 0.73838729 nan
2.6869156 0.54550451 0.73838729 nan
2.6869047 0.54075021 0.73838729 nan
2.6868937 0.5359959 0.73838729 nan
2.686883 0.53124166 0.73838729 nan
2.7048819 0.53078318 0.73477018 nan
2.7048709 0.52599466 0.73477018 nan
2.5343609 0.73989183 0.76467013 nan
2.518338 0.72993433 0.76791584 nan
2.5183277 0.72550195 0.76791584 nan
2.5183175 0.72106957 0.76791584 nan
2.5032959 0.71157157 0.77095878 nan
2.5032856 0.7071678 0.77095878 nan
2.5032756 0.70276397 0.77095878 nan
2.4882541 0.6933803 0.7740016 nan
2.4882441 0.68900508 0.7740016 nan
2.488234 0.68462986 0.7740016 nan
2.488224 0.68025464 0.7740016 nan
2.488214 0.67587942 0.7740016 -3.2886199e+38
2.488204 0.67150414 0.7740016 -3.1298912e+38
2.488194 0.66712892 0.7740016 -3.1559563e+38
2.488184 0.66275376 0.7740016 -3.1835305e+38
2.488174 0.65837848 0.7740016 nan
2.4881639 0.65400326 0.7740016 nan
2.4881539 0.64962804 0.7740016 nan
2.4881439 0.64525282 0.7740016 nan
2.4881339 0.6408776 0.7740016 nan
2.4881239 0.63650239 0.7740016 nan
2.5031242 0.63670701 0.77095878 nan
2.5031142 0.63230324 0.77095878 nan
2.503104 0.62789941 0.77095878 nan
2.503094 0.62349558 0.77095878 nan
2.5030837 0.61909181 0.77095878 nan
2.5030737 0.61468804 0.77095878 nan
2.5030637 0.61028421 0.77095878 nan
2.5180635 0.61026031 0.76791584 nan
2.5180533 0.60582793 0.76791584 nan
2.5180433 0.60139555 0.76791584 nan
2.7051454 0.64570862 0.7299816 nan
2.7051344 0.6409201 0.7299816 nan
2.7051234 0.63613153 0.7299816 nan
2.7051125 0.63134295 0.7299816 nan
2.6870899 0.62157285 0.73363304 nan
2.6870792 0.61681861 0.73363304 nan
2.6870682 0.6120643 0.73363304 nan
2.6870573 0.60731006 0.73363304 -3.3786359e+38
2.6870465 0.60255575 0.73363304 -2.7553039e+38
2.6870356 0.59780145 0.73363304 -2.7552554e+38
2.6870246 0.59304726 0.73363304 -2.7424844e+38
2.6870136 0.58829296 0.73363304 -2.7279482e+38
2.6870029 0.58353865 0.73363304 -2.7159015e+38
2.6869919 0.57878435 0.73363304 -2.7816353e+38
2.686981 0.5740301 0.73363304 -2.849396e+38
2.6869702 0.56927586 0.73363304 -3.0630085e+38
2.6869593 0.56452155 0.73363304 -3.2766235e+38
2.6689379 0.55523139 0.73728448 nan
2.6869373 0.555013 0.73363304 nan
2.6869266 0.5502587 0.73363304 nan
2.6869156 0.54550451 0.73363304 nan
2.6869047 0.54075021 0.73363304 nan
2.6868937 0.5359959 0.73363304 nan
2.686883 0.53124166 0.73363304 nan
2.686872 0.52648741 0.73363304 nan
2.5343609 0.73989183 0.7602073 nan
2.518338 0.72993433 0.76348352 nan
2.5183277 0.72550195 0.76348352 nan
2.5033059 0.71597534 0.76655495 nan
2.5032959 0.71157157 0.76655495 nan
2.5032856 0.7071678 0.76655495 nan
2.5032756 0.70276397 0.76655495 nan
2.4882541 0.6933803 0.76962638 nan
2.4882441 0.68900508 0.76962638 nan
2.488234 0.68462986 0.76962638 nan
2.488224 0.68025464 0.76962638 nan
2.488214 0.67587942 0.76962638 nan
2.488204 0.67150414 0.76962638 nan
2.488194 0.66712892 0.76962638 nan
2.488184 0.66275376 0.76962638 nan
2.488174 0.65837848 0.76962638 nan
2.4881639 0.65400326 0.76962638 nan
2.4881539 0.64962804 0.76962638 nan
2.4881439 0.64525282 0.76962638 nan
2.4881339 0.6408776 0.76962638 nan
2.4881239 0.63650239 0.76962638 -3.3698262e+38
2.5031242 0.63670701 0.76655495 -3.2762073e+38
2.5031142 0.63230324 0.76655495 -3.1833739e+38
2.503104 0.62789941 0.76655495 nan
2.503094 0.62349558 0.76655495 nan
2.5030837 0.61909181 0.76655495 nan
2.5030737 0.61468804 0.76655495 nan
2.5030637 0.61028421 0.76655495 nan
2.5180635 0.61026031 0.76348352 nan
2.5180533 0.60582793 0.76348352 nan
2.5180433 0.60139555 0.76348352 nan
2.7231569 0.65082735 0.72150731 nan
2.7051344 0.6409201 0.72519302 nan
2.7051234 0.63613153 0.72519302 nan
2.7051125 0.63134295 0.72519302 nan
2.7051015 0.62655437 0.72519302 nan
2.6870792 0.61681861 0.72887874 nan
2.6870682 0.6120643 0.72887874 nan
2.6870573 0.60731006 0.72887874 nan
2.6870465 0.60255575 0.72887874 -2.9148074e+38
2.6870356 0.59780145 0.72887874 -2.928467e+38
2.6870246 0.59304726 0.72887874 -2.9550015e+38
2.6870136 0.58829296 0.72887874 -2.928107e+38
2.6870029 0.58353865 0.72887874 -2.9142955e+38
2.6869919 0.57878435 0.72887874 -2.9146068e+38
2.686981 0.5740301 0.72887874 -2.9275352e+38
2.6689596 0.5646714 0.73256445 -3.035223e+38
2.6869593 0.56452155 0.72887874 -3.1425016e+38
2.6689379 0.55523139 0.73256445 -3.1830072e+38
2.6869373 0.555013 0.72887874 -3.2239259e+38
2.6869266 0.5502587 0.72887874 -3.3039427e+38
2.6869156 0.54550451 0.72887874 -3.3983912e+38
2.6869047 0.54075021 0.72887874 nan
2.6868937 0.5359959 0.72887874 nan
2.686883 0.53124166 0.72887874 nan
2.686872 0.52648741 0.72887874 nan
2.518348 0.73436666 0.75905108 nan
2.518338 0.72993433 0.75905108 nan
2.5033159 0.72037917 0.76215112 nan
2.5033059 0.71597534 0.76215112 nan
2.5032959 0.71157157 0.76215112 nan
2.5032856 0.7071678 0.76215112 nan
2.5032756 0.70276397 0.76215112 nan
2.4882541 0.6933803 0.76525116 nan
2.4882441 0.68900508 0.76525116 nan
2.488234 0.68462986 0.76525116 nan
2.488224 0.68025464 0.76525116 nan
2.488214 0.67587942 0.76525116 nan
2.488204 0.67150414 0.76525116 nan
2.488194 0.66712892 0.76525116 nan
2.488184 0.66275376 0.76525116 nan
2.488174 0.65837848 0.76525116 nan
2.4881639 0.65400326 0.76525116 nan
2.4881539 0.64962804 0.76525116 -3.3274565e+38
2.4881439 0.64525282 0.76525116 -3.1959364e+38
2.4881339 0.6408776 0.76525116 -3.1561123e+38
2.4881239 0.63650239 0.76525116 -3.1027854e+38
2.5031242 0.63670701 0.76215112 -2.9956663e+38
2.5031142 0.63230324 0.76215112 -2.8770783e+38
2.503104 0.62789941 0.76215112 -3.2231487e+38
2.503094 0.62349558 0.76215112 nan
2.5030837 0.61909181 0.76215112 nan
2.5030737 0.61468804 0.76215112 nan
2.5030637 0.61028421 0.76215112 nan
2.5030534 0.60588044 0.76215112 nan
2.5030434 0.60147661 0.76215112 nan
2.7051563 0.6504972 0.72040445 nan
2.7051454 0.64570862 0.72040445 nan
2.7051344 0.6409201 0.72040445 nan
2.7051234 0.63613153 0.72040445 nan
2.7051125 0.63134295 0.72040445 nan
2.7051015 0.62655437 0.72040445 nan
2.6870792 0.61681861 0.72412443 nan
2.6870682 0.6120643 0.72412443 nan
2.6870573 0.60731006 0.72412443 nan
2.6870465 0.60255575 0.72412443 -3.0615985e+38
2.6870356 0.59780145 0.72412443 -3.1154457e+38
2.6870246 0.59304726 0.72412443 -3.1548035e+38
2.6870136 0.58829296 0.72412443 -3.1284268e+38
2.6870029 0.58353865 0.72412443 -3.1013228e+38
2.6869919 0.57878435 0.72412443 -3.0615494e+38
2.686981 0.5740301 0.72412443 -3.0079126e+38
2.6689596 0.5646714 0.72784448 -3.0078605e+38
2.6689487 0.55995142 0.72784448 -2.9952454e+38
2.6689379 0.55523139 0.72784448 -2.8752019e+38
2.6689272 0.55051142 0.72784448 -2.7566109e+38
2.6689162 0.54579145 0.72784448 -2.8627427e+38
2.6869156 0.54550451 0.72412443 -2.9705382e+38
2.6869047 0.54075021 0.72412443 -3.343868e+38
2.6868937 0.5359959 0.72412443 nan
2.686883 0.53124166 0.72412443 nan
2.686872 0.52648741 0.72412443 nan
2.518348 0.73436666 0.75461876 nan
2.518338 0.72993433 0.75461876 nan
2.5183277 0.72550195 0.75461876 nan
2.5033059 0.71597534 0.75774729 nan
2.5032959 0.71157157 0.75774729 nan
2.5032856 0.7071678 0.75774729 nan
2.5032756 0.70276397 0.75774729 nan
2.5032656 0.6983602 0.75774729 nan
2.4882441 0.68900508 0.76087588 nan
2.488234 0.68462986 0.76087588 nan
2.488224 0.68025464 0.76087588 nan
2.488214 0.67587942 0.76087588 nan
2.488204 0.67150414 0.76087588 nan
2.488194 0.66712892 0.76087588 nan
2.488184 0.66275376 0.76087588 nan
2.488174 0.65837848 0.76087588 nan
2.4881639 0.65400326 0.76087588 -3.2099564e+38
2.4881539 0.64962804 0.76087588 -3.2089159e+38
2.4881439 0.64525282 0.76087588 -3.2087088e+38
2.5031445 0.64551461 0.75774729 -3.1689363e+38
2.5031343 0.64111084 0.75774729 -3.142142e+38
2.5031242 0.63670701 0.75774729 -3.2226203e+38
2.5031142 0.63230324 0.75774729 -3.3024809e+38
2.5181143 0.63242215 0.75461876 nan
2.503094 0.62349558 0.75774729 nan
2.5030837 0.61909181 0.75774729 nan
2.5030737 0.61468804 0.75774729 nan
2.5030637 0.61028421 0.75774729 nan
2.5030534 0.60588044 0.75774729 nan
2.5030434 0.60147661 0.75774729 nan
2.7051563 0.6504972 0.71561587 nan
2.7051454 0.64570862 0.71561587 nan
2.7051344 0.6409201 0.71561587 nan
2.7051234 0.63613153 0.71561587 nan
2.7051125 0.63134295 0.71561587 nan
2.7051015 0.62655437 0.71561587 nan
2.6870792 0.61681861 0.71937019 nan
2.6870682 0.6120643 0.71937019 nan
2.6870573 0.60731006 0.71937019 nan
2.6870465 0.60255575 0.71937019 -2.9023039e+38
2.6870356 0.59780145 0.71937019 -3.0084882e+38
2.6870246 0.59304726 0.71937019 -3.1145656e+38
2.6870136 0.58829296 0.71937019 -3.0881875e+38
2.6870029 0.58353865 0.71937019 -3.0749468e+38
2.6869919 0.57878435 0.71937019 -3.0482058e+38
2.686981 0.5740301 0.71937019 -3.0347056e+38
2.6689596 0.5646714 0.72312444 -3.0349649e+38
2.6689487 0.55995142 0.72312444 -3.0351717e+38
2.6689379 0.55523139 0.72312444 -2.9686055e+38
2.6689272 0.55051142 0.72312444 -2.9151755e+38
2.6689162 0.54579145 0.72312444 -2.9421221e+38
2.6689055 0.54107147 0.72312444 -2.9684018e+38
2.6869047 0.54075021 0.71937019 -3.0762523e+38
2.6868937 0.5359959 0.71937019 -3.1970789e+38
2.686883 0.53124166 0.71937019 -3.3969842e+38
2.686872 0.52648741 0.71937019 nan
2.518338 0.72993433 0.75018632 nan
2.5183277 0.72550195 0.75018632 nan
2.5183175 0.72106957 0.75018632 nan
2.5032959 0.71157157 0.75334346 nan
2.5182972 0.71220481 0.75018632 nan
2.5182872 0.70777249 0.75018632 nan
2.5032656 0.6983602 0.75334346 nan
2.4882441 0.68900508 0.7565006 nan
2.488234 0.68462986 0.7565006 nan
2.488224 0.68025464 0.7565006 -3.3440264e+38
2.488214 0.67587942 0.7565006 -3.37004e+38
2.488204 0.67150414 0.7565006 -3.3835907e+38
2.488194 0.66712892 0.7565006 nan
2.488184 0.66275376 0.7565006 nan
2.488174 0.65837848 0.7565006 -3.2353948e+38
2.4881639 0.65400326 0.7565006 -2.956881e+38
2.5031645 0.65432221 0.75334346 -3.0894414e+38
2.5031545 0.64991838 0.75334346 -3.2089689e+38
2.5031445 0.64551461 0.75334346 -3.1954178e+38
2.5031343 0.64111084 0.75334346 -3.1831116e+38
2.5181346 0.64128691 0.75018632 nan
2.5181246 0.63685453 0.75018632 nan
2.5181143 0.63242215 0.75018632 nan
2.503094 0.62349558 0.75334346 nan
2.5030837 0.61909181 0.75334346 nan
2.5030737 0.61468804 0.75334346 nan
2.5030637 0.61028421 0.75334346 nan
2.5030534 0.60588044 0.75334346 nan
2.5030434 0.60147661 0.75334346 nan
2.7231791 0.66047311 0.70703876 nan
2.7231681 0.6556502 0.70703876 nan
2.7231569 0.65082735 0.70703876 nan
2.723146 0.6460045 0.70703876 nan
2.723135 0.64118165 0.70703876 nan
2.7231238 0.63635886 0.70703876 nan
2.7051015 0.62655437 0.71082729 nan
2.7050905 0.62176579 0.71082729 nan
2.6870682 0.6120643 0.71461588 nan
2.6870573 0.60731006 0.71461588 nan
2.6870465 0.60255575 0.71461588 -2.7289315e+38
2.6870356 0.59780145 0.71461588 -2.9016796e+38
2.6870246 0.59304726 0.71461588 -3.0746869e+38
2.6870136 0.58829296 0.71461588 -3.0613945e+38
2.6870029 0.58353865 0.71461588 -3.0350176e+38
2.6869919 0.57878435 0.71461588 -3.048206e+38
2.686981 0.5740301 0.71461588 -3.0484135e+38
2.6689596 0.5646714 0.71840447 -3.0620171e+38
2.6689487 0.55995142 0.71840447 -3.075309e+38
2.6689379 0.55523139 0.71840447 -3.0754124e+38
2.6689272 0.55051142 0.71840447 -3.0619638e+38
2.6689162 0.54579145 0.71840447 -3.0087938e+38
2.6869156 0.54550451 0.71461588 -2.955472e+38
2.6869047 0.54075021 0.71461588 -2.8222928e+38
2.6868937 0.5359959 0.71461588 -2.676857e+38
2.686883 0.53124166 0.71461588 -2.8893781e+38
2.686872 0.52648741 0.71461588 -3.0893858e+38
2.6688514 0.51747149 0.71840447 -3.1423998e+38
2.6338215 0.5045318 0.72577113 -3.1845695e+38
2.518338 0.72993433 0.745754 nan
2.5183277 0.72550195 0.745754 nan
2.5183175 0.72106957 0.745754 nan
2.5183074 0.71663719 0.745754 nan
2.5182972 0.71220481 0.745754 nan
2.5182872 0.70777249 0.745754 -3.1051864e+38
2.5182769 0.70334011 0.745754 -3.2241922e+38
2.5032554 0.69395638 0.74893969 -3.3312008e+38
2.5032454 0.68955255 0.74893969 -3.3968268e+38
2.5032353 0.68514884 0.74893969 nan
2.488214 0.67587942 0.75212538 nan
2.488204 0.67150414 0.75212538 nan
2.488194 0.66712892 0.75212538 nan
2.488184 0.66275376 0.75212538 nan
2.488174 0.65837848 0.75212538 -3.3692461e+38
2.4881639 0.65400326 0.75212538 -3.2364832e+38
2.4881539 0.64962804 0.75212538 -3.2628122e+38
2.5031545 0.64991838 0.74893969 -3.2890864e+38
2.5031445 0.64551461 0.74893969 -3.2494702e+38
2.5181448 0.64571923 0.745754 -3.2238219e+38
2.5181346 0.64128691 0.745754 -3.3701941e+38
2.5181246 0.63685453 0.745754 nan
2.5181143 0.63242215 0.745754 nan
2.5181041 0.62798977 0.745754 -3.3174426e+38
2.5180941 0.62355739 0.745754 nan
2.5030737 0.61468804 0.74893969 nan
2.5030637 0.61028421 0.74893969 nan
2.5030534 0.60588044 0.74893969 nan
2.5030434 0.60147661 0.74893969 nan
2.7231791 0.66047311 0.70221585 nan
2.7231681 0.6556502 0.70221585 nan
2.7051454 0.64570862 0.70603871 nan
2.723146 0.6460045 0.70221585 nan
2.7051234 0.63613153 0.70603871 nan
2.7051125 0.63134295 0.70603871 nan
2.7051015 0.62655437 0.70603871 nan
2.7050905 0.62176579 0.70603871 nan
2.6870682 0.6120643 0.70986158 nan
2.6870573 0.60731006 0.70986158 nan
2.6870465 0.60255575 0.70986158 -2.9946199e+38
2.6870356 0.59780145 0.70986158 -3.0615474e+38
2.6870246 0.59304726 0.70986158 -3.1280098e+38
2.6870136 0.58829296 0.70986158 -3.1016339e+38
2.6870029 0.58353865 0.70986158 -3.07505e+38
2.6869919 0.57878435 0.70986158 -3.0751542e+38
2.6689703 0.56939137 0.71368444 -3.088654e+38
2.6689596 0.5646714 0.71368444 -3.1018942e+38
2.6689487 0.55995142 0.71368444 -3.1152905e+38
2.6689379 0.55523139 0.71368444 -3.1153945e+38
2.6689272 0.55051142 0.71368444 -3.1288945e+38
2.6689162 0.54579145 0.71368444 -3.1155501e+38
2.6689055 0.54107147 0.71368444 -3.1022055e+38
2.6869047 0.54075021 0.70986158 -3.0354322e+38
2.6868937 0.5359959 0.70986158 -2.9817428e+38
2.686883 0.53124166 0.70986158 -3.1283722e+38
2.686872 0.52648741 0.70986158 -3.2733395e+38
2.6688514 0.51747149 0.71368444 -3.3418241e+38
2.6338215 0.5045318 0.72111779 -3.3960976e+38
2.6338108 0.49987847 0.72111779 nan
2.518338 0.72993433 0.74132156 nan
2.5183277 0.72550195 0.74132156 nan
2.5183175 0.72106957 0.74132156 nan
2.5183074 0.71663719 0.74132156 nan
2.5182972 0.71220481 0.74132156 nan
2.5182872 0.70777249 0.74132156 -2.7582828e+38
2.5182769 0.70334011 0.74132156 -2.9565178e+38
2.5032554 0.69395638 0.74453592 -3.1434934e+38
2.5032454 0.68955255 0.74453592 -3.356794e+38
2.5032353 0.68514884 0.74453592 nan
2.5032251 0.68074501 0.74453592 nan
2.5032151 0.67634118 0.74453592 nan
2.488194 0.66712892 0.74775016 nan
2.488184 0.66275376 0.74775016 nan
2.488174 0.65837848 0.74775016 nan
2.4881639 0.65400326 0.74775016 nan
2.5031645 0.65432221 0.74453592 nan
2.5031545 0.64991838 0.74453592 -3.3690455e+38
2.5181549 0.65015161 0.74132156 -3.3160843e+38
2.5181448 0.64571923 0.74132156 -3.249414e+38
2.5181346 0.64128691 0.74132156 -3.2759456e+38
2.5181246 0.63685453 0.74132156 -3.3023225e+38
2.5181143 0.63242215 0.74132156 -3.1412577e+38
2.5181041 0.62798977 0.74132156 -2.9697062e+38
2.5180941 0.62355739 0.74132156 -3.1825924e+38
2.5030737 0.61468804 0.74453592 -3.3963609e+38
2.5030637 0.61028421 0.74453592 nan
2.5030534 0.60588044 0.74453592 nan
2.7231791 0.66047311 0.697393 nan
2.7231681 0.6556502 0.697393 nan
2.7051454 0.64570862 0.70125014 nan
2.723146 0.6460045 0.697393 nan
2.723135 0.64118165 0.697393 nan
2.7051125 0.63134295 0.70125014 nan
2.7051015 0.62655437 0.70125014 nan
2.7050905 0.62176579 0.70125014 nan
2.7050796 0.61697727 0.70125014 nan
2.6870573 0.60731006 0.70510733 nan
2.6870465 0.60255575 0.70510733 -3.2485772e+38
2.6870356 0.59780145 0.70510733 -3.2218368e+38
2.6870246 0.59304726 0.70510733 -3.1818555e+38
2.6870136 0.58829296 0.70510733 -3.1421341e+38
2.6870029 0.58353865 0.70510733 -3.1020499e+38
2.6869919 0.57878435 0.70510733 -3.1153428e+38
2.686981 0.5740301 0.70510733 -3.1284793e+38
2.6869702 0.56927586 0.70510733 -3.141668e+38
2.6689487 0.55995142 0.70896447 -3.1418239e+38
2.6689379 0.55523139 0.70896447 -3.1686166e+38
2.6869373 0.555013 0.70510733 -3.1953573e+38
2.6689162 0.54579145 0.70896447 -3.2222536e+38
2.6869156 0.54550451 0.70510733 -3.2487859e+38
2.6869047 0.54075021 0.70510733 -3.2621295e+38
2.6868937 0.5359959 0.70510733 -3.2753175e+38
2.686883 0.53124166 0.70510733 -3.369038e+38
2.686872 0.52648741 0.70510733 nan
2.6688514 0.51747149 0.70896447 nan
2.6688406 0.51275152 0.70896447 nan
2.6688297 0.50803149 0.70896447 nan
2.518338 0.72993433 0.73688924 nan
2.5183277 0.72550195 0.73688924 nan
2.5183175 0.72106957 0.73688924 nan
2.5183074 0.71663719 0.73688924 nan
2.5182972 0.71220481 0.73688924 nan
2.5182872 0.70777249 0.73688924 nan
2.5182769 0.70334011 0.73688924 -3.3151899e+38
2.5032554 0.69395638 0.74013209 -3.1952026e+38
2.5032454 0.68955255 0.74013209 -3.3425147e+38
2.5032353 0.68514884 0.74013209 nan
2.5032251 0.68074501 0.74013209 -3.3957903e+38
2.5032151 0.67634118 0.74013209 -3.3028967e+38
2.5032051 0.67193741 0.74013209 -3.2762566e+38
2.488184 0.66275376 0.74337494 -3.2367401e+38
2.5031848 0.66312981 0.74013209 -3.1831007e+38
2.5031748 0.65872604 0.74013209 -3.1434352e+38
2.5031645 0.65432221 0.74013209 -3.2092772e+38
2.5181651 0.65458399 0.73688924 -3.2754262e+38
2.5181549 0.65015161 0.73688924 -3.2620293e+38
2.5181448 0.64571923 0.73688924 -3.2615583e+38
2.5181346 0.64128691 0.73688924 -3.2618141e+38
2.5181246 0.63685453 0.73688924 -3.2612942e+38
2.5181143 0.63242215 0.73688924 -3.1682477e+38
2.5181041 0.62798977 0.73688924 -3.0882382e+38
2.5180941 0.62355739 0.73688924 -3.1286379e+38
2.5030737 0.61468804 0.74013209 -3.1821732e+38
2.5030637 0.61028421 0.74013209 -3.2897602e+38
2.5030534 0.60588044 0.74013209 -3.3967272e+38
2.5030434 0.60147661 0.74013209 nan
2.7421918 0.66594851 0.68846256 nan
2.7421808 0.66108948 0.68846256 nan
2.7231569 0.65082735 0.69257015 nan
2.723146 0.6460045 0.69257015 nan
2.7051234 0.63613153 0.69646162 nan
2.7051125 0.63134295 0.69646162 nan
2.7051015 0.62655437 0.69646162 nan
2.7050905 0.62176579 0.69646162 nan
2.6870682 0.6120643 0.70035303 nan
2.6870573 0.60731006 0.70035303 nan
2.6870465 0.60255575 0.70035303 nan
2.6870356 0.59780145 0.70035303 -3.3286973e+38
2.6870246 0.59304726 0.70035303 -3.2354417e+38
2.6870136 0.58829296 0.70035303 -3.1822186e+38
2.6870029 0.58353865 0.70035303 -3.1421347e+38
2.6869919 0.57878435 0.70035303 -3.1419276e+38
2.686981 0.5740301 0.70035303 -3.1417203e+38
2.6869702 0.56927586 0.70035303 -3.1549609e+38
2.6869593 0.56452155 0.70035303 -3.1683576e+38
2.6689379 0.55523139 0.70424443 -3.1817022e+38
2.6689272 0.55051142 0.70424443 -3.1951511e+38
2.6689162 0.54579145 0.70424443 -3.2220478e+38
2.6869156 0.54550451 0.70035303 -3.2489433e+38
2.6869047 0.54075021 0.70035303 -3.2488388e+38
2.6868937 0.5359959 0.70035303 -3.2489948e+38
2.686883 0.53124166 0.70035303 -3.3156641e+38
2.686872 0.52648741 0.70035303 -3.3960427e+38
2.686861 0.52173311 0.70035303 nan
2.6688406 0.51275152 0.70424443 nan
2.6688297 0.50803149 0.70424443 nan
2.668819 0.50331157 0.70424443 nan
2.668808 0.49859154 0.70424443 nan
2.518338 0.72993433 0.7324568 nan
2.5183277 0.72550195 0.7324568 nan
2.5183175 0.72106957 0.7324568 nan
2.5183074 0.71663719 0.7324568 nan
2.5182972 0.71220481 0.7324568 nan
2.5182872 0.70777249 0.7324568 nan
2.5182769 0.70334011 0.7324568 nan
2.5182667 0.69890773 0.7324568 -3.2488899e+38
2.5032454 0.68955255 0.73572826 -3.3425076e+38
2.5032353 0.68514884 0.73572826 nan
2.5032251 0.68074501 0.73572826 -3.2087597e+38
2.5032151 0.67634118 0.73572826 -2.9828409e+38
2.5032051 0.67193741 0.73572826 -2.9820602e+38
2.488184 0.66275376 0.73899966 -2.9826297e+38
2.5031848 0.66312981 0.73572826 -2.8756668e+38
2.5031748 0.65872604 0.73572826 -2.7565046e+38
2.5031645 0.65432221 0.73572826 -2.9687148e+38
2.5181651 0.65458399 0.7324568 -3.1686184e+38
2.5181549 0.65015161 0.7324568 -3.221632e+38
2.5181448 0.64571923 0.7324568 -3.2749544e+38
2.5341461 0.64617205 0.72896731 -3.2484715e+38
2.5341358 0.64170921 0.72896731 -3.2085936e+38
2.5341256 0.63724643 0.72896731 -3.2088003e+38
2.5181041 0.62798977 0.7324568 -3.1949379e+38
2.5180941 0.62355739 0.7324568 -3.0748409e+38
2.5180838 0.61912501 0.7324568 -2.9558387e+38
2.5180736 0.61469269 0.7324568 -3.143338e+38
2.5030534 0.60588044 0.73572826 -3.3173907e+38
2.5030434 0.60147661 0.73572826 nan
2.7231791 0.66047311 0.6877473 nan
2.7231681 0.6556502 0.6877473 -3.2103324e+38
2.7231569 0.65082735 0.6877473 -2.6929195e+38
2.723146 0.6460045 0.6877473 -2.7720495e+38
2.7051234 0.63613153 0.69167304 -2.8526848e+38
2.7051125 0.63134295 0.69167304 -3.1853543e+38
2.7051015 0.62655437 0.69167304 nan
2.7050905 0.62176579 0.69167304 nan
2.6870682 0.6120643 0.69559872 nan
2.6870573 0.60731006 0.69559872 nan
2.6870465 0.60255575 0.69559872 nan
2.6870356 0.59780145 0.69559872 nan
2.6870246 0.59304726 0.69559872 -3.2887152e+38
2.6870136 0.58829296 0.69559872 -3.2357001e+38
2.6870029 0.58353865 0.69559872 -3.1688237e+38
2.6869919 0.57878435 0.69559872 -3.155272e+38
2.686981 0.5740301 0.69559872 -3.1417203e+38
2.6869702 0.56927586 0.69559872 -3.1681491e+38
2.6869593 0.56452155 0.69559872 -3.181442e+38
2.6869483 0.55976731 0.69559872 -3.1946829e+38
2.6869373 0.555013 0.69559872 -3.195047e+38
2.6869266 0.5502587 0.69559872 -3.2217882e+38
2.6869156 0.54550451 0.69559872 -3.2352877e+38
2.6869047 0.54075021 0.69559872 -3.2351835e+38
2.6868937 0.5359959 0.69559872 -3.2220476e+38
2.686883 0.53124166 0.69559872 -3.2751134e+38
2.686872 0.52648741 0.69559872 -3.3155631e+38
2.686861 0.52173311 0.69559872 -3.3953186e+38
2.6868503 0.51697886 0.69559872 nan
2.6868393 0.51222456 0.69559872 nan
2.6868284 0.50747025 0.69559872 nan
2.6868174 0.50271606 0.69559872 nan
2.5033262 0.724783 0.73132443 nan
2.5033159 0.72037917 0.73132443 nan
2.5183175 0.72106957 0.72802442 nan
2.5183074 0.71663719 0.72802442 nan
2.5182972 0.71220481 0.72802442 nan
2.5182872 0.70777249 0.72802442 nan
2.5182769 0.70334011 0.72802442 nan
2.5182667 0.69890773 0.72802442 -3.3286426e+38
2.5032454 0.68955255 0.73132443 -3.3822216e+38
2.5032353 0.68514884 0.73132443 nan
2.5032251 0.68074501 0.73132443 -3.2621323e+38
2.5032151 0.67634118 0.73132443 -3.1021574e+38
2.5032051 0.67193741 0.73132443 -3.0621763e+38
2.5031948 0.66753358 0.73132443 -3.0221955e+38
2.5031848 0.66312981 0.73132443 -2.9290454e+38
2.5031748 0.65872604 0.73132443 -2.8356346e+38
2.5031645 0.65432221 0.73132443 -3.115342e+38
2.5181651 0.65458399 0.72802442 -3.3946888e+38
2.5181549 0.65015161 0.72802442 -3.354917e+38
2.5181448 0.64571923 0.72802442 -3.3017469e+38
2.5181346 0.64128691 0.72802442 -3.2752132e+38
2.5341358 0.64170921 0.72450447 -3.2353352e+38
2.5181143 0.63242215 0.72802442 -3.248678e+38
2.5181041 0.62798977 0.72802442 -3.2483646e+38
2.5180941 0.62355739 0.72802442 -3.2213107e+38
2.5180838 0.61912501 0.72802442 -3.1939035e+38
2.5180736 0.61469269 0.72802442 nan
2.5180635 0.61026031 0.72802442 nan
2.5180533 0.60582793 0.72802442 nan
2.7231791 0.66047311 0.68292445 nan
2.7231681 0.6556502 0.68292445 nan
2.7231569 0.65082735 0.68292445 nan
2.723146 0.6460045 0.68292445 nan
2.7051234 0.63613153 0.68688446 nan
2.7051125 0.63134295 0.68688446 nan
2.7051015 0.62655437 0.68688446 nan
2.6870792 0.61681861 0.69084448 nan
2.6870682 0.6120643 0.69084448 nan
2.6870573 0.60731006 0.69084448 nan
2.6870465 0.60255575 0.69084448 nan
2.6870356 0.59780145 0.69084448 nan
2.6870246 0.59304726 0.69084448 -3.2887158e+38
2.6870136 0.58829296 0.69084448 -3.2354932e+38
2.6870029 0.58353865 0.69084448 -3.1820125e+38
2.6869919 0.57878435 0.69084448 -3.1685126e+38
2.686981 0.5740301 0.69084448 -3.1549607e+38
2.6869702 0.56927586 0.69084448 -3.168097e+38
2.6869593 0.56452155 0.69084448 -3.1945785e+38
2.6869483 0.55976731 0.69084448 -3.1947868e+38
2.6869373 0.555013 0.69084448 -3.2083393e+38
2.6869266 0.5502587 0.69084448 -3.221788e+38
2.6869156 0.54550451 0.69084448 -3.2351839e+38
2.6869047 0.54075021 0.69084448 -3.248476e+38
2.6868937 0.5359959 0.69084448 -3.248425e+38
2.686883 0.53124166 0.69084448 -3.2887183e+38
2.686872 0.52648741 0.69084448 -3.3286489e+38
2.686861 0.52173311 0.69084448 nan
2.6688406 0.51275152 0.69480443 nan
2.6688297 0.50803149 0.69480443 nan
2.668819 0.50331157 0.69480443 nan
2.6507983 0.49446708 0.69876444 nan
2.6507876 0.48978138 0.69876444 nan
2.518338 0.72993433 0.72359204 nan
2.5033159 0.72037917 0.72692066 nan
2.5183175 0.72106957 0.72359204 nan
2.5183074 0.71663719 0.72359204 nan
2.5182972 0.71220481 0.72359204 nan
2.5182872 0.70777249 0.72359204 nan
2.5182769 0.70334011 0.72359204 nan
2.5182667 0.69890773 0.72359204 nan
2.5182567 0.69447535 0.72359204 nan
2.5032353 0.68514884 0.72692066 nan
2.5032251 0.68074501 0.72692066 -3.3286963e+38
2.5032151 0.67634118 0.72692066 -3.2220461e+38
2.5032051 0.67193741 0.72692066 -3.1421882e+38
2.5031948 0.66753358 0.72692066 -3.0490909e+38
2.5031848 0.66312981 0.72692066 -2.982578e+38
2.5031748 0.65872604 0.72692066 -2.9027197e+38
2.5181754 0.65901637 0.72359204 -3.2622335e+38
2.5181651 0.65458399 0.72359204 nan
2.5181549 0.65015161 0.72359204 nan
2.5181448 0.64571923 0.72359204 -3.3286436e+38
2.5341461 0.64617205 0.72004157 -3.3020586e+38
2.5341358 0.64170921 0.72004157 -3.2622329e+38
2.5341256 0.63724643 0.72004157 -3.2889205e+38
2.5181041 0.62798977 0.72359204 -3.3020051e+38
2.5180941 0.62355739 0.72359204 -3.3682069e+38
2.5180838 0.61912501 0.72359204 nan
2.5180736 0.61469269 0.72359204 nan
2.5180635 0.61026031 0.72359204 nan
2.5180533 0.60582793 0.72359204 nan
2.7051673 0.65528578 0.68209589 nan
2.7231681 0.6556502 0.6781016 nan
2.7051454 0.64570862 0.68209589 nan
2.7051344 0.6409201 0.68209589 nan
2.7051234 0.63613153 0.68209589 nan
2.7051125 0.63134295 0.68209589 nan
2.7051015 0.62655437 0.68209589 nan
2.6870792 0.61681861 0.68609017 nan
2.6870682 0.6120643 0.68609017 -3.3699828e+38
2.6870573 0.60731006 0.68609017 nan
2.6870465 0.60255575 0.68609017 nan
2.6870356 0.59780145 0.68609017 -3.3818151e+38
2.6870246 0.59304726 0.68609017 -3.2886641e+38
2.6870136 0.58829296 0.68609017 -3.2354419e+38
2.6870029 0.58353865 0.68609017 -3.1819091e+38
2.6869919 0.57878435 0.68609017 -3.1684608e+38
2.686981 0.5740301 0.68609017 -3.1549607e+38
2.6869702 0.56927586 0.68609017 -3.1812854e+38
2.6869593 0.56452155 0.68609017 -3.1946821e+38
2.6869483 0.55976731 0.68609017 -3.2081308e+38
2.6869373 0.555013 0.68609017 -3.2216831e+38
2.6869266 0.5502587 0.68609017 -3.2351315e+38
2.6869156 0.54550451 0.68609017 -3.2352877e+38
2.6869047 0.54075021 0.68609017 -3.2618727e+38
2.6868937 0.5359959 0.68609017 -3.2755818e+38
2.686883 0.53124166 0.68609017 -3.3026351e+38
2.686872 0.52648741 0.68609017 -3.3295316e+38
2.686861 0.52173311 0.68609017 nan
2.6868503 0.51697886 0.68609017 nan
2.6868393 0.51222456 0.68609017 nan
2.668819 0.50331157 0.69008446 nan
2.668808 0.49859154 0.69008446 nan
2.6687973 0.49387157 0.69008446 nan
2.5033262 0.724783 0.72251683 nan
2.5183277 0.72550195 0.71915966 nan
2.5183175 0.72106957 0.71915966 nan
2.5183074 0.71663719 0.71915966 nan
2.5182972 0.71220481 0.71915966 nan
2.5182872 0.70777249 0.71915966 nan
2.5182769 0.70334011 0.71915966 nan
2.5182667 0.69890773 0.71915966 nan
2.5032454 0.68955255 0.72251683 -3.3420405e+38
2.5032353 0.68514884 0.72251683 -3.2755785e+38
2.5032251 0.68074501 0.72251683 -3.2353374e+38
2.5032151 0.67634118 0.72251683 -3.182116e+38
2.5032051 0.67193741 0.72251683 -3.1156022e+38
2.5031948 0.66753358 0.72251683 -3.0492978e+38
2.5031848 0.66312981 0.72251683 -2.9824742e+38
2.5031748 0.65872604 0.72251683 -2.9291491e+38
2.5031645 0.65432221 0.72251683 -3.1690849e+38
2.5181651 0.65458399 0.71915966 nan
2.5181549 0.65015161 0.71915966 -3.3554882e+38
2.5181448 0.64571923 0.71915966 -3.3021116e+38
2.5181346 0.64128691 0.71915966 -3.3156115e+38
2.5181246 0.63685453 0.71915966 -3.3157152e+38
2.5181143 0.63242215 0.71915966 -3.3422995e+38
2.5181041 0.62798977 0.71915966 -3.3689378e+38
2.5341051 0.62832069 0.71557873 nan
2.5180838 0.61912501 0.71915966 nan
2.5340846 0.61939496 0.71557873 nan
2.5180635 0.61026031 0.71915966 nan
2.5500748 0.61511075 0.71199781 nan
2.7231791 0.66047311 0.67327875 nan
2.7231681 0.6556502 0.67327875 nan
2.7231569 0.65082735 0.67327875 nan
2.723146 0.6460045 0.67327875 nan
2.7051234 0.63613153 0.67730731 nan
2.7051125 0.63134295 0.67730731 nan
2.7051015 0.62655437 0.67730731 nan
2.6870792 0.61681861 0.68133587 nan
2.6870682 0.6120643 0.68133587 -3.342045e+38
2.6870573 0.60731006 0.68133587 -3.3821249e+38
2.6870465 0.60255575 0.68133587 nan
2.6870356 0.59780145 0.68133587 -3.341886e+38
2.6870246 0.59304726 0.68133587 -3.2752163e+38
2.6870136 0.58829296 0.68133587 -3.235079e+38
2.6870029 0.58353865 0.68133587 -3.1948902e+38
2.6869919 0.57878435 0.68133587 -3.1815973e+38
2.686981 0.5740301 0.68133587 -3.168201e+38
2.6869702 0.56927586 0.68133587 -3.1813892e+38
2.6869593 0.56452155 0.68133587 -3.1946819e+38
2.6869483 0.55976731 0.68133587 -3.2083381e+38
2.6869373 0.555013 0.68133587 -3.2351825e+38
2.6869266 0.5502587 0.68133587 -3.2353384e+38
2.6869156 0.54550451 0.68133587 -3.2488396e+38
2.6869047 0.54075021 0.68133587 -3.2489964e+38
2.6868937 0.5359959 0.68133587 -3.2627578e+38
2.686883 0.53124166 0.68133587 -3.2628114e+38
2.686872 0.52648741 0.68133587 -3.2765184e+38
2.686861 0.52173311 0.68133587 -3.3961481e+38
2.6868503 0.51697886 0.68133587 nan
2.6868393 0.51222456 0.68133587 nan
2.6868284 0.50747025 0.68133587 nan
2.668808 0.49859154 0.68536443 nan
2.6687973 0.49387157 0.68536443 nan
2.4723017 0.7141369 0.72511017 nan
2.5033159 0.72037917 0.71811301 nan
2.5033059 0.71597534 0.71811301 nan
2.5032959 0.71157157 0.71811301 nan
2.5032856 0.7071678 0.71811301 nan
2.5032756 0.70276397 0.71811301 nan
2.5032656 0.6983602 0.71811301 nan
2.5032554 0.69395638 0.71811301 nan
2.5032454 0.68955255 0.71811301 -3.275322e+38
2.5032353 0.68514884 0.71811301 -3.1292081e+38
2.5032251 0.68074501 0.71811301 -3.141667e+38
2.5032151 0.67634118 0.71811301 -3.1418751e+38
2.5182159 0.67674583 0.71472728 -3.1021023e+38
2.5182059 0.67231345 0.71472728 -3.0488824e+38
2.5181956 0.66788107 0.71472728 -2.9954547e+38
2.5181854 0.66344875 0.71472728 -2.9423375e+38
2.5031645 0.65432221 0.71811301 -3.0755717e+38
2.5031545 0.64991838 0.71811301 -3.2090135e+38
2.5031445 0.64551461 0.71811301 -3.2486824e+38
2.5031343 0.64111084 0.71811301 -3.2757343e+38
2.5181346 0.64128691 0.71472728 -3.3291632e+38
2.5181246 0.63685453 0.71472728 -3.3690401e+38
2.503104 0.62789941 0.71811301 nan
2.5181041 0.62798977 0.71472728 nan
2.5180941 0.62355739 0.71472728 nan
2.5180838 0.61912501 0.71472728 nan
2.5180736 0.61469269 0.71472728 nan
2.5180635 0.61026031 0.71472728 nan
2.5500748 0.61511075 0.70750445 nan
2.7231681 0.6556502 0.6684559 nan
2.7231569 0.65082735 0.6684559 nan
2.723146 0.6460045 0.6684559 nan
2.7051234 0.63613153 0.67251873 nan
2.7051125 0.63134295 0.67251873 nan
2.7051015 0.62655437 0.67251873 nan
2.6870792 0.61681861 0.67658156 nan
2.6870682 0.6120643 0.67658156 -3.3154592e+38
2.6870573 0.60731006 0.67658156 -3.3418318e+38
2.6870465 0.60255575 0.67658156 -3.368521e+38
2.6870356 0.59780145 0.67658156 -3.3153527e+38
2.6870246 0.59304726 0.67658156 -3.2485273e+38
2.6870136 0.58829296 0.67658156 -3.2348192e+38
2.6870029 0.58353865 0.67658156 -3.2082342e+38
2.6869919 0.57878435 0.67658156 -3.1948377e+38
2.686981 0.5740301 0.67658156 -3.1682012e+38
2.6869702 0.56927586 0.67658156 -3.1813375e+38
2.6869593 0.56452155 0.67658156 -3.1816493e+38
2.6869483 0.55976731 0.67658156 -3.2087013e+38
2.6869373 0.555013 0.67658156 -3.235338e+38
2.6869266 0.5502587 0.67658156 -3.2488384e+38
2.6869156 0.54550451 0.67658156 -3.2621832e+38
2.6869047 0.54075021 0.67658156 -3.2490471e+38
2.6868937 0.5359959 0.67658156 -3.2358067e+38
2.686883 0.53124166 0.67658156 -3.2225145e+38
2.686872 0.52648741 0.67658156 -3.2091719e+38
2.686861 0.52173311 0.67658156 -3.2222062e+38
2.6868503 0.51697886 0.67658156 -3.2229341e+38
2.6868393 0.51222456 0.67658156 -3.38265e+38
2.6868284 0.50747025 0.67658156 nan
2.668808 0.49859154 0.68064445 nan
2.6687973 0.49387157 0.68064445 nan
2.6687865 0.4891516 0.68064445 nan
2.6867847 0.48845321 0.67658156 nan
2.4883244 0.72400689 0.71712351 nan
2.4883144 0.71963167 0.71712351 nan
2.5033159 0.72037917 0.71370924 nan
2.5033059 0.71597534 0.71370924 nan
2.5032959 0.71157157 0.71370924 nan
2.5032856 0.7071678 0.71370924 nan
2.5032756 0.70276397 0.71370924 nan
2.5032656 0.6983602 0.71370924 nan
2.5032554 0.69395638 0.71370924 nan
2.5032454 0.68955255 0.71370924 nan
2.5032353 0.68514884 0.71370924 -3.3825926e+38
2.5032251 0.68074501 0.71370924 -3.1953539e+38
2.5182261 0.68117821 0.7102949 -3.0086399e+38
2.5182159 0.67674583 0.7102949 -3.0621735e+38
2.5182059 0.67231345 0.7102949 -3.1017398e+38
2.5031848 0.66312981 0.71370924 -3.0486236e+38
2.5181854 0.66344875 0.7102949 -2.995143e+38
2.5031645 0.65432221 0.71370924 -3.088812e+38
2.5031545 0.64991838 0.71370924 -3.182221e+38
2.5031445 0.64551461 0.71370924 -3.2356494e+38
2.5031343 0.64111084 0.71370924 -3.3026821e+38
2.5031242 0.63670701 0.71370924 -3.342507e+38
2.5031142 0.63230324 0.71370924 -3.3957802e+38
2.503104 0.62789941 0.71370924 nan
2.5181041 0.62798977 0.7102949 nan
2.5180941 0.62355739 0.7102949 nan
2.5180838 0.61912501 0.7102949 nan
2.5340846 0.61939496 0.706653 nan
2.5340743 0.61493218 0.706653 nan
2.5500748 0.61511075 0.7030111 nan
2.7051234 0.63613153 0.66773015 nan
2.7051125 0.63134295 0.66773015 nan
2.7051015 0.62655437 0.66773015 nan
2.6870792 0.61681861 0.67182732 nan
2.6870682 0.6120643 0.67182732 -3.2354449e+38
2.6870573 0.60731006 0.67182732 -3.288454e+38
2.6870465 0.60255575 0.67182732 -3.3419876e+38
2.6870356 0.59780145 0.67182732 -3.2885597e+38
2.6870246 0.59304726 0.67182732 -3.2485269e+38
2.6870136 0.58829296 0.67182732 -3.2217344e+38
2.6870029 0.58353865 0.67182732 -3.1950458e+38
2.6869919 0.57878435 0.67182732 -3.1684089e+38
2.686981 0.5740301 0.67182732 -3.1550128e+38
2.6869702 0.56927586 0.67182732 -3.1550128e+38
2.6869593 0.56452155 0.67182732 -3.1551686e+38
2.6869483 0.55976731 0.67182732 -3.1819087e+38
2.6869373 0.555013 0.67182732 -3.1953573e+38
2.6869266 0.5502587 0.67182732 -3.2087539e+38
2.6869156 0.54550451 0.67182732 -3.2354423e+38
2.6869047 0.54075021 0.67182732 -3.2354421e+38
2.6868937 0.5359959 0.67182732 -3.2355441e+38
2.686883 0.53124166 0.67182732 -3.2487307e+38
2.686872 0.52648741 0.67182732 -3.2616636e+38
2.686861 0.52173311 0.67182732 -3.2754791e+38
2.6868503 0.51697886 0.67182732 -3.3024799e+38
2.6868393 0.51222456 0.67182732 nan
2.6868284 0.50747025 0.67182732 nan
2.6868174 0.50271606 0.67182732 nan
2.6868067 0.49796176 0.67182732 nan
2.6867957 0.49320745 0.67182732 nan
2.6867847 0.48845321 0.67182732 nan
2.686774 0.4836989 0.67182732 nan
2.704772 0.48289758 0.66773015 nan
2.518338 0.72993433 0.70586252 nan
2.5033159 0.72037917 0.70930541 nan
2.5033059 0.71597534 0.70930541 nan
2.4882843 0.70650601 0.71274829 nan
2.4882743 0.70213079 0.71274829 nan
2.5032756 0.70276397 0.70930541 nan
2.5032656 0.6983602 0.70930541 nan
2.5032554 0.69395638 0.70930541 nan
2.488234 0.68462986 0.71274829 nan
2.5032353 0.68514884 0.70930541 nan
2.5032251 0.68074501 0.70930541 -3.248422e+38
2.5032151 0.67634118 0.70930541 -2.8763416e+38
2.5182159 0.67674583 0.70586252 -3.0228161e+38
2.5182059 0.67231345 0.70586252 -3.1555837e+38
2.5031848 0.66312981 0.70930541 -3.1021558e+38
2.5031748 0.65872604 0.70930541 -3.0489871e+38
2.5031645 0.65432221 0.70930541 -3.1023641e+38
2.5031545 0.64991838 0.70930541 -3.1556369e+38
2.5031445 0.64551461 0.70930541 -3.2356498e+38
2.5031343 0.64111084 0.70930541 -3.3156633e+38
2.5031242 0.63670701 0.70930541 -3.3689881e+38
2.5031142 0.63230324 0.70930541 nan
2.503104 0.62789941 0.70930541 nan
2.5181041 0.62798977 0.70586252 nan
2.5180941 0.62355739 0.70586252 nan
2.5180838 0.61912501 0.70586252 nan
2.5180736 0.61469269 0.70586252 nan
2.5180635 0.61026031 0.70586252 nan
2.5340641 0.61046934 0.70219016 nan
2.5340538 0.60600644 0.70219016 nan
2.6688406 0.51275152 0.67120445 -3.3823334e+38
2.518338 0.72993433 0.70143014 nan
2.5183277 0.72550195 0.70143014 nan
2.5183175 0.72106957 0.70143014 nan
2.5032959 0.71157157 0.70490158 nan
2.5032856 0.7071678 0.70490158 nan
2.5032756 0.70276397 0.70490158 nan
2.5032656 0.6983602 0.70490158 nan
2.5032554 0.69395638 0.70490158 nan
2.5032454 0.68955255 0.70490158 nan
2.5032353 0.68514884 0.70490158 nan
2.5032251 0.68074501 0.70490158 nan
2.5032151 0.67634118 0.70490158 -3.1427079e+38
2.5182159 0.67674583 0.70143014 -3.1959792e+38
2.5182059 0.67231345 0.70143014 -3.2626489e+38
2.5031848 0.66312981 0.70490158 -3.1825841e+38
2.5031748 0.65872604 0.70490158 -3.1159675e+38
2.5031645 0.65432221 0.70490158 -3.1156566e+38
2.5031545 0.64991838 0.70490158 -3.1289487e+38
2.5031445 0.64551461 0.70490158 -3.1822214e+38
2.5031343 0.64111084 0.70490158 -3.2490465e+38
2.5031242 0.63670701 0.70490158 -3.3288002e+38
2.5031142 0.63230324 0.70490158 nan
2.503104 0.62789941 0.70490158 nan
2.5181041 0.62798977 0.70143014 nan
2.5180941 0.62355739 0.70143014 nan
2.5180838 0.61912501 0.70143014 nan
2.5180736 0.61469269 0.70143014 nan
2.5180635 0.61026031 0.70143014 nan
2.5340641 0.61046934 0.69772732 nan
2.5500646 0.6106174 0.69402444 nan
2.5343506 0.73542899 0.69326442 nan
2.5343404 0.73096615 0.69326442 nan
2.5183175 0.72106957 0.69699776 nan
2.5183074 0.71663719 0.69699776 nan
2.5032856 0.7071678 0.70049781 nan
2.5032756 0.70276397 0.70049781 -3.1841014e+38
2.5182769 0.70334011 0.69699776 -3.3278643e+38
2.5182667 0.69890773 0.69699776 nan
2.5032454 0.68955255 0.70049781 nan
2.5032353 0.68514884 0.70049781 nan
2.5032251 0.68074501 0.70049781 nan
2.5032151 0.67634118 0.70049781 -3.3952618e+38
2.5032051 0.67193741 0.70049781 -3.3823814e+38
2.5031948 0.66753358 0.70049781 -3.3690898e+38
2.5031848 0.66312981 0.70049781 -3.2760965e+38
2.5031748 0.65872604 0.70049781 -3.1688766e+38
2.5031645 0.65432221 0.70049781 -3.1285337e+38
2.5031545 0.64991838 0.70049781 -3.0887607e+38
2.5031445 0.64551461 0.70049781 -3.1285858e+38
2.5031343 0.64111084 0.70049781 -3.1687738e+38
2.5031242 0.63670701 0.70049781 -3.2751637e+38
2.5031142 0.63230324 0.70049781 -3.381918e+38
2.503104 0.62789941 0.70049781 nan
2.5181041 0.62798977 0.69699776 nan
2.5180941 0.62355739 0.69699776 nan
2.5180838 0.61912501 0.69699776 nan
2.5180736 0.61469269 0.69699776 nan
2.5180635 0.61026031 0.69699776 nan
2.5340641 0.61046934 0.69326442 nan
2.5500646 0.6106174 0.68953109 nan
2.5500543 0.6061241 0.68953109 nan
2.5343506 0.73542899 0.68880159 nan
2.5343404 0.73096615 0.68880159 nan
2.5183175 0.72106957 0.69256538 nan
2.5183074 0.71663719 0.69256538 nan
2.5182972 0.71220481 0.69256538 nan
2.5032756 0.70276397 0.69609398 nan
2.5032656 0.6983602 0.69609398 nan
2.5032554 0.69395638 0.69609398 nan
2.5032454 0.68955255 0.69609398 nan
2.5032353 0.68514884 0.69609398 -3.3580401e+38
2.5032251 0.68074501 0.69609398 -3.2891373e+38
2.5032151 0.67634118 0.69609398 -3.2088072e+38
2.5032051 0.67193741 0.69609398 -3.1691326e+38
2.5031948 0.66753358 0.69609398 -3.1165354e+38
2.5031848 0.66312981 0.69609398 -3.0624325e+38
2.5031748 0.65872604 0.69609398 -3.0219861e+38
2.5031645 0.65432221 0.69609398 -2.9554744e+38
2.5031545 0.64991838 0.69609398 -2.9025653e+38
2.4881339 0.6408776 0.69962257 -3.1687748e+38
2.4881239 0.63650239 0.69962257 nan
2.5031242 0.63670701 0.69609398 nan
2.5031142 0.63230324 0.69609398 nan
2.503104 0.62789941 0.69609398 nan
2.503094 0.62349558 0.69609398 nan
2.5030837 0.61909181 0.69609398 nan
2.5030737 0.61468804 0.69609398 nan
2.5030637 0.61028421 0.69609398 nan
2.5180635 0.61026031 0.69256538 nan
2.5180533 0.60582793 0.69256538 nan
2.5340538 0.60600644 0.68880159 nan
2.5500543 0.6061241 0.68503779 nan
2.5830657 0.61101514 0.67727494 nan
2.5343506 0.73542899 0.68433875 nan
2.5343404 0.73096615 0.68433875 nan
2.5343301 0.72650331 0.68433875 nan
2.5183074 0.71663719 0.688133 nan
2.5182972 0.71220481 0.688133 nan
2.5182872 0.70777249 0.688133 nan
2.5182769 0.70334011 0.688133 nan
2.5032554 0.69395638 0.69169015 nan
2.5032454 0.68955255 0.69169015 -3.2895008e+38
2.5032353 0.68514884 0.69169015 -2.997172e+38
2.5032251 0.68074501 0.69169015 -3.0083852e+38
2.5032151 0.67634118 0.69169015 -3.02209e+38
2.5032051 0.67193741 0.69169015 -2.9421779e+38
2.5031948 0.66753358 0.69169015 -2.862581e+38
2.5031848 0.66312981 0.69169015 -2.8616993e+38
