# .PCD v0.7 - Point Cloud Data file format
VERSION 0.7
FIELDS x y z rgb
SIZE 4 4 4 4
TYPE F F F F
COUNT 1 1 1 1
WIDTH 1048
HEIGHT 1
VIEWPOINT 0 0 0 1 0 0 0
POINTS 1048
DATA ascii
2.6503961 -0.95602667 1.5187645 -2.3419433e+38
2.6503854 -0.96071231 1.5187645 -2.3551839e+38
2.6503747 -0.96539807 1.5187645 -2.3685802e+38
2.6503639 -0.97008371 1.5187645 -2.3818727e+38
2.6503532 -0.97476947 1.5187645 -2.3951654e+38
2.6503425 -0.97945511 1.5187645 -2.4217505e+38
2.6503317 -0.98414087 1.5187645 -2.4350428e+38
2.650321 -0.98882651 1.5187645 -2.4218025e+38
2.6503103 -0.99351227 1.5187645 -2.3951662e+38
2.6502995 -0.99819791 1.5187645 -2.3951145e+38
2.6333034 -0.99644959 1.5168378 -2.381822e+38
2.6332929 -1.0011028 1.5168378 -2.3685814e+38
2.6332822 -1.0057561 1.5168378 -2.3553409e+38
2.6332715 -1.0104095 1.5168378 -2.3553407e+38
2.633261 -1.0150628 1.5168378 -2.3553405e+38
2.5992806 -1.006524 1.5129845 -2.3819248e+38
2.5992701 -1.0111126 1.5129845 -2.4085615e+38
2.6162441 -1.022362 1.5149112 -2.4085096e+38
2.6162336 -1.0269829 1.5149112 -2.4086142e+38
2.6162229 -1.0316038 1.5149112 -2.4218554e+38
2.6331968 -1.0429828 1.5168378 -2.4352525e+38
2.6162019 -1.0408458 1.5149112 -2.4618381e+38
2.6331756 -1.0522894 1.5168378 -2.4885271e+38
2.6161807 -1.0500876 1.5149112 -2.5019239e+38
2.6331544 -1.061596 1.5168378 -2.5153701e+38
2.6161594 -1.0593295 1.5149112 -2.4887839e+38
2.6501172 -1.0778549 1.5187645 -2.448646e+38
2.6501064 -1.0825406 1.5187645 -2.1548125e+38
2.6500957 -1.0872263 1.5187645 -1.8515471e+38
2.650085 -1.091912 1.5187645 -2.8535213e+38
2.6500742 -1.0965977 1.5187645 nan
2.6500635 -1.1012833 1.5187645 nan
2.6500528 -1.1059691 1.5187645 nan
2.6500421 -1.1106547 1.5187645 nan
2.668014 -1.1229759 1.5208045 nan
2.6680031 -1.127696 1.5208045 nan
2.6679924 -1.132416 1.5208045 nan
2.8598535 -0.75662291 1.5373673 nan
2.8598418 -0.76170671 1.5373673 -3.166678e+38
2.8398421 -0.76158285 1.5351388 -1.7014199e+38
2.8198423 -0.7613827 1.5329102 -2.1288579e+38
2.8198309 -0.76639032 1.5329102 -2.5686966e+38
2.8198195 -0.77139795 1.5329102 -2.5419555e+38
2.819808 -0.77640557 1.5329102 -2.5286106e+38
2.8197966 -0.7814132 1.5329102 -2.5152137e+38
2.8197851 -0.78642082 1.5329102 -2.5017653e+38
2.7997861 -0.785954 1.5306816 -2.4751801e+38
2.7797875 -0.785411 1.5284531 -2.4485434e+38
2.7797761 -0.79034245 1.5284531 -2.4218546e+38
2.7417889 -0.78465545 1.5242188 -2.4085627e+38
2.7417777 -0.78951454 1.5242188 -2.4085112e+38
2.7607543 -0.7997551 1.526336 -2.4218542e+38
2.7607431 -0.80465031 1.526336 -2.4350412e+38
2.7417443 -0.80409157 1.5242188 -2.4483333e+38
2.7417333 -0.80895066 1.5242188 -2.434885e+38
2.7417221 -0.81380963 1.5242188 -2.4215408e+38
2.7417109 -0.81866872 1.5242188 -2.4081966e+38
2.7227125 -0.81792903 1.5221016 -2.4081968e+38
2.7227015 -0.82275188 1.5221016 -2.3949567e+38
2.7226903 -0.82757473 1.5221016 -2.3951122e+38
2.7226794 -0.83239758 1.5221016 -2.3818195e+38
2.6866932 -0.82633793 1.5180902 -2.3818717e+38
2.6866825 -0.83109224 1.5180902 -2.3818717e+38
2.6866715 -0.83584654 1.5180902 -2.3818729e+38
2.6866605 -0.84060073 1.5180902 -2.3551336e+38
2.7046371 -0.85093343 1.5200959 -2.3282358e+38
2.7046261 -0.85572207 1.5200959 -2.341215e+38
2.7046151 -0.86051059 1.5200959 -2.3539882e+38
2.7046041 -0.86529911 1.5200959 -2.2212731e+38
2.6866062 -0.86437213 1.5180902 -2.1018497e+38
2.6865952 -0.86912644 1.5180902 -2.2218431e+38
2.6865845 -0.87388074 1.5180902 -2.3426694e+38
2.6865735 -0.87863505 1.5180902 -2.1953656e+38
2.6865625 -0.88338923 1.5180902 -2.049516e+38
2.6865518 -0.88814354 1.5180902 -2.1556484e+38
2.6865408 -0.89289784 1.5180902 -2.2752274e+38
2.6865299 -0.89765203 1.5180902 -2.2751756e+38
2.6865191 -0.90240633 1.5180902 -2.2886227e+38
2.6865082 -0.90716064 1.5180902 -2.3417387e+38
2.6685112 -0.90585661 1.5160844 -2.4081992e+38
2.6864865 -0.91666913 1.5180902 -2.3683735e+38
2.6864755 -0.92142344 1.5180902 -2.3418417e+38
2.6684787 -0.92001653 1.5160844 -2.32855e+38
2.668468 -0.9247365 1.5160844 -2.3153091e+38
2.6684573 -0.92945659 1.5160844 -2.3019642e+38
2.6684463 -0.93417645 1.5160844 -2.3019119e+38
2.6684356 -0.93889654 1.5160844 -2.3019634e+38
2.6684248 -0.94361651 1.5160844 -2.3019632e+38
2.6684139 -0.94833648 1.5160844 -2.3285476e+38
2.6684031 -0.95305645 1.5160844 -2.341892e+38
2.6683924 -0.95777643 1.5160844 -2.3551843e+38
2.6503961 -0.95602667 1.5140789 -2.3552366e+38
2.6503854 -0.96071231 1.5140789 -2.3551849e+38
2.6503747 -0.96539807 1.5140789 -2.3552372e+38
2.6503639 -0.97008371 1.5140789 -2.3552893e+38
2.6503532 -0.97476947 1.5140789 -2.3685818e+38
2.6503425 -0.97945511 1.5140789 -2.3818741e+38
2.6503317 -0.98414087 1.5140789 -2.4084067e+38
2.6683059 -0.99553633 1.5160844 -2.3951143e+38
2.6503103 -0.99351227 1.5140789 -2.3684261e+38
2.6502995 -0.99819791 1.5140789 -2.3817703e+38
2.6333034 -0.99644959 1.5121845 -2.3818216e+38
2.6332929 -1.0011028 1.5121845 -2.381821e+38
2.6332822 -1.0057561 1.5121845 -2.3685806e+38
2.6332715 -1.0104095 1.5121845 -2.3685806e+38
2.633261 -1.0150628 1.5121845 -2.3552366e+38
2.6162653 -1.0131201 1.5102901 -2.3685808e+38
2.6162546 -1.0177411 1.5102901 -2.3952175e+38
2.6162441 -1.022362 1.5102901 -2.3819773e+38
2.6162336 -1.0269829 1.5102901 -2.3820301e+38
2.6162229 -1.0316038 1.5102901 -2.395323e+38
2.6162124 -1.0362248 1.5102901 -2.4087199e+38
2.6162019 -1.0408458 1.5102901 -2.4484935e+38
2.6161911 -1.0454667 1.5102901 -2.4750263e+38
2.6161807 -1.0500876 1.5102901 -2.5018188e+38
2.6161699 -1.0547086 1.5102901 -2.5151608e+38
2.6161594 -1.0593295 1.5102901 -2.5021257e+38
2.6161489 -1.0639504 1.5102901 -2.4759605e+38
2.6501064 -1.0825406 1.5140789 -2.2625093e+38
2.6500957 -1.0872263 1.5140789 -2.0491659e+38
2.650085 -1.091912 1.5140789 -2.5042269e+38
2.6500742 -1.0965977 1.5140789 -2.9605864e+38
2.6500635 -1.1012833 1.5140789 nan
2.6500528 -1.1059691 1.5140789 nan
2.6500421 -1.1106547 1.5140789 nan
2.668014 -1.1229759 1.5160844 nan
2.6680031 -1.127696 1.5160844 nan
2.6679924 -1.132416 1.5160844 nan
2.6679816 -1.137136 1.5160844 nan
2.8598652 -0.75153911 1.5322835 nan
2.8598535 -0.75662291 1.5322835 nan
2.8598418 -0.76170671 1.5322835 -2.9243016e+38
2.8398421 -0.76158285 1.5300931 -1.7020937e+38
2.8398304 -0.76662862 1.5300931 -2.1293749e+38
2.8198309 -0.76639032 1.5279026 -2.555039e+38
2.8198195 -0.77139795 1.5279026 -2.528506e+38
2.819808 -0.77640557 1.5279026 -2.5018693e+38
2.8197966 -0.7814132 1.5279026 -2.4751809e+38
2.7997975 -0.78098452 1.5257121 -2.4485959e+38
2.7997861 -0.785954 1.5257121 -2.4352515e+38
2.7607994 -0.78017426 1.5214407 -2.4218552e+38
2.7607882 -0.78506947 1.5214407 -2.3951147e+38
2.7417889 -0.78465545 1.5193597 -2.3552897e+38
2.7417777 -0.78951454 1.5193597 -2.3684784e+38
2.7607543 -0.7997551 1.5214407 -2.3818737e+38
2.7607431 -0.80465031 1.5214407 -2.395113e+38
2.7417443 -0.80409157 1.5193597 -2.3950607e+38
2.7417333 -0.80895066 1.5193597 -2.3949047e+38
2.7417221 -0.81380963 1.5193597 -2.3949565e+38
2.7417109 -0.81866872 1.5193597 -2.3683198e+38
2.7227125 -0.81792903 1.5172788 -2.3284953e+38
2.7416887 -0.82838678 1.5193597 -2.3285474e+38
2.7226903 -0.82757473 1.5172788 -2.3285991e+38
2.7226794 -0.83239758 1.5172788 -2.3418393e+38
2.6866932 -0.82633793 1.5133359 -2.3551835e+38
2.70467 -0.83656776 1.5153074 -2.3551317e+38
2.704659 -0.84135628 1.5153074 -2.3551322e+38
2.6866605 -0.84060073 1.5133359 -2.3683212e+38
2.7046371 -0.85093343 1.5153074 -2.3815607e+38
2.6866388 -0.85010934 1.5133359 -2.3948524e+38
2.6866279 -0.85486364 1.5133359 -2.4078853e+38
2.6866171 -0.85961795 1.5133359 -2.3815605e+38
2.6866062 -0.86437213 1.5133359 -2.3549236e+38
2.6865952 -0.86912644 1.5133359 -2.355235e+38
2.6865845 -0.87388074 1.5133359 -2.3553396e+38
2.6865735 -0.87863505 1.5133359 -2.3284965e+38
2.6865625 -0.88338923 1.5133359 -2.302017e+38
2.6865518 -0.88814354 1.5133359 -2.3286028e+38
2.6865408 -0.89289784 1.5133359 -2.3418431e+38
2.6865299 -0.89765203 1.5133359 -2.3418952e+38
2.6685328 -0.89641666 1.5113645 -2.3418944e+38
2.6685221 -0.90113664 1.5113645 -2.355134e+38
2.6685112 -0.90585661 1.5113645 -2.3683737e+38
2.6685004 -0.91057658 1.5113645 -2.3418405e+38
2.6684897 -0.91529655 1.5113645 -2.301964e+38
2.6684787 -0.92001653 1.5113645 -2.3019645e+38
2.668468 -0.9247365 1.5113645 -2.3019642e+38
2.6684573 -0.92945659 1.5113645 -2.3019121e+38
2.6684463 -0.93417645 1.5113645 -2.3019117e+38
2.6684356 -0.93889654 1.5113645 -2.3152555e+38
2.6684248 -0.94361651 1.5113645 -2.3152551e+38
2.6504283 -0.94196951 1.5093931 -2.3285472e+38
2.6684031 -0.95305645 1.5113645 -2.3285993e+38
2.6504068 -0.95134091 1.5093931 -2.3551839e+38
2.6503961 -0.95602667 1.5093931 -2.3684766e+38
2.6503854 -0.96071231 1.5093931 -2.3551326e+38
2.6503747 -0.96539807 1.5093931 -2.3286525e+38
2.6503639 -0.97008371 1.5093931 -2.3288086e+38
2.6503532 -0.97476947 1.5093931 -2.3286527e+38
2.6503425 -0.97945511 1.5093931 -2.3552372e+38
2.6503317 -0.98414087 1.5093931 -2.3817699e+38
2.650321 -0.98882651 1.5093931 -2.3684776e+38
2.6503103 -0.99351227 1.5093931 -2.341893e+38
2.6502995 -0.99819791 1.5093931 -2.3684778e+38
2.6502888 -1.0028837 1.5093931 -2.3817696e+38
2.6502781 -1.0075693 1.5093931 -2.3817175e+38
2.6332822 -1.0057561 1.5075312 -2.3817694e+38
2.6332715 -1.0104095 1.5075312 -2.3684772e+38
2.6502459 -1.0216265 1.5093931 -2.3551851e+38
2.6162653 -1.0131201 1.5056692 -2.3685295e+38
2.6162546 -1.0177411 1.5056692 -2.3686335e+38
2.6162441 -1.022362 1.5056692 -2.3686337e+38
2.6332183 -1.0336761 1.5075312 -2.3553936e+38
2.6162229 -1.0316038 1.5056692 -2.3686344e+38
2.6162124 -1.0362248 1.5056692 -2.3819792e+38
2.6162019 -1.0408458 1.5056692 -2.4218045e+38
2.6331756 -1.0522894 1.5075312 -2.4618892e+38
2.6331649 -1.0569427 1.5075312 -2.4885778e+38
2.6331544 -1.061596 1.5075312 -2.5151614e+38
2.6161594 -1.0593295 1.5056692 -2.5152123e+38
2.6161489 -1.0639504 1.5056692 -2.5023897e+38
2.6331222 -1.0755559 1.5075312 -2.3699886e+38
2.6500957 -1.0872263 1.5093931 -2.2355627e+38
2.650085 -1.091912 1.5093931 -2.1535272e+38
2.6330903 -1.089516 1.5075312 -2.0660514e+38
2.6680465 -1.108816 1.5113645 nan
2.6500528 -1.1059691 1.5093931 nan
2.6680248 -1.118256 1.5113645 nan
2.6500313 -1.1153405 1.5093931 nan
2.6500206 -1.1200262 1.5093931 nan
2.6500099 -1.1247119 1.5093931 nan
2.8598652 -0.75153911 1.5271997 nan
2.8598535 -0.75662291 1.5271997 -3.2644183e+38
2.8598418 -0.76170671 1.5271997 -2.6206561e+38
2.8398421 -0.76158285 1.5250473 -1.9938998e+38
2.8398304 -0.76662862 1.5250473 -2.261828e+38
2.8198309 -0.76639032 1.522895 -2.5416409e+38
2.8198195 -0.77139795 1.522895 -2.501816e+38
2.819808 -0.77640557 1.522895 -2.4619397e+38
2.8197966 -0.7814132 1.522895 -2.4353036e+38
2.7997975 -0.78098452 1.5207427 -2.4220114e+38
2.7797987 -0.78047967 1.5185902 -2.3953228e+38
2.7607994 -0.78017426 1.5165454 -2.3819266e+38
2.7607882 -0.78506947 1.5165454 -2.3552899e+38
2.7607768 -0.78996468 1.5165454 -2.3287054e+38
2.7417777 -0.78951454 1.5145007 -2.3286533e+38
2.7417667 -0.79437351 1.5145007 -2.3286529e+38
2.7417555 -0.7992326 1.5145007 -2.3419445e+38
2.7607319 -0.80954564 1.5165454 -2.3419441e+38
2.7417333 -0.80895066 1.5145007 -2.3551319e+38
2.7417221 -0.81380963 1.5145007 -2.368424e+38
2.7417109 -0.81866872 1.5145007 -2.3285468e+38
2.7227125 -0.81792903 1.5124559 -2.3019626e+38
2.7227015 -0.82275188 1.5124559 -2.302015e+38
2.7226903 -0.82757473 1.5124559 -2.315307e+38
2.7046919 -0.8269906 1.5105188 -2.3418395e+38
2.6866932 -0.82633793 1.5085816 -2.3684242e+38
2.6866825 -0.83109224 1.5085816 -2.35508e+38
2.6866715 -0.83584654 1.5085816 -2.3550281e+38
2.6866605 -0.84060073 1.5085816 -2.3550281e+38
2.7046371 -0.85093343 1.5105188 -2.3683206e+38
2.6866388 -0.85010934 1.5085816 -2.3682687e+38
2.6866279 -0.85486364 1.5085816 -2.3682691e+38
2.6866171 -0.85961795 1.5085816 -2.3549772e+38
2.6866062 -0.86437213 1.5085816 -2.3549772e+38
2.6865952 -0.86912644 1.5085816 -2.3417886e+38
2.6865845 -0.87388074 1.5085816 -2.3284967e+38
2.6865735 -0.87863505 1.5085816 -2.3153085e+38
2.6865625 -0.88338923 1.5085816 -2.3020685e+38
2.6865518 -0.88814354 1.5085816 -2.3153093e+38
2.6865408 -0.89289784 1.5085816 -2.3285496e+38
2.6865299 -0.89765203 1.5085816 -2.3285496e+38
2.6685328 -0.89641666 1.5066445 -2.3286531e+38
2.6685221 -0.90113664 1.5066445 -2.3285486e+38
2.6685112 -0.90585661 1.5066445 -2.3284963e+38
2.6685004 -0.91057658 1.5066445 -2.3152034e+38
2.6684897 -0.91529655 1.5066445 -2.3019113e+38
2.6684787 -0.92001653 1.5066445 -2.3152557e+38
2.668468 -0.9247365 1.5066445 -2.3285482e+38
2.6684573 -0.92945659 1.5066445 -2.3284444e+38
2.6684463 -0.93417645 1.5066445 -2.328392e+38
2.6504498 -0.93259811 1.5047073 -2.3284435e+38
2.650439 -0.93728387 1.5047073 -2.3284433e+38
2.6504283 -0.94196951 1.5047073 -2.3284949e+38
2.6684031 -0.95305645 1.5066445 -2.328547e+38
2.6504068 -0.95134091 1.5047073 -2.3418393e+38
2.6503961 -0.95602667 1.5047073 -2.35508e+38
2.6503854 -0.96071231 1.5047073 -2.3551322e+38
2.6503747 -0.96539807 1.5047073 -2.355133e+38
2.633378 -0.96387625 1.5028778 -2.3418932e+38
2.6333675 -0.96852958 1.5028778 -2.341789e+38
2.6333568 -0.97318292 1.5028778 -2.3551847e+38
2.6333461 -0.97783625 1.5028778 -2.3684252e+38
2.6333354 -0.98248959 1.5028778 -2.3551851e+38
2.6333249 -0.98714292 1.5028778 -2.3551851e+38
2.6333141 -0.99179626 1.5028778 -2.3551851e+38
2.6502888 -1.0028837 1.5047073 -2.3684256e+38
2.6502781 -1.0075693 1.5047073 -2.3684256e+38
2.6502674 -1.0122551 1.5047073 -2.3684256e+38
2.6502566 -1.0169408 1.5047073 -2.3551853e+38
2.6502459 -1.0216265 1.5047073 -2.3418413e+38
2.6332502 -1.0197161 1.5028778 -2.3552376e+38
2.6332395 -1.0243695 1.5028778 -2.3686339e+38
2.6332288 -1.0290228 1.5028778 -2.3686342e+38
2.6332183 -1.0336761 1.5028778 -2.3686861e+38
2.6332076 -1.0383295 1.5028778 -2.3686342e+38
2.6331968 -1.0429828 1.5028778 -2.3819788e+38
2.6162019 -1.0408458 1.5010483 -2.3953751e+38
2.6331756 -1.0522894 1.5028778 -2.4222195e+38
2.6161807 -1.0500876 1.5010483 -2.4619407e+38
2.6161699 -1.0547086 1.5010483 -2.4885255e+38
2.6161594 -1.0593295 1.5010483 -2.5019218e+38
2.6161489 -1.0639504 1.5010483 -2.5153707e+38
2.6501064 -1.0825406 1.5047073 -2.4625139e+38
2.6500957 -1.0872263 1.5047073 -2.3960501e+38
2.650085 -1.091912 1.5047073 -2.154346e+38
2.6680572 -1.1040961 1.5066445 -1.9143264e+38
2.6680465 -1.108816 1.5066445 -3.2790379e+38
2.6680355 -1.113536 1.5066445 nan
2.6680248 -1.118256 1.5066445 nan
2.668014 -1.1229759 1.5066445 nan
2.6680031 -1.127696 1.5066445 nan
2.6679924 -1.132416 1.5066445 nan
2.6679816 -1.137136 1.5066445 nan
2.8598535 -0.75662291 1.5221159 -2.3569555e+38
2.8598418 -0.76170671 1.5221159 -2.313223e+38
2.8398421 -0.76158285 1.5200016 -2.2745447e+38
2.8398304 -0.76662862 1.5200016 -2.4089256e+38
2.8198309 -0.76639032 1.5178874 -2.5284526e+38
2.8198195 -0.77139795 1.5178874 -2.4752318e+38
2.819808 -0.77640557 1.5178874 -2.4220112e+38
2.7998087 -0.77601504 1.5157731 -2.4087191e+38
2.7997975 -0.78098452 1.5157731 -2.3820305e+38
2.7797987 -0.78047967 1.5136588 -2.3686342e+38
2.7607994 -0.78017426 1.5116502 -2.3419975e+38
2.7607882 -0.78506947 1.5116502 -2.328705e+38
2.7607768 -0.78996468 1.5116502 -2.3020685e+38
2.7607656 -0.79485989 1.5116502 -2.2887762e+38
2.7607543 -0.7997551 1.5116502 -2.2754835e+38
2.7607431 -0.80465031 1.5116502 -2.2887756e+38
2.7607319 -0.80954564 1.5116502 -2.2887754e+38
2.7417333 -0.80895066 1.5096416 -2.3152038e+38
2.7417221 -0.81380963 1.5096416 -2.3285478e+38
2.7417109 -0.81866872 1.5096416 -2.3019628e+38
2.7416999 -0.82352769 1.5096416 -2.2621379e+38
2.7416887 -0.82838678 1.5096416 -2.2887227e+38
2.7226903 -0.82757473 1.5076331 -2.3019628e+38
2.7226794 -0.83239758 1.5076331 -2.3417875e+38
2.7046809 -0.83177924 1.5057302 -2.3683202e+38
2.70467 -0.83656776 1.5057302 -2.3549243e+38
2.704659 -0.84135628 1.5057302 -2.3416839e+38
2.6866605 -0.84060073 1.5038273 -2.341632e+38
2.6866498 -0.84535503 1.5038273 -2.3416839e+38
2.7046261 -0.85572207 1.5057302 -2.3416841e+38
2.6866279 -0.85486364 1.5038273 -2.3284439e+38
2.7046041 -0.86529911 1.5057302 -2.3417362e+38
2.6866062 -0.86437213 1.5038273 -2.3417364e+38
2.6865952 -0.86912644 1.5038273 -2.3151523e+38
2.6865845 -0.87388074 1.5038273 -2.2886716e+38
2.6865735 -0.87863505 1.5038273 -2.2887756e+38
2.6865625 -0.88338923 1.5038273 -2.2887239e+38
2.6865518 -0.88814354 1.5038273 -2.3020683e+38
2.6865408 -0.89289784 1.5038273 -2.3019642e+38
2.6685436 -0.89169657 1.5019245 -2.3018602e+38
2.6685328 -0.89641666 1.5019245 -2.3019117e+38
2.6685221 -0.90113664 1.5019245 -2.3018077e+38
2.6685112 -0.90585661 1.5019245 -2.2886188e+38
2.6685004 -0.91057658 1.5019245 -2.2886186e+38
2.6684897 -0.91529655 1.5019245 -2.2886188e+38
2.6684787 -0.92001653 1.5019245 -2.3152036e+38
2.668468 -0.9247365 1.5019245 -2.3417364e+38
2.6684573 -0.92945659 1.5019245 -2.3416849e+38
2.6684463 -0.93417645 1.5019245 -2.3417364e+38
2.6504498 -0.93259811 1.5000217 -2.341736e+38
2.650439 -0.93728387 1.5000217 -2.3417358e+38
2.6504283 -0.94196951 1.5000217 -2.3284433e+38
2.6504176 -0.94665527 1.5000217 -2.3152549e+38
2.6504068 -0.95134091 1.5000217 -2.3284953e+38
2.6503961 -0.95602667 1.5000217 -2.3417879e+38
2.6503854 -0.96071231 1.5000217 -2.3550806e+38
2.6503747 -0.96539807 1.5000217 -2.3683731e+38
2.6503639 -0.97008371 1.5000217 -2.3550812e+38
2.6503532 -0.97476947 1.5000217 -2.3417888e+38
2.6333568 -0.97318292 1.4982245 -2.3551847e+38
2.6503317 -0.98414087 1.5000217 -2.3551328e+38
2.650321 -0.98882651 1.5000217 -2.355133e+38
2.6333249 -0.98714292 1.4982245 -2.355133e+38
2.6333141 -0.99179626 1.4982245 -2.3551332e+38
2.6333034 -0.99644959 1.4982245 -2.3550814e+38
2.6332929 -1.0011028 1.4982245 -2.3550297e+38
2.6332822 -1.0057561 1.4982245 -2.3551334e+38
2.6502566 -1.0169408 1.5000217 -2.341893e+38
2.6502459 -1.0216265 1.5000217 -2.3286009e+38
2.6332502 -1.0197161 1.4982245 -2.3419453e+38
2.6332395 -1.0243695 1.4982245 -2.3552376e+38
2.6332288 -1.0290228 1.4982245 -2.3685301e+38
2.6332183 -1.0336761 1.4982245 -2.368582e+38
2.6332076 -1.0383295 1.4982245 -2.368582e+38
2.6331968 -1.0429828 1.4982245 -2.3686342e+38
2.6331863 -1.047636 1.4982245 -2.3820305e+38
2.6331756 -1.0522894 1.4982245 -2.3820826e+38
2.6161807 -1.0500876 1.4964273 -2.421856e+38
2.6161699 -1.0547086 1.4964273 -2.4618886e+38
2.6161594 -1.0593295 1.4964273 -2.5018695e+38
2.6161489 -1.0639504 1.4964273 -2.5286624e+38
2.6161382 -1.0685713 1.4964273 -2.5420591e+38
2.6500957 -1.0872263 1.5000217 -2.5546224e+38
2.650085 -1.091912 1.5000217 -2.166756e+38
2.6680572 -1.1040961 1.5019245 -1.7706016e+38
2.6680465 -1.108816 1.5019245 -2.9876941e+38
2.6680355 -1.113536 1.5019245 nan
2.6680248 -1.118256 1.5019245 nan
2.668014 -1.1229759 1.5019245 nan
2.6680031 -1.127696 1.5019245 nan
2.6679924 -1.132416 1.5019245 nan
2.6679816 -1.137136 1.5019245 nan
2.8598535 -0.75662291 1.5170321 -2.0337302e+38
2.8598418 -0.76170671 1.5170321 -2.2212701e+38
2.8398421 -0.76158285 1.514956 -2.4086629e+38
2.8398304 -0.76662862 1.514956 -2.4354061e+38
2.8198309 -0.76639032 1.5128797 -2.4752835e+38
2.8198195 -0.77139795 1.5128797 -2.4485957e+38
2.7998202 -0.77104545 1.5108036 -2.4219594e+38
2.7998087 -0.77601504 1.5108036 -2.395323e+38
2.7997975 -0.78098452 1.5108036 -2.3686344e+38
2.7797987 -0.78047967 1.5087273 -2.3552897e+38
2.7607994 -0.78017426 1.506755 -2.3419453e+38
2.7607882 -0.78506947 1.506755 -2.3153604e+38
2.7607768 -0.78996468 1.506755 -2.2887239e+38
2.7607656 -0.79485989 1.506755 -2.2754835e+38
2.7607543 -0.7997551 1.506755 -2.2621913e+38
2.7607431 -0.80465031 1.506755 -2.2621913e+38
2.7607319 -0.80954564 1.506755 -2.2622951e+38
2.7417333 -0.80895066 1.5047826 -2.2754833e+38
2.7417221 -0.81380963 1.5047826 -2.2887235e+38
2.7417109 -0.81866872 1.5047826 -2.2754308e+38
2.7416999 -0.82352769 1.5047826 -2.2621383e+38
2.7416887 -0.82838678 1.5047826 -2.2754302e+38
2.7416775 -0.83324587 1.5047826 -2.2885667e+38
2.7226794 -0.83239758 1.5028102 -2.3018588e+38
2.7226684 -0.83722043 1.5028102 -2.3283914e+38
2.70467 -0.83656776 1.5009416 -2.3283914e+38
2.704659 -0.84135628 1.5009416 -2.3416837e+38
2.704648 -0.84614491 1.5009416 -2.3283914e+38
2.7046371 -0.85093343 1.5009416 -2.3283916e+38
2.6866388 -0.85010934 1.499073 -2.3284437e+38
2.6866279 -0.85486364 1.499073 -2.3152032e+38
2.6866171 -0.85961795 1.499073 -2.3151511e+38
2.6866062 -0.86437213 1.499073 -2.3152036e+38
2.6865952 -0.86912644 1.499073 -2.30186e+38
2.6865845 -0.87388074 1.499073 -2.2886716e+38
2.6865735 -0.87863505 1.499073 -2.2886716e+38
2.6865625 -0.88338923 1.499073 -2.2886196e+38
2.6865518 -0.88814354 1.499073 -2.3019117e+38
2.6865408 -0.89289784 1.499073 -2.3151519e+38
2.6685436 -0.89169657 1.4972045 -2.3151515e+38
2.6865191 -0.90240633 1.499073 -2.3151513e+38
2.6685221 -0.90113664 1.4972045 -2.3018588e+38
2.6685112 -0.90585661 1.4972045 -2.3019107e+38
2.6685004 -0.91057658 1.4972045 -2.3018588e+38
2.6684897 -0.91529655 1.4972045 -2.3019109e+38
2.6684787 -0.92001653 1.4972045 -2.3150993e+38
2.668468 -0.9247365 1.4972045 -2.3282884e+38
2.6684573 -0.92945659 1.4972045 -2.3283926e+38
2.6684463 -0.93417645 1.4972045 -2.3417366e+38
2.6684356 -0.93889654 1.4972045 -2.3151517e+38
2.6684248 -0.94361651 1.4972045 -2.3018592e+38
2.6504283 -0.94196951 1.4953359 -2.3019628e+38
2.6504176 -0.94665527 1.4953359 -2.3020667e+38
2.6504068 -0.95134091 1.4953359 -2.3152549e+38
2.6683815 -0.9624964 1.4972045 -2.3285478e+38
2.6683707 -0.96721649 1.4972045 -2.3417886e+38
2.66836 -0.97193646 1.4972045 -2.3550289e+38
2.6503639 -0.97008371 1.4953359 -2.3417366e+38
2.6503532 -0.97476947 1.4953359 -2.3284444e+38
2.6333568 -0.97318292 1.4935712 -2.3417884e+38
2.6333461 -0.97783625 1.4935712 -2.3550806e+38
2.6333354 -0.98248959 1.4935712 -2.3417884e+38
2.6333249 -0.98714292 1.4935712 -2.3417888e+38
2.6333141 -0.99179626 1.4935712 -2.341789e+38
2.6333034 -0.99644959 1.4935712 -2.3417892e+38
2.6332929 -1.0011028 1.4935712 -2.3417894e+38
2.6332822 -1.0057561 1.4935712 -2.3417894e+38
2.6502566 -1.0169408 1.4953359 -2.3418411e+38
2.6502459 -1.0216265 1.4953359 -2.3286009e+38
2.6332502 -1.0197161 1.4935712 -2.3418932e+38
2.6332395 -1.0243695 1.4935712 -2.368478e+38
2.6332288 -1.0290228 1.4935712 -2.368478e+38
2.650203 -1.0403693 1.4953359 -2.3685299e+38
2.6332076 -1.0383295 1.4935712 -2.3685299e+38
2.6331968 -1.0429828 1.4935712 -2.3818222e+38
2.6331863 -1.047636 1.4935712 -2.3818741e+38
2.6331756 -1.0522894 1.4935712 -2.395167e+38
2.6161807 -1.0500876 1.4918064 -2.4219077e+38
2.6161699 -1.0547086 1.4918064 -2.4486481e+38
2.6331437 -1.0662494 1.4935712 -2.4886285e+38
2.6161489 -1.0639504 1.4918064 -2.5286616e+38
2.6161382 -1.0685713 1.4918064 -2.5552465e+38
2.6500957 -1.0872263 1.4953359 -2.5818818e+38
2.650085 -1.091912 1.4953359 -2.2213275e+38
2.6500742 -1.0965977 1.4953359 -1.8612054e+38
2.6500635 -1.1012833 1.4953359 -2.5043908e+38
2.6680355 -1.113536 1.4972045 -3.1613249e+38
2.6680248 -1.118256 1.4972045 nan
2.668014 -1.1229759 1.4972045 nan
2.6680031 -1.127696 1.4972045 nan
2.6679924 -1.132416 1.4972045 nan
2.6679816 -1.137136 1.4972045 nan
2.8398652 -0.75149143 1.5099102 -1.7021479e+38
2.8598418 -0.76170671 1.5119483 -2.1161299e+38
2.8198538 -0.75637507 1.5078721 -2.5283476e+38
2.8398304 -0.76662862 1.5099102 -2.4753872e+38
2.8198309 -0.76639032 1.5078721 -2.4220623e+38
2.8198195 -0.77139795 1.5078721 -2.4219586e+38
2.7998202 -0.77104545 1.505834 -2.4219067e+38
2.7998087 -0.77601504 1.505834 -2.3952185e+38
2.7997975 -0.78098452 1.505834 -2.3552895e+38
2.7797987 -0.78047967 1.5037959 -2.3419453e+38
2.7607994 -0.78017426 1.5018598 -2.3286007e+38
2.7607882 -0.78506947 1.5018598 -2.3019638e+38
2.7607768 -0.78996468 1.5018598 -2.2754312e+38
2.7607656 -0.79485989 1.5018598 -2.2621389e+38
2.7607543 -0.7997551 1.5018598 -2.2488464e+38
2.7607431 -0.80465031 1.5018598 -2.2355542e+38
2.7607319 -0.80954564 1.5018598 -2.222314e+38
2.7417333 -0.80895066 1.4999236 -2.2356065e+38
2.7417221 -0.81380963 1.4999236 -2.2356063e+38
2.7417109 -0.81866872 1.4999236 -2.2488984e+38
2.7416999 -0.82352769 1.4999236 -2.248898e+38
2.7416887 -0.82838678 1.4999236 -2.2621898e+38
2.7416775 -0.83324587 1.4999236 -2.262086e+38
2.7226794 -0.83239758 1.4979874 -2.2753261e+38
2.7226684 -0.83722043 1.4979874 -2.2885665e+38
2.7226572 -0.84204316 1.4979874 -2.3150989e+38
2.704659 -0.84135628 1.4961531 -2.3283912e+38
2.704648 -0.84614491 1.4961531 -2.3283912e+38
2.7046371 -0.85093343 1.4961531 -2.3150991e+38
2.6866388 -0.85010934 1.4943187 -2.3150993e+38
2.6866279 -0.85486364 1.4943187 -2.301859e+38
2.6866171 -0.85961795 1.4943187 -2.3017549e+38
2.6866062 -0.86437213 1.4943187 -2.288515e+38
2.6865952 -0.86912644 1.4943187 -2.2884635e+38
2.6865845 -0.87388074 1.4943187 -2.2885671e+38
2.6865735 -0.87863505 1.4943187 -2.2885669e+38
2.6865625 -0.88338923 1.4943187 -2.2885665e+38
2.6865518 -0.88814354 1.4943187 -2.3018586e+38
2.6865408 -0.89289784 1.4943187 -2.3151507e+38
2.6865299 -0.89765203 1.4943187 -2.3151505e+38
2.6865191 -0.90240633 1.4943187 -2.3151507e+38
2.6865082 -0.90716064 1.4943187 -2.3151509e+38
2.6864972 -0.91191483 1.4943187 -2.3151509e+38
2.6864865 -0.91666913 1.4943187 -2.315047e+38
2.6684897 -0.91529655 1.4924846 -2.3018067e+38
2.6684787 -0.92001653 1.4924846 -2.3150472e+38
2.668468 -0.9247365 1.4924846 -2.3150478e+38
2.6684573 -0.92945659 1.4924846 -2.3283924e+38
2.6684463 -0.93417645 1.4924846 -2.3283922e+38
2.6684356 -0.93889654 1.4924846 -2.3017555e+38
2.6684248 -0.94361651 1.4924846 -2.2619823e+38
2.6684139 -0.94833648 1.4924846 -2.2754304e+38
2.6504176 -0.94665527 1.4906502 -2.2886708e+38
2.6504068 -0.95134091 1.4906502 -2.301963e+38
2.6683815 -0.9624964 1.4924846 -2.3019113e+38
2.6683707 -0.96721649 1.4924846 -2.3150999e+38
2.66836 -0.97193646 1.4924846 -2.3283922e+38
2.6503639 -0.97008371 1.4906502 -2.3151001e+38
2.6503532 -0.97476947 1.4906502 -2.3018596e+38
2.6333568 -0.97318292 1.4889178 -2.3284439e+38
2.6503317 -0.98414087 1.4906502 -2.3417884e+38
2.6333354 -0.98248959 1.4889178 -2.3417888e+38
2.6333249 -0.98714292 1.4889178 -2.3284965e+38
2.6333141 -0.99179626 1.4889178 -2.3283928e+38
2.6333034 -0.99644959 1.4889178 -2.328445e+38
2.6502781 -1.0075693 1.4906502 -2.3284454e+38
2.6502674 -1.0122551 1.4906502 -2.3284452e+38
2.6502566 -1.0169408 1.4906502 -2.3284969e+38
2.6502459 -1.0216265 1.4906502 -2.3286007e+38
2.6332502 -1.0197161 1.4889178 -2.3551855e+38
2.6332395 -1.0243695 1.4889178 -2.3684778e+38
2.6332288 -1.0290228 1.4889178 -2.3684259e+38
2.6332183 -1.0336761 1.4889178 -2.3684778e+38
2.6332076 -1.0383295 1.4889178 -2.3817701e+38
2.6331968 -1.0429828 1.4889178 -2.381822e+38
2.6331863 -1.047636 1.4889178 -2.3950623e+38
2.6331756 -1.0522894 1.4889178 -2.3952704e+38
2.6331649 -1.0569427 1.4889178 -2.4219073e+38
2.6331544 -1.061596 1.4889178 -2.4353556e+38
2.6331437 -1.0662494 1.4889178 -2.4886287e+38
2.6331329 -1.0709026 1.4889178 -2.5285577e+38
2.6161382 -1.0685713 1.4871855 -2.568383e+38
2.6331117 -1.0802094 1.4889178 -2.6083112e+38
2.650085 -1.091912 1.4906502 -2.2755363e+38
2.6500742 -1.0965977 1.4906502 -1.9422494e+38
2.6500635 -1.1012833 1.4906502 -2.0338482e+38
2.6680355 -1.113536 1.4924846 -2.1328779e+38
2.6680248 -1.118256 1.4924846 nan
2.668014 -1.1229759 1.4924846 nan
2.6680031 -1.127696 1.4924846 nan
2.6679924 -1.132416 1.4924846 nan
2.6679816 -1.137136 1.4924846 nan
2.6499884 -1.1340833 1.4906502 nan
2.8598418 -0.76170671 1.5068645 -2.1021665e+38
2.8198538 -0.75637507 1.5028645 -2.501765e+38
2.8398304 -0.76662862 1.5048645 -2.4752318e+38
2.8198309 -0.76639032 1.5028645 -2.4352507e+38
2.8198195 -0.77139795 1.5028645 -2.4219578e+38
2.7998202 -0.77104545 1.5008645 -2.4085619e+38
2.7998087 -0.77601504 1.5008645 -2.3819256e+38
2.7997975 -0.78098452 1.5008645 -2.3685814e+38
2.7797987 -0.78047967 1.4988645 -2.341893e+38
2.7797875 -0.785411 1.4988645 -2.3285484e+38
2.7607882 -0.78506947 1.4969645 -2.3019634e+38
2.7607768 -0.78996468 1.4969645 -2.2886712e+38
2.7607656 -0.79485989 1.4969645 -2.2754306e+38
2.7607543 -0.7997551 1.4969645 -2.2621383e+38
2.7417555 -0.7992326 1.4950645 -2.2488458e+38
2.7417443 -0.80409157 1.4950645 -2.235554e+38
2.7417333 -0.80895066 1.4950645 -2.2356063e+38
2.7417221 -0.81380963 1.4950645 -2.2356582e+38
2.7417109 -0.81866872 1.4950645 -2.2488986e+38
2.7416999 -0.82352769 1.4950645 -2.2621385e+38
2.7416887 -0.82838678 1.4950645 -2.2621379e+38
2.7416775 -0.83324587 1.4950645 -2.2753783e+38
2.7226794 -0.83239758 1.4931645 -2.2886184e+38
2.7226684 -0.83722043 1.4931645 -2.3018586e+38
2.7226572 -0.84204316 1.4931645 -2.3151507e+38
2.704659 -0.84135628 1.4913645 -2.328391e+38
2.704648 -0.84614491 1.4913645 -2.3150987e+38
2.7046371 -0.85093343 1.4913645 -2.3151509e+38
2.6866388 -0.85010934 1.4895645 -2.3018069e+38
2.6866279 -0.85486364 1.4895645 -2.2885665e+38
2.6866171 -0.85961795 1.4895645 -2.2885146e+38
2.6866062 -0.86437213 1.4895645 -2.2885148e+38
2.6865952 -0.86912644 1.4895645 -2.288515e+38
2.6865845 -0.87388074 1.4895645 -2.2885665e+38
2.6865735 -0.87863505 1.4895645 -2.2885661e+38
2.6865625 -0.88338923 1.4895645 -2.2752732e+38
2.6865518 -0.88814354 1.4895645 -2.2885649e+38
2.6865408 -0.89289784 1.4895645 -2.3151494e+38
2.6865299 -0.89765203 1.4895645 -2.3018572e+38
2.6865191 -0.90240633 1.4895645 -2.3018058e+38
2.6865082 -0.90716064 1.4895645 -2.3018062e+38
2.6864972 -0.91191483 1.4895645 -2.3018582e+38
2.6685004 -0.91057658 1.4877645 -2.3018062e+38
2.6684897 -0.91529655 1.4877645 -2.3017545e+38
2.6684787 -0.92001653 1.4877645 -2.3017028e+38
2.668468 -0.9247365 1.4877645 -2.3149957e+38
2.6684573 -0.92945659 1.4877645 -2.3149961e+38
2.6684463 -0.93417645 1.4877645 -2.3149961e+38
2.6684356 -0.93889654 1.4877645 -2.3017555e+38
2.650439 -0.93728387 1.4859645 -2.2752748e+38
2.6684139 -0.94833648 1.4877645 -2.2753265e+38
2.6504176 -0.94665527 1.4859645 -2.2752748e+38
2.6504068 -0.95134091 1.4859645 -2.2886192e+38
2.6683815 -0.9624964 1.4877645 -2.3018596e+38
2.6683707 -0.96721649 1.4877645 -2.3017555e+38
2.66836 -0.97193646 1.4877645 -2.3017557e+38
2.633378 -0.96387625 1.4842645 -2.3018077e+38
2.6333675 -0.96852958 1.4842645 -2.3018075e+38
2.6333568 -0.97318292 1.4842645 -2.3018592e+38
2.6503317 -0.98414087 1.4859645 -2.3019636e+38
2.6333354 -0.98248959 1.4842645 -2.2886718e+38
2.6333249 -0.98714292 1.4842645 -2.2887237e+38
2.6333141 -0.99179626 1.4842645 -2.2886198e+38
2.6333034 -0.99644959 1.4842645 -2.3019125e+38
2.6502781 -1.0075693 1.4859645 -2.3018608e+38
2.6502674 -1.0122551 1.4859645 -2.3018087e+38
2.6502566 -1.0169408 1.4859645 -2.301964e+38
2.6502459 -1.0216265 1.4859645 -2.3020681e+38
2.6332502 -1.0197161 1.4842645 -2.3286529e+38
2.6332395 -1.0243695 1.4842645 -2.3419449e+38
2.6332288 -1.0290228 1.4842645 -2.3418928e+38
2.6332183 -1.0336761 1.4842645 -2.3551332e+38
2.6332076 -1.0383295 1.4842645 -2.355237e+38
2.6331968 -1.0429828 1.4842645 -2.3685814e+38
2.6331863 -1.047636 1.4842645 -2.3687372e+38
2.6331756 -1.0522894 1.4842645 -2.3821856e+38
2.6331649 -1.0569427 1.4842645 -2.4087185e+38
2.6331544 -1.061596 1.4842645 -2.4353556e+38
2.6331437 -1.0662494 1.4842645 -2.4752847e+38
2.6331329 -1.0709026 1.4842645 -2.528506e+38
2.6331222 -1.0755559 1.4842645 -2.5551944e+38
2.6500957 -1.0872263 1.4859645 -2.5952791e+38
2.650085 -1.091912 1.4859645 -2.4223237e+38
2.6500742 -1.0965977 1.4859645 -2.2497815e+38
2.6500635 -1.1012833 1.4859645 -2.0878313e+38
2.6500528 -1.1059691 1.4859645 -1.927566e+38
2.6680248 -1.118256 1.4877645 -3.3190184e+38
2.6500313 -1.1153405 1.4859645 nan
2.6500206 -1.1200262 1.4859645 nan
2.6500099 -1.1247119 1.4859645 nan
2.6679816 -1.137136 1.4877645 nan
2.6499884 -1.1340833 1.4859645 nan
2.8398535 -0.75653708 1.4998188 -2.0892352e+38
2.8198538 -0.75637507 1.4978569 -2.4751269e+38
2.8398304 -0.76662862 1.4998188 -2.461887e+38
2.8198309 -0.76639032 1.4978569 -2.4485945e+38
2.8198195 -0.77139795 1.4978569 -2.4219578e+38
2.819808 -0.77640557 1.4978569 -2.3819771e+38
2.7998087 -0.77601504 1.4958949 -2.3818735e+38
2.7997975 -0.78098452 1.4958949 -2.3685293e+38
2.7797987 -0.78047967 1.4939331 -2.3418409e+38
2.7797875 -0.785411 1.4939331 -2.3152559e+38
2.7607882 -0.78506947 1.4920692 -2.3019632e+38
2.7607768 -0.78996468 1.4920692 -2.2886708e+38
2.7607656 -0.79485989 1.4920692 -2.2754302e+38
2.7607543 -0.7997551 1.4920692 -2.2621381e+38
2.7607431 -0.80465031 1.4920692 -2.2487939e+38
2.7607319 -0.80954564 1.4920692 -2.2355538e+38
2.7417333 -0.80895066 1.4902055 -2.2356059e+38
2.7417221 -0.81380963 1.4902055 -2.2223136e+38
2.7417109 -0.81866872 1.4902055 -2.2488462e+38
2.7416999 -0.82352769 1.4902055 -2.2621381e+38
2.7416887 -0.82838678 1.4902055 -2.2753781e+38
2.7416775 -0.83324587 1.4902055 -2.2886182e+38
2.7416666 -0.83810484 1.4902055 -2.3018586e+38
2.7226684 -0.83722043 1.4883417 -2.3151507e+38
2.7226572 -0.84204316 1.4883417 -2.3151505e+38
2.7226462 -0.84686601 1.4883417 -2.3150985e+38
2.704648 -0.84614491 1.486576 -2.3150985e+38
2.7046371 -0.85093343 1.486576 -2.3017543e+38
2.6866388 -0.85010934 1.4848102 -2.2884103e+38
2.6866279 -0.85486364 1.4848102 -2.2618775e+38
2.6866171 -0.85961795 1.4848102 -2.2751698e+38
2.6866062 -0.86437213 1.4848102 -2.2751698e+38
2.6865952 -0.86912644 1.4848102 -2.288514e+38
2.6865845 -0.87388074 1.4848102 -2.2885657e+38
2.6865735 -0.87863505 1.4848102 -2.2752734e+38
2.6865625 -0.88338923 1.4848102 -2.2619807e+38
2.6865518 -0.88814354 1.4848102 -2.2886168e+38
2.6865408 -0.89289784 1.4848102 -2.3018574e+38
2.6865299 -0.89765203 1.4848102 -2.2885136e+38
2.6865191 -0.90240633 1.4848102 -2.2752215e+38
2.6865082 -0.90716064 1.4848102 -2.2751698e+38
2.6864972 -0.91191483 1.4848102 -2.2752217e+38
2.6864865 -0.91666913 1.4848102 -2.288462e+38
2.6684897 -0.91529655 1.4830445 -2.3017026e+38
2.6684787 -0.92001653 1.4830445 -2.301599e+38
2.668468 -0.9247365 1.4830445 -2.3015474e+38
2.6684573 -0.92945659 1.4830445 -2.3014959e+38
2.6684463 -0.93417645 1.4830445 -2.3015998e+38
2.6504498 -0.93259811 1.4812788 -2.3017034e+38
2.650439 -0.93728387 1.4812788 -2.2885148e+38
2.6684139 -0.94833648 1.4830445 -2.2752223e+38
2.6504176 -0.94665527 1.4812788 -2.2486895e+38
2.6683924 -0.95777643 1.4830445 -2.275274e+38
2.6683815 -0.9624964 1.4830445 -2.2884622e+38
2.6683707 -0.96721649 1.4830445 -2.2750661e+38
2.66836 -0.97193646 1.4830445 -2.2618266e+38
2.633378 -0.96387625 1.4796112 -2.2884639e+38
2.6163816 -0.96228969 1.4779435 -2.3018079e+38
2.6333568 -0.97318292 1.4796112 -2.275275e+38
2.6333461 -0.97783625 1.4796112 -2.2487424e+38
2.6333354 -0.98248959 1.4796112 -2.2487426e+38
2.6333249 -0.98714292 1.4796112 -2.2487424e+38
2.6333141 -0.99179626 1.4796112 -2.2619828e+38
2.6333034 -0.99644959 1.4796112 -2.2620347e+38
2.6332929 -1.0011028 1.4796112 -2.2753272e+38
2.6502674 -1.0122551 1.4812788 -2.2753272e+38
2.6502566 -1.0169408 1.4812788 -2.2753793e+38
2.6502459 -1.0216265 1.4812788 -2.2754312e+38
2.6332502 -1.0197161 1.4796112 -2.3020158e+38
2.6332395 -1.0243695 1.4796112 -2.3153078e+38
2.6332288 -1.0290228 1.4796112 -2.328548e+38
2.6332183 -1.0336761 1.4796112 -2.3285999e+38
2.6332076 -1.0383295 1.4796112 -2.3419441e+38
2.6331968 -1.0429828 1.4796112 -2.3420999e+38
2.6331863 -1.047636 1.4796112 -2.3556001e+38
2.6331756 -1.0522894 1.4796112 -2.3555485e+38
2.6331649 -1.0569427 1.4796112 -2.3954777e+38
2.6331544 -1.061596 1.4796112 -2.4353552e+38
2.6331437 -1.0662494 1.4796112 -2.4751805e+38
2.6331329 -1.0709026 1.4796112 -2.5151616e+38
2.6331222 -1.0755559 1.4796112 -2.5417987e+38
2.6331117 -1.0802094 1.4796112 -2.568643e+38
2.650085 -1.091912 1.4812788 -2.5554548e+38
2.6500742 -1.0965977 1.4812788 -2.5415346e+38
2.6500635 -1.1012833 1.4812788 -2.1401654e+38
2.6500528 -1.1059691 1.4812788 -1.7306702e+38
2.6500421 -1.1106547 1.4812788 -3.0143831e+38
2.6500313 -1.1153405 1.4812788 nan
2.6500206 -1.1200262 1.4812788 nan
2.6500099 -1.1247119 1.4812788 nan
2.6499991 -1.1293976 1.4812788 nan
2.6499884 -1.1340833 1.4812788 nan
2.8598418 -0.76170671 1.4966969 -2.0756807e+38
2.8398421 -0.76158285 1.494773 -2.4488523e+38
2.8398304 -0.76662862 1.494773 -2.4353535e+38
2.839819 -0.77167428 1.494773 -2.4353018e+38
2.8198195 -0.77139795 1.4928492 -2.4086134e+38
2.819808 -0.77640557 1.4928492 -2.381925e+38
2.8197966 -0.7814132 1.4928492 -2.3686327e+38
2.7997975 -0.78098452 1.4909254 -2.3552885e+38
2.7797987 -0.78047967 1.4890016 -2.3418924e+38
2.7797875 -0.785411 1.4890016 -2.3153076e+38
2.7607882 -0.78506947 1.487174 -2.301963e+38
2.7607768 -0.78996468 1.487174 -2.2753783e+38
2.7607656 -0.79485989 1.487174 -2.2620856e+38
2.7607543 -0.7997551 1.487174 -2.262086e+38
2.7607431 -0.80465031 1.487174 -2.2487939e+38
2.7607319 -0.80954564 1.487174 -2.2355536e+38
2.7417333 -0.80895066 1.4853464 -2.2355536e+38
2.7417221 -0.81380963 1.4853464 -2.2488458e+38
2.7417109 -0.81866872 1.4853464 -2.262086e+38
2.7416999 -0.82352769 1.4853464 -2.2753781e+38
2.7416887 -0.82838678 1.4853464 -2.2886701e+38
2.7416775 -0.83324587 1.4853464 -2.3152026e+38
2.7416666 -0.83810484 1.4853464 -2.3150985e+38
2.7226684 -0.83722043 1.4835188 -2.3150464e+38
2.7226572 -0.84204316 1.4835188 -2.3150981e+38
2.7226462 -0.84686601 1.4835188 -2.3018058e+38
2.704648 -0.84614491 1.4817873 -2.3017539e+38
2.7046371 -0.85093343 1.4817873 -2.301702e+38
2.6866388 -0.85010934 1.4800559 -2.2884097e+38
2.6866279 -0.85486364 1.4800559 -2.2751174e+38
2.6866171 -0.85961795 1.4800559 -2.261825e+38
2.6866062 -0.86437213 1.4800559 -2.2617728e+38
2.6865952 -0.86912644 1.4800559 -2.2751688e+38
2.6865845 -0.87388074 1.4800559 -2.2752728e+38
2.6865735 -0.87863505 1.4800559 -2.2752209e+38
2.6865625 -0.88338923 1.4800559 -2.2619284e+38
2.6865518 -0.88814354 1.4800559 -2.2752724e+38
2.6865408 -0.89289784 1.4800559 -2.2885653e+38
2.6865299 -0.89765203 1.4800559 -2.2752736e+38
2.6865191 -0.90240633 1.4800559 -2.2752217e+38
2.6865082 -0.90716064 1.4800559 -2.2752217e+38
2.6864972 -0.91191483 1.4800559 -2.2752217e+38
2.6864865 -0.91666913 1.4800559 -2.2884618e+38
2.6684897 -0.91529655 1.4783245 -2.3016507e+38
2.6684787 -0.92001653 1.4783245 -2.3014951e+38
2.668468 -0.9247365 1.4783245 -2.314684e+38
2.6684573 -0.92945659 1.4783245 -2.3014438e+38
2.6684463 -0.93417645 1.4783245 -2.3014438e+38
2.6504498 -0.93259811 1.476593 -2.3016513e+38
2.650439 -0.93728387 1.476593 -2.2884625e+38
2.6504283 -0.94196951 1.476593 -2.2752217e+38
2.6504176 -0.94665527 1.476593 -2.2487406e+38
2.6683924 -0.95777643 1.4783245 -2.2618767e+38
2.6683815 -0.9624964 1.4783245 -2.2883574e+38
2.6683707 -0.96721649 1.4783245 -2.2883574e+38
2.66836 -0.97193646 1.4783245 -2.2884109e+38
2.6503639 -0.97008371 1.476593 -2.2884643e+38
2.6333675 -0.96852958 1.4749578 -2.3018083e+38
2.6333568 -0.97318292 1.4749578 -2.2885156e+38
2.6333461 -0.97783625 1.4749578 -2.2752231e+38
2.6333354 -0.98248959 1.4749578 -2.2620343e+38
2.6333249 -0.98714292 1.4749578 -2.2620343e+38
2.6333141 -0.99179626 1.4749578 -2.2753263e+38
2.6333034 -0.99644959 1.4749578 -2.2886703e+38
2.6332929 -1.0011028 1.4749578 -2.2886182e+38
2.6502674 -1.0122551 1.476593 -2.2886188e+38
2.6332715 -1.0104095 1.4749578 -2.2753789e+38
2.6502459 -1.0216265 1.476593 -2.2753789e+38
2.6162653 -1.0131201 1.4733226 -2.2887229e+38
2.6332395 -1.0243695 1.4749578 -2.3020669e+38
2.6332288 -1.0290228 1.4749578 -2.315359e+38
2.6332183 -1.0336761 1.4749578 -2.3154109e+38
2.6332076 -1.0383295 1.4749578 -2.328703e+38
2.6331968 -1.0429828 1.4749578 -2.3421512e+38
2.6331863 -1.047636 1.4749578 -2.3554437e+38
2.6331756 -1.0522894 1.4749578 -2.3687366e+38
2.6331649 -1.0569427 1.4749578 -2.4086657e+38
2.6331544 -1.061596 1.4749578 -2.4485951e+38
2.6331437 -1.0662494 1.4749578 -2.475232e+38
2.6331329 -1.0709026 1.4749578 -2.5019212e+38
2.6331222 -1.0755559 1.4749578 -2.5285585e+38
2.6331117 -1.0802094 1.4749578 -2.5554031e+38
2.650085 -1.091912 1.476593 -2.5422668e+38
2.6330903 -1.089516 1.4749578 -2.542727e+38
2.6500635 -1.1012833 1.476593 -2.1278033e+38
2.6500528 -1.1059691 1.476593 -1.7281221e+38
2.6500421 -1.1106547 1.476593 -2.9984393e+38
2.6500313 -1.1153405 1.476593 nan
2.6500206 -1.1200262 1.476593 nan
2.6500099 -1.1247119 1.476593 nan
2.8598418 -0.76170671 1.491613 -2.0631176e+38
2.8198538 -0.75637507 1.4878416 -2.4088211e+38
2.8198423 -0.7613827 1.4878416 -2.4087179e+38
2.8198309 -0.76639032 1.4878416 -2.4086659e+38
2.8198195 -0.77139795 1.4878416 -2.3953217e+38
2.819808 -0.77640557 1.4878416 -2.3819256e+38
2.8197966 -0.7814132 1.4878416 -2.3686331e+38
2.7997975 -0.78098452 1.485956 -2.3419967e+38
2.7797987 -0.78047967 1.4840702 -2.3286003e+38
2.7797875 -0.785411 1.4840702 -2.3153078e+38
2.7607882 -0.78506947 1.4822788 -2.288671e+38
2.7607768 -0.78996468 1.4822788 -2.2620862e+38
2.7607656 -0.79485989 1.4822788 -2.262086e+38
2.7607543 -0.7997551 1.4822788 -2.2487937e+38
2.7607431 -0.80465031 1.4822788 -2.2355016e+38
2.7417443 -0.80409157 1.4804873 -2.2222094e+38
2.7417333 -0.80895066 1.4804873 -2.2487937e+38
2.7417221 -0.81380963 1.4804873 -2.2753263e+38
2.7417109 -0.81866872 1.4804873 -2.2885667e+38
2.7416999 -0.82352769 1.4804873 -2.2886182e+38
2.7416887 -0.82838678 1.4804873 -2.3152026e+38
2.7416775 -0.83324587 1.4804873 -2.328391e+38
2.7416666 -0.83810484 1.4804873 -2.3283391e+38
2.7226684 -0.83722043 1.4786959 -2.3150466e+38
2.7226572 -0.84204316 1.4786959 -2.3017541e+38
2.7226462 -0.84686601 1.4786959 -2.2884618e+38
2.704648 -0.84614491 1.4769988 -2.2884101e+38
2.7046371 -0.85093343 1.4769988 -2.288358e+38
2.6866388 -0.85010934 1.4753016 -2.2884099e+38
2.6866279 -0.85486364 1.4753016 -2.2750655e+38
2.6866171 -0.85961795 1.4753016 -2.2617211e+38
2.6866062 -0.86437213 1.4753016 -2.2484808e+38
2.6865952 -0.86912644 1.4753016 -2.2618252e+38
2.6865845 -0.87388074 1.4753016 -2.2618769e+38
2.6865735 -0.87863505 1.4753016 -2.2618769e+38
2.6865625 -0.88338923 1.4753016 -2.2619286e+38
2.6865518 -0.88814354 1.4753016 -2.2619286e+38
2.6865408 -0.89289784 1.4753016 -2.2619807e+38
2.6865299 -0.89765203 1.4753016 -2.2619811e+38
2.6865191 -0.90240633 1.4753016 -2.2619294e+38
2.6865082 -0.90716064 1.4753016 -2.2619296e+38
2.6864972 -0.91191483 1.4753016 -2.2618775e+38
2.6864865 -0.91666913 1.4753016 -2.2884099e+38
2.6684897 -0.91529655 1.4736044 -2.3015986e+38
2.6684787 -0.92001653 1.4736044 -2.3146833e+38
2.668468 -0.9247365 1.4736044 -2.3146838e+38
2.6684573 -0.92945659 1.4736044 -2.3147361e+38
2.6684463 -0.93417645 1.4736044 -2.3015472e+38
2.6504498 -0.93259811 1.4719074 -2.301599e+38
2.650439 -0.93728387 1.4719074 -2.288462e+38
2.6504283 -0.94196951 1.4719074 -2.2752215e+38
2.6504176 -0.94665527 1.4719074 -2.2485848e+38
2.6683924 -0.95777643 1.4736044 -2.2617732e+38
2.6683815 -0.9624964 1.4736044 -2.2750655e+38
2.6683707 -0.96721649 1.4736044 -2.2883578e+38
2.66836 -0.97193646 1.4736044 -2.3017032e+38
2.6503639 -0.97008371 1.4719074 -2.3017046e+38
2.6503532 -0.97476947 1.4719074 -2.3017561e+38
2.6333568 -0.97318292 1.4703045 -2.3017557e+38
2.6333461 -0.97783625 1.4703045 -2.288515e+38
2.6333354 -0.98248959 1.4703045 -2.2886184e+38
2.6333249 -0.98714292 1.4703045 -2.2753257e+38
2.6333141 -0.99179626 1.4703045 -2.2886176e+38
2.6333034 -0.99644959 1.4703045 -2.3019099e+38
2.6332929 -1.0011028 1.4703045 -2.3019099e+38
2.6332822 -1.0057561 1.4703045 -2.2886701e+38
2.6332715 -1.0104095 1.4703045 -2.2887227e+38
2.633261 -1.0150628 1.4703045 -2.2754304e+38
2.6162653 -1.0131201 1.4687016 -2.2887748e+38
2.6162546 -1.0177411 1.4687016 -2.2887744e+38
2.6162441 -1.022362 1.4687016 -2.3021184e+38
2.6162336 -1.0269829 1.4687016 -2.3021186e+38
2.6162229 -1.0316038 1.4687016 -2.3286512e+38
2.6331968 -1.0429828 1.4703045 -2.3420476e+38
2.6331863 -1.047636 1.4703045 -2.3686323e+38
2.6331756 -1.0522894 1.4703045 -2.3819771e+38
2.6331649 -1.0569427 1.4703045 -2.4218548e+38
2.6331544 -1.061596 1.4703045 -2.4484917e+38
2.6331437 -1.0662494 1.4703045 -2.4618363e+38
2.6331329 -1.0709026 1.4703045 -2.475233e+38
2.6331222 -1.0755559 1.4703045 -2.5018701e+38
2.6331117 -1.0802094 1.4703045 -2.5286106e+38
2.633101 -1.0848627 1.4703045 -2.5287147e+38
2.6330903 -1.089516 1.4703045 -2.5281888e+38
2.6330798 -1.0941694 1.4703045 -2.1268177e+38
2.6500528 -1.1059691 1.4719074 -1.7168543e+38
2.6500421 -1.1106547 1.4719074 -2.9857682e+38
2.6500313 -1.1153405 1.4719074 nan
2.6330371 -1.1127826 1.4703045 nan
2.6500099 -1.1247119 1.4719074 nan
2.8598418 -0.76170671 1.4865292 -2.2087637e+38
2.8198538 -0.75637507 1.482834 -2.4353554e+38
2.8198423 -0.7613827 1.482834 -2.435303e+38
2.839819 -0.77167428 1.4846816 -2.421855e+38
2.8198195 -0.77139795 1.482834 -2.3952704e+38
2.819808 -0.77640557 1.482834 -2.3818741e+38
2.8197966 -0.7814132 1.482834 -2.3553413e+38
2.7997975 -0.78098452 1.4809864 -2.3287046e+38
2.7797987 -0.78047967 1.4791389 -2.3153602e+38
2.7607994 -0.78017426 1.4773836 -2.315308e+38
2.7607882 -0.78506947 1.4773836 -2.3019634e+38
2.7607768 -0.78996468 1.4773836 -2.288671e+38
2.7607656 -0.79485989 1.4773836 -2.2753265e+38
2.7607543 -0.7997551 1.4773836 -2.2752746e+38
2.7607431 -0.80465031 1.4773836 -2.2620343e+38
2.7417443 -0.80409157 1.4756284 -2.2486379e+38
2.7417333 -0.80895066 1.4756284 -2.2619819e+38
2.7417221 -0.81380963 1.4756284 -2.2752742e+38
2.7417109 -0.81866872 1.4756284 -2.2885665e+38
2.7416999 -0.82352769 1.4756284 -2.2886182e+38
2.7416887 -0.82838678 1.4756284 -2.3018062e+38
2.7416775 -0.83324587 1.4756284 -2.3149949e+38
2.7416666 -0.83810484 1.4756284 -2.3017545e+38
2.7226684 -0.83722043 1.4738731 -2.288514e+38
2.7226572 -0.84204316 1.4738731 -2.2884099e+38
2.7226462 -0.84686601 1.4738731 -2.2883584e+38
2.704648 -0.84614491 1.4722102 -2.2883586e+38
2.7046371 -0.85093343 1.4722102 -2.2882546e+38
2.6866388 -0.85010934 1.4705473 -2.2750657e+38
2.6866279 -0.85486364 1.4705473 -2.2617732e+38
2.6866171 -0.85961795 1.4705473 -2.2484808e+38
2.6866062 -0.86437213 1.4705473 -2.2484812e+38
2.6865952 -0.86912644 1.4705473 -2.2485852e+38
2.6865845 -0.87388074 1.4705473 -2.2618773e+38
2.6865735 -0.87863505 1.4705473 -2.2619288e+38
2.6865625 -0.88338923 1.4705473 -2.2618769e+38
2.6865518 -0.88814354 1.4705473 -2.2619288e+38
2.6865408 -0.89289784 1.4705473 -2.275273e+38
2.6865299 -0.89765203 1.4705473 -2.2752211e+38
2.6865191 -0.90240633 1.4705473 -2.2751178e+38
2.6865082 -0.90716064 1.4705473 -2.2751182e+38
2.6864972 -0.91191483 1.4705473 -2.2883065e+38
2.6864865 -0.91666913 1.4705473 -2.3015984e+38
2.6684897 -0.91529655 1.4688845 -2.3148387e+38
2.6684787 -0.92001653 1.4688845 -2.3147349e+38
2.668468 -0.9247365 1.4688845 -2.3013913e+38
2.6684573 -0.92945659 1.4688845 -2.3014955e+38
2.6684463 -0.93417645 1.4688845 -2.2883067e+38
2.6684356 -0.93889654 1.4688845 -2.288358e+38
2.650439 -0.93728387 1.4672216 -2.2751696e+38
2.6504283 -0.94196951 1.4672216 -2.2618252e+38
2.6684031 -0.95305645 1.4688845 -2.2484292e+38
2.6683924 -0.95777643 1.4688845 -2.2484812e+38
2.6683815 -0.9624964 1.4688845 -2.2617734e+38
2.6683707 -0.96721649 1.4688845 -2.2750657e+38
2.66836 -0.97193646 1.4688845 -2.2884111e+38
2.6503639 -0.97008371 1.4672216 -2.2884121e+38
2.6503532 -0.97476947 1.4672216 -2.2884637e+38
2.6333568 -0.97318292 1.4656512 -2.2751708e+38
2.6503317 -0.98414087 1.4672216 -2.2751704e+38
2.6333354 -0.98248959 1.4656512 -2.288514e+38
2.6333249 -0.98714292 1.4656512 -2.2885134e+38
2.6333141 -0.99179626 1.4656512 -2.301857e+38
2.6333034 -0.99644959 1.4656512 -2.3018572e+38
2.6332929 -1.0011028 1.4656512 -2.3019093e+38
2.6332822 -1.0057561 1.4656512 -2.301962e+38
2.6332715 -1.0104095 1.4656512 -2.27543e+38
2.633261 -1.0150628 1.4656512 -2.2621379e+38
2.6162653 -1.0131201 1.4640807 -2.26219e+38
2.6162546 -1.0177411 1.4640807 -2.2754821e+38
2.6162441 -1.022362 1.4640807 -2.288774e+38
2.6162336 -1.0269829 1.4640807 -2.3020667e+38
2.6162229 -1.0316038 1.4640807 -2.3286514e+38
2.6331968 -1.0429828 1.4656512 -2.35534e+38
2.6331863 -1.047636 1.4656512 -2.3818727e+38
2.6331756 -1.0522894 1.4656512 -2.3952179e+38
2.6331649 -1.0569427 1.4656512 -2.4218033e+38
2.6331544 -1.061596 1.4656512 -2.4351479e+38
2.6331437 -1.0662494 1.4656512 -2.4484925e+38
2.6331329 -1.0709026 1.4656512 -2.4618371e+38
2.6331222 -1.0755559 1.4656512 -2.4885257e+38
2.6331117 -1.0802094 1.4656512 -2.5284547e+38
2.633101 -1.0848627 1.4656512 -2.5419546e+38
2.6330903 -1.089516 1.4656512 -2.5555007e+38
2.6330798 -1.0941694 1.4656512 -2.1409416e+38
2.633069 -1.0988227 1.4656512 -1.7147769e+38
2.6330583 -1.1034759 1.4656512 -3.0112606e+38
2.6330478 -1.1081293 1.4656512 nan
2.6330371 -1.1127826 1.4656512 nan
2.6500099 -1.1247119 1.4672216 nan
2.8598418 -0.76170671 1.4814454 -2.355809e+38
2.8398421 -0.76158285 1.479636 -2.461991e+38
2.8398304 -0.76662862 1.479636 -2.4485947e+38
