# .PCD v0.7 - Point Cloud Data file format
VERSION 0.7
FIELDS x y z rgb
SIZE 4 4 4 4
TYPE F F F F
COUNT 1 1 1 1
WIDTH 1123
HEIGHT 1
VIEWPOINT 0 0 0 1 0 0 0
POINTS 1123
DATA ascii
4.3292212 -0.31133288 2.1196465 -2.5955396e+38
4.3292017 -0.31922236 2.1196465 -2.4492194e+38
4.3291826 -0.32711187 2.1196465 -2.3037361e+38
4.3791552 -0.33821943 2.1302655 -3.089803e+38
4.3791356 -0.34620419 2.1302655 nan
4.3791161 -0.35418892 2.1302655 nan
4.4300876 -0.36574748 2.1410971 nan
4.4300675 -0.37382936 2.1410971 nan
4.4830384 -0.38582715 2.152353 nan
4.4845662 0.23606816 2.1441703 nan
4.4315367 0.22422981 2.1330152 nan
4.4315171 0.21614796 2.1330152 nan
4.4314971 0.20806608 2.1330152 nan
4.3804693 0.19675803 2.1222806 nan
4.3304424 0.18570566 2.1117568 nan
4.3304229 0.17781615 2.1117568 -3.2378319e+38
4.2813964 0.16710705 2.1014435 -2.7682836e+38
4.2813773 0.15931086 2.1014435 -2.3148939e+38
4.2813582 0.15151471 2.1014435 -2.4487529e+38
4.2813392 0.14371854 2.1014435 -2.5819873e+38
4.2813201 0.13592237 2.1014435 -2.568643e+38
4.2813005 0.1281262 2.1014435 -2.5685913e+38
4.2812815 0.12033004 2.1014435 -2.5685394e+38
4.2812624 0.11253387 2.1014435 -2.5816767e+38
4.2332377 0.10270706 2.0913408 -2.5684889e+38
4.2332187 0.095002323 2.0913408 -2.5553538e+38
4.2331996 0.087297574 2.0913408 -2.4491726e+38
4.233181 0.079592839 2.0913408 -2.3429374e+38
4.2811666 0.073553041 2.1014435 -2.6486588e+38
4.2331429 0.064183354 2.0913408 -2.969087e+38
4.2331243 0.056478605 2.0913408 nan
4.2811093 0.050164536 2.1014435 nan
4.2810903 0.042368367 2.1014435 nan
4.2810707 0.034572199 2.1014435 nan
4.2810516 0.026776031 2.1014435 nan
4.2810326 0.018979862 2.1014435 nan
4.2330103 0.010250196 2.0913408 nan
4.2329917 0.0025454462 2.0913408 nan
4.2329726 -0.0051592886 2.0913408 nan
4.2329535 -0.012864035 2.0913408 nan
4.232935 -0.020568766 2.0913408 nan
4.2329159 -0.028273508 2.0913408 nan
4.2328968 -0.035978246 2.0913408 nan
4.2328782 -0.043682985 2.0913408 nan
4.2328591 -0.051387724 2.0913408 nan
4.2328401 -0.059092462 2.0913408 nan
4.2328215 -0.066797204 2.0913408 nan
4.2328024 -0.074501939 2.0913408 nan
4.2807837 -0.082370311 2.1014435 nan
4.2807646 -0.090166479 2.1014435 nan
4.2807455 -0.097962648 2.1014435 nan
4.3297253 -0.10620585 2.1117568 nan
4.2807069 -0.11355498 2.1014435 -2.8751464e+38
4.2806878 -0.12135115 2.1014435 -2.1832219e+38
4.2806687 -0.12914732 2.1014435 -2.409503e+38
4.2806497 -0.13694349 2.1014435 -2.6489192e+38
4.2806306 -0.14473966 2.1014435 -2.6621068e+38
4.280611 -0.15253583 2.1014435 -2.662107e+38
4.3295894 -0.16143236 2.1117568 -2.6488667e+38
4.3295703 -0.16932185 2.1117568 -2.6224379e+38
4.3295507 -0.17721134 2.1117568 -2.6090418e+38
4.3295312 -0.18510085 2.1117568 -2.5957491e+38
4.2805157 -0.19151665 2.1014435 -2.5690603e+38
4.2804961 -0.19931282 2.1014435 -2.555612e+38
4.329473 -0.20876935 2.1117568 -2.529027e+38
4.3294539 -0.21665886 2.1117568 -2.5023382e+38
4.3294344 -0.22454835 2.1117568 -2.4625646e+38
4.3294148 -0.23243786 2.1117568 -2.4360835e+38
4.3293958 -0.24032736 2.1117568 -2.4623559e+38
4.3793712 -0.25038731 2.1222806 -2.4886811e+38
4.3793511 -0.25837204 2.1222806 -2.4885253e+38
4.3793316 -0.26635677 2.1222806 -2.4885774e+38
4.329318 -0.27188537 2.1117568 -2.5019736e+38
4.329299 -0.27977484 2.1117568 -2.5286626e+38
4.3292794 -0.28766435 2.1117568 -2.5553514e+38
4.3292599 -0.29555386 2.1117568 -2.5953846e+38
4.3292408 -0.30344337 2.1117568 -2.5954369e+38
4.3292212 -0.31133288 2.1117568 -2.5956442e+38
4.3292017 -0.31922236 2.1117568 -2.5025459e+38
4.3291826 -0.32711187 2.1117568 -2.4227949e+38
4.3791552 -0.33821943 2.1222806 -2.9027213e+38
4.3791356 -0.34620419 2.1222806 -3.382907e+38
4.3791161 -0.35418892 2.1222806 nan
4.4300876 -0.36574748 2.1330152 nan
4.4300675 -0.37382936 2.1330152 nan
4.4830384 -0.38582715 2.1441703 nan
4.4845662 0.23606816 2.1359873 nan
4.4845462 0.22788534 2.1359873 nan
4.4315171 0.21614796 2.1249332 nan
4.3804889 0.20474276 2.114296 nan
4.3804693 0.19675803 2.114296 nan
4.3304424 0.18570566 2.1038675 nan
4.3304229 0.17781615 2.1038675 -2.4105398e+38
4.2813964 0.16710705 2.0936475 -2.3817163e+38
4.2813773 0.15931086 2.0936475 -2.3420492e+38
4.2813582 0.15151471 2.0936475 -2.4490645e+38
4.2813392 0.14371854 2.0936475 -2.5554027e+38
4.2813201 0.13592237 2.0936475 -2.568643e+38
4.2813005 0.1281262 2.0936475 -2.5685913e+38
4.2812815 0.12033004 2.0936475 -2.5685915e+38
4.2812624 0.11253387 2.0936475 -2.56854e+38
4.2812433 0.10473771 2.0936475 -2.5553001e+38
4.2812243 0.096941531 2.0936475 -2.5421646e+38
4.2331996 0.087297574 2.083636 -2.4359833e+38
4.233181 0.079592839 2.083636 -2.329437e+38
4.2331619 0.071888089 2.083636 -2.6611724e+38
4.2331429 0.064183354 2.083636 -2.9962946e+38
4.2331243 0.056478605 2.083636 nan
4.2811093 0.050164536 2.0936475 nan
4.2810903 0.042368367 2.0936475 nan
4.2810707 0.034572199 2.0936475 nan
4.2810516 0.026776031 2.0936475 nan
4.2810326 0.018979862 2.0936475 nan
4.2330103 0.010250196 2.083636 nan
4.2329917 0.0025454462 2.083636 nan
4.2329726 -0.0051592886 2.083636 nan
4.2329535 -0.012864035 2.083636 nan
4.232935 -0.020568766 2.083636 nan
4.2329159 -0.028273508 2.083636 nan
4.2328968 -0.035978246 2.083636 nan
4.2328782 -0.043682985 2.083636 nan
4.2328591 -0.051387724 2.083636 nan
4.2328401 -0.059092462 2.083636 nan
4.2328215 -0.066797204 2.083636 nan
4.2328024 -0.074501939 2.083636 nan
4.2807837 -0.082370311 2.0936475 nan
4.2807646 -0.090166479 2.0936475 nan
4.2807455 -0.097962648 2.0936475 nan
4.280726 -0.10575882 2.0936475 nan
4.2807069 -0.11355498 2.0936475 -2.9535496e+38
4.2806878 -0.12135115 2.0936475 -2.3823463e+38
4.2806687 -0.12914732 2.0936475 -2.5158934e+38
4.2806497 -0.13694349 2.0936475 -2.6355231e+38
4.2806306 -0.14473966 2.0936475 -2.6488147e+38
4.280611 -0.15253583 2.0936475 -2.6620551e+38
4.280592 -0.16033199 2.0936475 -2.6355227e+38
4.2805729 -0.16812815 2.0936475 -2.6089898e+38
4.2805538 -0.17592432 2.0936475 -2.6089377e+38
4.3295312 -0.18510085 2.1038675 -2.595645e+38
4.2805157 -0.19151665 2.0936475 -2.5823523e+38
4.2804961 -0.19931282 2.0936475 -2.5690077e+38
4.329473 -0.20876935 2.1038675 -2.5424747e+38
4.3294539 -0.21665886 2.1038675 -2.5024415e+38
4.3294344 -0.22454835 2.1038675 -2.4626679e+38
4.3294148 -0.23243786 2.1038675 -2.422687e+38
4.3293958 -0.24032736 2.1038675 -2.4490117e+38
4.3793712 -0.25038731 2.114296 -2.4753367e+38
4.3793511 -0.25837204 2.114296 -2.475129e+38
4.3793316 -0.26635677 2.114296 -2.4619407e+38
4.329318 -0.27188537 2.1038675 -2.4886293e+38
4.329299 -0.27977484 2.1038675 -2.5020778e+38
4.3292794 -0.28766435 2.1038675 -2.5420589e+38
4.3292599 -0.29555386 2.1038675 -2.58204e+38
4.3292408 -0.30344337 2.1038675 -2.5953846e+38
4.3292212 -0.31133288 2.1038675 -2.5955406e+38
4.3292017 -0.31922236 2.1038675 -2.5690081e+38
4.3291826 -0.32711187 2.1038675 -2.5291321e+38
4.3291631 -0.33500135 2.1038675 -2.7153287e+38
4.3791356 -0.34620419 2.114296 -2.8903657e+38
4.3791161 -0.35418892 2.114296 nan
4.3790965 -0.36217365 2.114296 nan
4.4300675 -0.37382936 2.1249332 nan
4.4830384 -0.38582715 2.1359873 nan
4.3805676 0.23668173 2.1063113 nan
4.380548 0.22869697 2.1063113 nan
4.3805285 0.22071221 2.1063113 nan
4.3805084 0.21272749 2.1063113 nan
4.3304811 0.20148465 2.0959778 nan
4.3304615 0.19359517 2.0959778 nan
4.281435 0.18269935 2.0858512 nan
4.2814155 0.17490321 2.0858512 -2.1682121e+38
4.2813964 0.16710705 2.0858512 -2.3285981e+38
4.2813773 0.15931086 2.0858512 -2.4883675e+38
4.2813582 0.15151471 2.0858512 -2.5286622e+38
4.2813392 0.14371854 2.0858512 -2.5686428e+38
4.2813201 0.13592237 2.0858512 -2.5686428e+38
4.2813005 0.1281262 2.0858512 -2.5685913e+38
4.2812815 0.12033004 2.0858512 -2.5685915e+38
4.2812624 0.11253387 2.0858512 -2.5686437e+38
4.2332377 0.10270706 2.0759311 -2.5554552e+38
4.2332187 0.095002323 2.0759311 -2.5555601e+38
4.2331996 0.087297574 2.0759311 -2.5157362e+38
4.233181 0.079592839 2.0759311 -2.4891516e+38
4.2331619 0.071888089 2.0759311 -2.6353667e+38
4.2331429 0.064183354 2.0759311 -2.7829949e+38
4.2331243 0.056478605 2.0759311 -3.397722e+38
4.2331052 0.048773885 2.0759311 nan
4.2330861 0.041069135 2.0759311 nan
4.2330675 0.0333644 2.0759311 nan
4.2330484 0.025659665 2.0759311 nan
4.2330294 0.017954931 2.0759311 nan
4.2330103 0.010250196 2.0759311 nan
4.2329917 0.0025454462 2.0759311 nan
4.2329726 -0.0051592886 2.0759311 nan
4.2329535 -0.012864035 2.0759311 nan
4.232935 -0.020568766 2.0759311 nan
4.2329159 -0.028273508 2.0759311 nan
4.2328968 -0.035978246 2.0759311 nan
4.2328782 -0.043682985 2.0759311 nan
4.2328591 -0.051387724 2.0759311 nan
4.2328401 -0.059092462 2.0759311 nan
4.2328215 -0.066797204 2.0759311 nan
4.2328024 -0.074501939 2.0759311 nan
4.2807837 -0.082370311 2.0858512 nan
4.2807646 -0.090166479 2.0858512 nan
4.2807455 -0.097962648 2.0858512 nan
4.280726 -0.10575882 2.0858512 nan
4.2807069 -0.11355498 2.0858512 -2.9280551e+38
4.2806878 -0.12135115 2.0858512 -2.3154174e+38
4.2806687 -0.12914732 2.0858512 -2.4624127e+38
4.2806497 -0.13694349 2.0858512 -2.6221272e+38
4.2806306 -0.14473966 2.0858512 -2.6354186e+38
4.280611 -0.15253583 2.0858512 -2.6486073e+38
4.280592 -0.16033199 2.0858512 -2.6221785e+38
4.2805729 -0.16812815 2.0858512 -2.5956454e+38
4.2805538 -0.17592432 2.0858512 -2.5823008e+38
4.2805347 -0.18372048 2.0858512 -2.5823004e+38
4.2805157 -0.19151665 2.0858512 -2.5690077e+38
4.2804961 -0.19931282 2.0858512 -2.555767e+38
4.280477 -0.20710899 2.0858512 -2.5423185e+38
4.3294539 -0.21665886 2.0959778 -2.5156295e+38
4.3294344 -0.22454835 2.0959778 -2.489096e+38
4.3294148 -0.23243786 2.0959778 -2.4492192e+38
4.3293958 -0.24032736 2.0959778 -2.4489077e+38
4.3793712 -0.25038731 2.1063113 -2.4353558e+38
4.3793511 -0.25837204 2.1063113 -2.4485961e+38
4.3793316 -0.26635677 2.1063113 -2.4486483e+38
4.329318 -0.27188537 2.0959778 -2.4885772e+38
4.3792925 -0.28232625 2.1063113 -2.5286102e+38
4.3292794 -0.28766435 2.0959778 -2.5552469e+38
4.3292599 -0.29555386 2.0959778 -2.5819357e+38
4.3292408 -0.30344337 2.0959778 -2.5953842e+38
4.3292212 -0.31133288 2.0959778 -2.608885e+38
4.3292017 -0.31922236 2.0959778 -2.5955416e+38
4.3291826 -0.32711187 2.0959778 -2.5953848e+38
4.3291631 -0.33500135 2.0959778 -2.7153778e+38
4.3291435 -0.34289086 2.0959778 -2.8351196e+38
4.3791161 -0.35418892 2.1063113 nan
4.3790965 -0.36217365 2.1063113 nan
4.379077 -0.37015837 2.1063113 nan
4.4830384 -0.38582715 2.1278045 nan
4.4315767 0.24039358 2.1087694 nan
4.380548 0.22869697 2.0983264 nan
4.3805285 0.22071221 2.0983264 nan
4.3805084 0.21272749 2.0983264 nan
4.3304811 0.20148465 2.0880883 nan
4.3304615 0.19359517 2.0880883 nan
4.281435 0.18269935 2.0780549 -3.3921395e+38
4.2814155 0.17490321 2.0780549 -1.9160732e+38
4.2813964 0.16710705 2.0780549 -2.2760551e+38
4.2813773 0.15931086 2.0780549 -2.6217071e+38
4.2813582 0.15151471 2.0780549 -2.5953313e+38
4.2813392 0.14371854 2.0780549 -2.5685907e+38
4.2813201 0.13592237 2.0780549 -2.5685905e+38
4.2813005 0.1281262 2.0780549 -2.5552467e+38
4.2812815 0.12033004 2.0780549 -2.5552993e+38
4.2812624 0.11253387 2.0780549 -2.5554035e+38
4.2332377 0.10270706 2.0682263 -2.5688e+38
4.2812243 0.096941531 2.0780549 -2.5688528e+38
4.2331996 0.087297574 2.0682263 -2.6087823e+38
4.233181 0.079592839 2.0682263 -2.6351592e+38
4.2811666 0.073553041 2.0780549 -2.6081595e+38
4.2331429 0.064183354 2.0682263 -2.570681e+38
4.2331243 0.056478605 2.0682263 -3.2120956e+38
4.2331052 0.048773885 2.0682263 nan
4.2330861 0.041069135 2.0682263 nan
4.2330675 0.0333644 2.0682263 nan
4.2330484 0.025659665 2.0682263 nan
4.2330294 0.017954931 2.0682263 nan
4.2330103 0.010250196 2.0682263 nan
4.2329917 0.0025454462 2.0682263 nan
4.2329726 -0.0051592886 2.0682263 nan
4.2329535 -0.012864035 2.0682263 nan
4.232935 -0.020568766 2.0682263 nan
4.2329159 -0.028273508 2.0682263 nan
4.2328968 -0.035978246 2.0682263 nan
4.2328782 -0.043682985 2.0682263 nan
4.2328591 -0.051387724 2.0682263 nan
4.2328401 -0.059092462 2.0682263 nan
4.2328215 -0.066797204 2.0682263 nan
4.2328024 -0.074501939 2.0682263 nan
4.2807837 -0.082370311 2.0780549 nan
4.2807646 -0.090166479 2.0780549 nan
4.2807455 -0.097962648 2.0780549 nan
4.280726 -0.10575882 2.0780549 nan
4.2807069 -0.11355498 2.0780549 -2.9003298e+38
4.2806878 -0.12135115 2.0780549 -2.2360799e+38
4.2806687 -0.12914732 2.0780549 -2.4227438e+38
4.2806497 -0.13694349 2.0780549 -2.5955428e+38
4.2326322 -0.14384459 2.0682263 -2.6220227e+38
4.280611 -0.15253583 2.0780549 -2.6353669e+38
4.232594 -0.15925407 2.0682263 -2.6088343e+38
4.2325754 -0.16695881 2.0682263 -2.568957e+38
4.2325563 -0.17466354 2.0682263 -2.5689566e+38
4.2325373 -0.18236829 2.0682263 -2.5689043e+38
4.2325182 -0.19007303 2.0682263 -2.5556116e+38
4.2324996 -0.19777776 2.0682263 -2.5422668e+38
4.280477 -0.20710899 2.0780549 -2.5421625e+38
4.3294539 -0.21665886 2.0880883 -2.5288694e+38
4.2804389 -0.22270133 2.0780549 -2.5023362e+38
4.2804198 -0.23049749 2.0780549 -2.4756478e+38
4.2804008 -0.23829365 2.0780549 -2.4354592e+38
4.3293762 -0.24821685 2.0880883 -2.3953749e+38
4.3293567 -0.25610638 2.0880883 -2.4218558e+38
4.3293376 -0.26399586 2.0880883 -2.4352521e+38
4.329318 -0.27188537 2.0880883 -2.4884734e+38
4.3792925 -0.28232625 2.0983264 -2.5417985e+38
4.3292794 -0.28766435 2.0880883 -2.5550912e+38
4.3792534 -0.29829574 2.0983264 -2.5686433e+38
4.3292408 -0.30344337 2.0880883 -2.5953321e+38
4.3292212 -0.31133288 2.0880883 -2.6087807e+38
4.3292017 -0.31922236 2.0880883 -2.6353659e+38
4.3291826 -0.32711187 2.0880883 -2.6621054e+38
4.3291631 -0.33500135 2.0880883 -2.7157412e+38
4.3291435 -0.34289086 2.0880883 -2.7697991e+38
4.3291245 -0.35078037 2.0880883 nan
4.3790965 -0.36217365 2.0983264 nan
4.379077 -0.37015837 2.0983264 nan
4.380548 0.22869697 2.0903416 nan
4.3805285 0.22071221 2.0903416 nan
4.3305006 0.20937419 2.0801988 nan
4.3304811 0.20148465 2.0801988 nan
4.3304615 0.19359517 2.0801988 nan
4.281435 0.18269935 2.0702589 -3.3664847e+38
4.2814155 0.17490321 2.0702589 -2.0476971e+38
4.2813964 0.16710705 2.0702589 -2.3421559e+38
4.2813773 0.15931086 2.0702589 -2.6485527e+38
4.2813582 0.15151471 2.0702589 -2.6085714e+38
4.2813392 0.14371854 2.0702589 -2.581727e+38
4.2813201 0.13592237 2.0702589 -2.5684343e+38
4.2813005 0.1281262 2.0702589 -2.568435e+38
4.2812815 0.12033004 2.0702589 -2.5685394e+38
4.2812624 0.11253387 2.0702589 -2.568696e+38
4.2332377 0.10270706 2.0605216 -2.5820408e+38
4.2812243 0.096941531 2.0702589 -2.5954377e+38
4.2331996 0.087297574 2.0605216 -2.621971e+38
4.233181 0.079592839 2.0605216 -2.6617442e+38
4.2331619 0.071888089 2.0605216 -2.5820424e+38
4.2331429 0.064183354 2.0605216 -2.5168882e+38
4.2331243 0.056478605 2.0605216 -3.1714381e+38
4.2331052 0.048773885 2.0605216 nan
4.2330861 0.041069135 2.0605216 nan
4.2330675 0.0333644 2.0605216 nan
4.2330484 0.025659665 2.0605216 nan
4.2330294 0.017954931 2.0605216 nan
4.2330103 0.010250196 2.0605216 nan
4.2329917 0.0025454462 2.0605216 nan
4.2329726 -0.0051592886 2.0605216 nan
4.2329535 -0.012864035 2.0605216 nan
4.232935 -0.020568766 2.0605216 nan
4.2329159 -0.028273508 2.0605216 nan
4.2328968 -0.035978246 2.0605216 nan
4.2328782 -0.043682985 2.0605216 nan
4.2328591 -0.051387724 2.0605216 nan
4.2328401 -0.059092462 2.0605216 nan
4.2328215 -0.066797204 2.0605216 nan
4.2328024 -0.074501939 2.0605216 nan
4.2807837 -0.082370311 2.0702589 nan
4.2807646 -0.090166479 2.0702589 nan
4.2807455 -0.097962648 2.0702589 nan
4.280726 -0.10575882 2.0702589 nan
4.2807069 -0.11355498 2.0702589 -2.848564e+38
4.2806878 -0.12135115 2.0702589 -2.2495289e+38
4.2326698 -0.12843511 2.0605216 -2.422692e+38
4.2326508 -0.13613985 2.0605216 -2.5955949e+38
4.2326322 -0.14384459 2.0605216 -2.6088345e+38
4.2326131 -0.15154932 2.0605216 -2.635419e+38
4.232594 -0.15925407 2.0605216 -2.6087304e+38
4.2325754 -0.16695881 2.0605216 -2.5953339e+38
4.1855593 -0.17342904 2.0509875 -2.5688006e+38
4.1855407 -0.18104425 2.0509875 -2.5554562e+38
4.2325182 -0.19007303 2.0605216 -2.5422155e+38
4.2324996 -0.19777776 2.0605216 -2.5288707e+38
4.280477 -0.20710899 2.0702589 -2.5155256e+38
4.280458 -0.21490516 2.0702589 -2.4889405e+38
4.2804389 -0.22270133 2.0702589 -2.4756476e+38
4.3294148 -0.23243786 2.0801988 -2.4623032e+38
4.2804008 -0.23829365 2.0702589 -2.435355e+38
4.2323861 -0.2440062 2.0605216 -2.4084073e+38
4.2803621 -0.25388598 2.0702589 -2.4218037e+38
4.2803431 -0.26168215 2.0702589 -2.4484406e+38
4.280324 -0.26947832 2.0702589 -2.4884734e+38
4.329299 -0.27977484 2.0801988 -2.5284543e+38
4.3292794 -0.28766435 2.0801988 -2.5551948e+38
4.3292599 -0.29555386 2.0801988 -2.5687469e+38
4.3292408 -0.30344337 2.0801988 -2.5953836e+38
4.3292212 -0.31133288 2.0801988 -2.608832e+38
4.3292017 -0.31922236 2.0801988 -2.6353651e+38
4.3291826 -0.32711187 2.0801988 -2.662105e+38
4.3291631 -0.33500135 2.0801988 -2.6223835e+38
4.3291435 -0.34289086 2.0801988 -2.5958556e+38
4.3291245 -0.35078037 2.0801988 -3.3562721e+38
4.3790965 -0.36217365 2.0903416 nan
4.379077 -0.37015837 2.0903416 nan
4.3790569 -0.3781431 2.0903416 nan
4.380548 0.22869697 2.0823569 nan
4.3805285 0.22071221 2.0823569 nan
4.3305006 0.20937419 2.0723093 nan
4.3304811 0.20148465 2.0723093 nan
4.3304615 0.19359517 2.0723093 nan
4.281435 0.18269935 2.0624626 -3.3500772e+38
4.2814155 0.17490321 2.0624626 -2.1816064e+38
4.2813964 0.16710705 2.0624626 -2.4228444e+38
4.2813773 0.15931086 2.0624626 -2.661845e+38
4.2813582 0.15151471 2.0624626 -2.6218637e+38
4.2813392 0.14371854 2.0624626 -2.581779e+38
4.3303261 0.13836867 2.0723093 -2.5815711e+38
4.2813005 0.1281262 2.0624626 -2.568383e+38
4.2812815 0.12033004 2.0624626 -2.5816757e+38
4.2812624 0.11253387 2.0624626 -2.5818838e+38
4.2332377 0.10270706 2.0528169 -2.5952286e+38
4.2812243 0.096941531 2.0624626 -2.6085734e+38
4.2331996 0.087297574 2.0528169 -2.6484511e+38
4.233181 0.079592839 2.0528169 -2.6748275e+38
4.2331619 0.071888089 2.0528169 -2.5679175e+38
4.2331429 0.064183354 2.0528169 -2.4507375e+38
4.2331243 0.056478605 2.0528169 -3.1324963e+38
4.2331052 0.048773885 2.0528169 nan
4.2330861 0.041069135 2.0528169 nan
4.2330675 0.0333644 2.0528169 nan
4.2330484 0.025659665 2.0528169 nan
4.2330294 0.017954931 2.0528169 nan
4.2330103 0.010250196 2.0528169 nan
4.2329917 0.0025454462 2.0528169 nan
4.2329726 -0.0051592886 2.0528169 nan
4.2329535 -0.012864035 2.0528169 nan
4.232935 -0.020568766 2.0528169 nan
4.2329159 -0.028273508 2.0528169 nan
4.2328968 -0.035978246 2.0528169 nan
4.2328782 -0.043682985 2.0528169 nan
4.2328591 -0.051387724 2.0528169 nan
4.2328401 -0.059092462 2.0528169 nan
4.2328215 -0.066797204 2.0528169 nan
4.2328024 -0.074501939 2.0528169 nan
4.2807837 -0.082370311 2.0624626 nan
4.2807646 -0.090166479 2.0624626 nan
4.2807455 -0.097962648 2.0624626 nan
4.280726 -0.10575882 2.0624626 -3.3562729e+38
4.2807069 -0.11355498 2.0624626 -2.8074384e+38
4.2326889 -0.12073037 2.0528169 -2.2626636e+38
4.2326698 -0.12843511 2.0528169 -2.4360874e+38
4.2326508 -0.13613985 2.0528169 -2.5955422e+38
4.1856341 -0.14296818 2.0433722 -2.6087821e+38
4.1856155 -0.15058339 2.0433722 -2.6220223e+38
4.1855965 -0.15819861 2.0433722 -2.621918e+38
4.1395807 -0.16469321 2.0341284 -2.6086256e+38
4.1395621 -0.17222081 2.0341284 -2.5819889e+38
4.1395435 -0.17974842 2.0341284 -2.5421116e+38
4.1395249 -0.18727601 2.0341284 -2.5288191e+38
4.185503 -0.19627468 2.0433722 -2.5155263e+38
4.1854844 -0.20388989 2.0433722 -2.4888892e+38
4.1854658 -0.21150512 2.0433722 -2.4490119e+38
4.1854467 -0.21912032 2.0433722 -2.4490113e+38
4.1854281 -0.22673555 2.0433722 -2.4488553e+38
4.1394143 -0.23244159 2.0341284 -2.4353032e+38
4.1853909 -0.24196598 2.0433722 -2.4085631e+38
4.1853724 -0.24958119 2.0433722 -2.4351479e+38
4.1853533 -0.2571964 2.0433722 -2.4618365e+38
4.2323294 -0.26712042 2.0528169 -2.4885251e+38
4.2323103 -0.27482516 2.0528169 -2.5152137e+38
4.2802858 -0.28507066 2.0624626 -2.5419023e+38
4.3292599 -0.29555386 2.0723093 -2.5686428e+38
4.3292408 -0.30344337 2.0723093 -2.5952795e+38
4.3292212 -0.31133288 2.0723093 -2.6086761e+38
4.2802091 -0.31625533 2.0624626 -2.6352091e+38
4.28019 -0.3240515 2.0624626 -2.6487089e+38
4.3291631 -0.33500135 2.0723093 -2.5423704e+38
4.3291435 -0.34289086 2.0723093 -2.4233145e+38
4.3291245 -0.35078037 2.0723093 -3.0228204e+38
4.3291049 -0.35866985 2.0723093 nan
4.3290854 -0.36655939 2.0723093 nan
4.4315767 0.24039358 2.0845237 nan
4.380548 0.22869697 2.0743723 nan
4.3805285 0.22071221 2.0743723 nan
4.3805084 0.21272749 2.0743723 nan
4.3304811 0.20148465 2.0644197 nan
4.3304615 0.19359517 2.0644197 nan
4.281435 0.18269935 2.0546665 -3.3262967e+38
4.3304229 0.17781615 2.0644197 -2.2616718e+38
4.2813964 0.16710705 2.0546665 -2.462202e+38
4.2813773 0.15931086 2.0546665 -2.6750336e+38
4.3303647 0.15414767 2.0644197 -2.6218118e+38
4.2813392 0.14371854 2.0546665 -2.5684867e+38
4.3303261 0.13836867 2.0644197 -2.5551423e+38
4.2813005 0.1281262 2.0546665 -2.5551944e+38
4.2812815 0.12033004 2.0546665 -2.5551427e+38
4.2812624 0.11253387 2.0546665 -2.5552469e+38
4.2812433 0.10473771 2.0546665 -2.5818836e+38
4.2812243 0.096941531 2.0546665 -2.6085209e+38
4.2331996 0.087297574 2.0451121 -2.6484505e+38
4.233181 0.079592839 2.0451121 -2.7015667e+38
4.2331619 0.071888089 2.0451121 -2.6217079e+38
4.2331429 0.064183354 2.0451121 -2.5427444e+38
4.2331243 0.056478605 2.0451121 -3.1710235e+38
4.2331052 0.048773885 2.0451121 nan
4.2330861 0.041069135 2.0451121 nan
4.2330675 0.0333644 2.0451121 nan
4.2330484 0.025659665 2.0451121 nan
4.2330294 0.017954931 2.0451121 nan
4.2330103 0.010250196 2.0451121 nan
4.2329917 0.0025454462 2.0451121 nan
4.2329726 -0.0051592886 2.0451121 nan
4.2329535 -0.012864035 2.0451121 nan
4.232935 -0.020568766 2.0451121 nan
4.2329159 -0.028273508 2.0451121 nan
4.2328968 -0.035978246 2.0451121 nan
4.2328782 -0.043682985 2.0451121 nan
4.2328591 -0.051387724 2.0451121 nan
4.2328401 -0.059092462 2.0451121 nan
4.2328215 -0.066797204 2.0451121 nan
4.2328024 -0.074501939 2.0451121 nan
4.2807837 -0.082370311 2.0546665 nan
4.2807646 -0.090166479 2.0546665 nan
4.2807455 -0.097962648 2.0546665 nan
4.2327266 -0.1053209 2.0451121 nan
4.2327075 -0.11302564 2.0451121 -2.9281567e+38
4.2326889 -0.12073037 2.0451121 -2.368377e+38
4.1856713 -0.12773776 2.0357571 -2.4889439e+38
4.1856527 -0.13535297 2.0357571 -2.6220223e+38
4.1856341 -0.14296818 2.0357571 -2.6220221e+38
4.1396174 -0.14963803 2.0266008 -2.6219178e+38
4.1395993 -0.15716562 2.0266008 -2.608625e+38
4.1395807 -0.16469321 2.0266008 -2.5952807e+38
4.0945649 -0.17103884 2.0176435 -2.5686443e+38
4.0945468 -0.17848071 2.0176435 -2.5420076e+38
4.1395249 -0.18727601 2.0266008 -2.5154745e+38
4.1395068 -0.1948036 2.0266008 -2.5021819e+38
4.1394882 -0.20233119 2.0266008 -2.4755969e+38
4.1394696 -0.20985879 2.0266008 -2.4490119e+38
4.139451 -0.21738639 2.0266008 -2.4356673e+38
4.1394329 -0.22491398 2.0266008 -2.422271e+38
4.1394143 -0.23244159 2.0266008 -2.4087187e+38
4.1393957 -0.23996918 2.0266008 -2.3953228e+38
4.1393771 -0.24749677 2.0266008 -2.4085631e+38
4.1853533 -0.2571964 2.0357571 -2.4352517e+38
4.1853347 -0.26481164 2.0357571 -2.4619401e+38
4.2323103 -0.27482516 2.0451121 -2.4886287e+38
4.2322912 -0.28252989 2.0451121 -2.5153173e+38
4.2802663 -0.29286683 2.0546665 -2.5420581e+38
4.2802472 -0.30066299 2.0546665 -2.5554025e+38
4.2802281 -0.30845916 2.0546665 -2.5821432e+38
4.2802091 -0.31625533 2.0546665 -2.5954357e+38
4.28019 -0.3240515 2.0546665 -2.6221243e+38
4.2801709 -0.33184767 2.0546665 -2.5157342e+38
4.3291435 -0.34289086 2.0644197 -2.4226902e+38
4.3291245 -0.35078037 2.0644197 -2.6762321e+38
4.3291049 -0.35866985 2.0644197 -2.9166409e+38
4.3290854 -0.36655939 2.0644197 nan
4.4845862 0.24425098 2.0868902 nan
4.4315567 0.2323117 2.0764418 nan
4.3805285 0.22071221 2.0663874 nan
4.3805084 0.21272749 2.0663874 nan
4.3304811 0.20148465 2.0565302 nan
4.3304615 0.19359517 2.0565302 nan
4.281435 0.18269935 2.0468702 -3.2981537e+38
4.2814155 0.17490321 2.0468702 -2.3284442e+38
4.2813964 0.16710705 2.0468702 -2.502494e+38
4.2813773 0.15931086 2.0468702 -2.6751373e+38
4.3303647 0.15414767 2.0565302 -2.6218639e+38
4.2813392 0.14371854 2.0468702 -2.5552982e+38
4.3303261 0.13836867 2.0565302 -2.5419019e+38
4.2813005 0.1281262 2.0468702 -2.5285058e+38
4.2812815 0.12033004 2.0468702 -2.5285058e+38
4.2812624 0.11253387 2.0468702 -2.5285579e+38
4.2332377 0.10270706 2.0374074 -2.5684871e+38
4.2812243 0.096941531 2.0468702 -2.6085205e+38
4.2331996 0.087297574 2.0374074 -2.6617421e+38
4.233181 0.079592839 2.0374074 -2.7148062e+38
4.2331619 0.071888089 2.0374074 -2.6746168e+38
4.2331429 0.064183354 2.0374074 -2.6364644e+38
4.2331243 0.056478605 2.0374074 -3.1982299e+38
4.2331052 0.048773885 2.0374074 nan
4.2330861 0.041069135 2.0374074 nan
4.2330675 0.0333644 2.0374074 nan
4.2330484 0.025659665 2.0374074 nan
4.2330294 0.017954931 2.0374074 nan
4.2330103 0.010250196 2.0374074 nan
4.2329917 0.0025454462 2.0374074 nan
4.2329726 -0.0051592886 2.0374074 nan
4.2329535 -0.012864035 2.0374074 nan
4.232935 -0.020568766 2.0374074 nan
4.2329159 -0.028273508 2.0374074 nan
4.2328968 -0.035978246 2.0374074 nan
4.2328782 -0.043682985 2.0374074 nan
4.2328591 -0.051387724 2.0374074 nan
4.2328401 -0.059092462 2.0374074 nan
4.2328215 -0.066797204 2.0374074 nan
4.2328024 -0.074501939 2.0374074 nan
4.2807837 -0.082370311 2.0468702 nan
4.2807646 -0.090166479 2.0468702 nan
4.2807455 -0.097962648 2.0468702 nan
4.2327266 -0.1053209 2.0374074 nan
4.2327075 -0.11302564 2.0374074 -3.0466986e+38
4.2326889 -0.12073037 2.0374074 -2.4753908e+38
4.1856713 -0.12773776 2.0281417 -2.5558203e+38
4.1396546 -0.13458282 2.019073 -2.635418e+38
4.139636 -0.14211042 2.019073 -2.6220217e+38
4.1396174 -0.14963803 2.019073 -2.6086771e+38
4.1395993 -0.15716562 2.019073 -2.5953327e+38
4.094583 -0.16359696 2.0102017 -2.5819361e+38
4.0515676 -0.16990939 2.0017245 -2.5552475e+38
4.0945468 -0.17848071 2.0102017 -2.528663e+38
4.0945282 -0.18592259 2.0102017 -2.5021303e+38
4.0945101 -0.19336447 2.0102017 -2.4755456e+38
4.1394882 -0.20233119 2.019073 -2.4623052e+38
4.1394696 -0.20985879 2.019073 -2.43572e+38
4.139451 -0.21738639 2.019073 -2.4224274e+38
4.1394329 -0.22491398 2.019073 -2.3955826e+38
4.1394143 -0.23244159 2.019073 -2.3952187e+38
4.1393957 -0.23996918 2.019073 -2.3819266e+38
4.1393771 -0.24749677 2.019073 -2.395167e+38
4.1853533 -0.2571964 2.0281417 -2.3953228e+38
4.1853347 -0.26481164 2.0281417 -2.4353554e+38
4.1853161 -0.27242684 2.0281417 -2.4620438e+38
4.2322912 -0.28252989 2.0374074 -2.4887322e+38
4.2802663 -0.29286683 2.0468702 -2.5021287e+38
4.2802472 -0.30066299 2.0468702 -2.5287139e+38
4.2802281 -0.30845916 2.0468702 -2.5554546e+38
4.2802091 -0.31625533 2.0468702 -2.5687473e+38
4.28019 -0.3240515 2.0468702 -2.5821438e+38
4.2801709 -0.33184767 2.0468702 -2.5023388e+38
4.2801514 -0.33964381 2.0468702 -2.4225338e+38
4.2801323 -0.34744 2.0468702 -2.3161962e+38
4.2801132 -0.35523617 2.0468702 -2.2116797e+38
4.2800941 -0.36303234 2.0468702 nan
4.4315767 0.24039358 2.0683599 nan
4.4315567 0.2323117 2.0683599 nan
4.3805285 0.22071221 2.0584025 nan
4.3805084 0.21272749 2.0584025 nan
4.3304811 0.20148465 2.0486407 nan
4.3304615 0.19359517 2.0486407 nan
4.3304424 0.18570566 2.0486407 -3.1799762e+38
4.3304229 0.17781615 2.0486407 -2.221742e+38
4.3304033 0.16992666 2.0486407 -2.4355649e+38
4.3303843 0.16203716 2.0486407 -2.6485527e+38
4.3303647 0.15414767 2.0486407 -2.6085716e+38
4.3303452 0.14625816 2.0486407 -2.5685907e+38
4.3303261 0.13836867 2.0486407 -2.5551423e+38
4.2813005 0.1281262 2.0390739 -2.5416421e+38
4.2812815 0.12033004 2.0390739 -2.5417455e+38
4.2812624 0.11253387 2.0390739 -2.5417459e+38
4.2332377 0.10270706 2.0297027 -2.5552982e+38
4.2332187 0.095002323 2.0297027 -2.5820392e+38
4.2331996 0.087297574 2.0297027 -2.6218647e+38
4.233181 0.079592839 2.0297027 -2.6617922e+38
4.2331619 0.071888089 2.0297027 -2.581622e+38
4.2331429 0.064183354 2.0297027 -2.5024502e+38
4.2331243 0.056478605 2.0297027 -3.1175921e+38
4.2331052 0.048773885 2.0297027 nan
4.2330861 0.041069135 2.0297027 nan
4.2330675 0.0333644 2.0297027 nan
4.2330484 0.025659665 2.0297027 nan
4.2330294 0.017954931 2.0297027 nan
4.186008 0.0093361214 2.0205264 nan
4.1859894 0.0017209053 2.0205264 nan
4.1859708 -0.0058943108 2.0205264 nan
4.1859522 -0.013509519 2.0205264 nan
4.232935 -0.020568766 2.0297027 nan
4.1859145 -0.028739952 2.0205264 nan
4.2328968 -0.035978246 2.0297027 nan
4.2328782 -0.043682985 2.0297027 nan
4.2328591 -0.051387724 2.0297027 nan
4.2328401 -0.059092462 2.0297027 nan
4.2328215 -0.066797204 2.0297027 nan
4.2328024 -0.074501939 2.0297027 nan
4.2807837 -0.082370311 2.0390739 nan
4.2327642 -0.089911416 2.0297027 nan
4.2327456 -0.097616158 2.0297027 nan
4.1857276 -0.1048921 2.0205264 nan
4.185709 -0.11250732 2.0205264 -2.9283159e+38
4.1856899 -0.12012254 2.0205264 -2.3427804e+38
4.1396732 -0.12705523 2.0115454 -2.4759624e+38
4.1396546 -0.13458282 2.0115454 -2.6089369e+38
4.139636 -0.14211042 2.0115454 -2.6087809e+38
4.1396174 -0.14963803 2.0115454 -2.6219172e+38
4.1395993 -0.15716562 2.0115454 -2.6085728e+38
4.094583 -0.16359696 2.0027597 -2.5950722e+38
4.0515676 -0.16990939 1.9943645 -2.5685909e+38
4.0515494 -0.17726937 1.9943645 -2.541851e+38
4.0945282 -0.18592259 2.0027597 -2.5287147e+38
4.0945101 -0.19336447 2.0027597 -2.5153707e+38
4.094492 -0.20080636 2.0027597 -2.475546e+38
4.1394696 -0.20985879 2.0115454 -2.4489608e+38
4.139451 -0.21738639 2.0115454 -2.4355641e+38
4.1394329 -0.22491398 2.0115454 -2.4221154e+38
4.1394143 -0.23244159 2.0115454 -2.3953226e+38
4.1393957 -0.23996918 2.0115454 -2.3819266e+38
4.1393771 -0.24749677 2.0115454 -2.3952708e+38
4.1393585 -0.25502437 2.0115454 -2.4086148e+38
4.1393404 -0.26255196 2.0115454 -2.4220627e+38
4.1853161 -0.27242684 2.0205264 -2.4487511e+38
4.1852975 -0.28004205 2.0205264 -2.462147e+38
4.2802663 -0.29286683 2.0390739 -2.4754918e+38
4.2802472 -0.30066299 2.0390739 -2.5154731e+38
4.2802281 -0.30845916 2.0390739 -2.5421102e+38
4.2802091 -0.31625533 2.0390739 -2.5554548e+38
4.28019 -0.3240515 2.0390739 -2.5821442e+38
4.2801709 -0.33184767 2.0390739 -2.5554568e+38
4.2801514 -0.33964381 2.0390739 -2.5419041e+38
4.2801323 -0.34744 2.0390739 -2.4090842e+38
4.2801132 -0.35523617 2.0390739 -2.2758018e+38
4.2800941 -0.36303234 2.0390739 nan
4.4845862 0.24425098 2.0705245 nan
4.4315567 0.2323117 2.0602779 nan
4.4315367 0.22422981 2.0602779 nan
4.3805084 0.21272749 2.0504179 nan
4.3804889 0.20474276 2.0504179 nan
4.3304615 0.19359517 2.0407512 nan
4.3304424 0.18570566 2.0407512 -3.0579582e+38
4.3804302 0.18078856 2.0504179 -2.1154561e+38
4.3304033 0.16992666 2.0407512 -2.369415e+38
4.3303843 0.16203716 2.0407512 -2.6086239e+38
4.3303647 0.15414767 2.0407512 -2.5952795e+38
4.3303452 0.14625816 2.0407512 -2.5818832e+38
4.3303261 0.13836867 2.0407512 -2.5684347e+38
4.2813005 0.1281262 2.0312779 -2.5417983e+38
4.2812815 0.12033004 2.0312779 -2.5550384e+38
4.2812624 0.11253387 2.0312779 -2.5552465e+38
4.2332377 0.10270706 2.0219979 -2.5554025e+38
4.2332187 0.095002323 2.0219979 -2.5421108e+38
4.2331996 0.087297574 2.0219979 -2.5686441e+38
4.233181 0.079592839 2.0219979 -2.5949157e+38
4.2331619 0.071888089 2.0219979 -2.4875377e+38
4.2331429 0.064183354 2.0219979 -2.3704622e+38
4.2331243 0.056478605 2.0219979 -3.039085e+38
4.2331052 0.048773885 2.0219979 nan
4.2330861 0.041069135 2.0219979 nan
4.2330675 0.0333644 2.0219979 nan
4.2330484 0.025659665 2.0219979 nan
4.2330294 0.017954931 2.0219979 nan
4.186008 0.0093361214 2.0129113 nan
4.1859894 0.0017209053 2.0129113 nan
4.1859708 -0.0058943108 2.0129113 nan
4.1859522 -0.013509519 2.0129113 nan
4.232935 -0.020568766 2.0219979 nan
4.2329159 -0.028273508 2.0219979 nan
4.2328968 -0.035978246 2.0219979 nan
4.2328782 -0.043682985 2.0219979 nan
4.2328591 -0.051387724 2.0219979 nan
4.2328401 -0.059092462 2.0219979 nan
4.2328215 -0.066797204 2.0219979 nan
4.2328024 -0.074501939 2.0219979 nan
4.2327833 -0.082206681 2.0219979 nan
4.2327642 -0.089911416 2.0219979 nan
4.2327456 -0.097616158 2.0219979 nan
4.1857276 -0.1048921 2.0129113 nan
4.185709 -0.11250732 2.0129113 -2.8208834e+38
4.1396914 -0.11952762 2.0040178 -2.2097517e+38
4.1396732 -0.12705523 2.0040178 -2.3963123e+38
4.1396546 -0.13458282 2.0040178 -2.5689562e+38
4.0946379 -0.14127129 1.9953179 -2.5954369e+38
4.0946198 -0.14871317 1.9953179 -2.6219692e+38
4.0946016 -0.15615506 1.9953179 -2.6218651e+38
4.094583 -0.16359696 1.9953179 -2.6085724e+38
4.0515676 -0.16990939 1.9870045 -2.5820913e+38
4.0515494 -0.17726937 1.9870045 -2.5421627e+38
4.0515313 -0.18462935 1.9870045 -2.5422147e+38
4.0945101 -0.19336447 1.9953179 -2.542007e+38
4.094492 -0.20080636 1.9953179 -2.5021301e+38
4.0944734 -0.20824824 1.9953179 -2.4621486e+38
4.0944552 -0.21569012 1.9953179 -2.4487519e+38
4.1394329 -0.22491398 2.0040178 -2.4353036e+38
4.1394143 -0.23244159 2.0040178 -2.408615e+38
4.1393957 -0.23996918 2.0040178 -2.3819264e+38
4.1393771 -0.24749677 2.0040178 -2.3953226e+38
4.1393585 -0.25502437 2.0040178 -2.4087185e+38
4.1393404 -0.26255196 2.0040178 -2.4221144e+38
4.1853161 -0.27242684 2.0129113 -2.4221661e+38
4.1852975 -0.28004205 2.0129113 -2.435562e+38
4.2322721 -0.29023463 2.0219979 -2.4489067e+38
4.2322536 -0.29793936 2.0219979 -2.4888877e+38
4.2802281 -0.30845916 2.0312779 -2.5288173e+38
4.2802091 -0.31625533 2.0312779 -2.5554025e+38
4.28019 -0.3240515 2.0312779 -2.5687998e+38
4.2801709 -0.33184767 2.0312779 -2.62197e+38
4.2801514 -0.33964381 2.0312779 -2.6618466e+38
4.2801323 -0.34744 2.0312779 -2.502339e+38
4.2801132 -0.35523617 2.0312779 -2.330427e+38
4.2800941 -0.36303234 2.0312779 -3.3837414e+38
4.4845862 0.24425098 2.0623417 nan
4.4315567 0.2323117 2.052196 nan
4.4315367 0.22422981 2.052196 nan
4.3805084 0.21272749 2.042433 nan
4.3804889 0.20474276 2.042433 nan
4.3804693 0.19675803 2.042433 nan
4.3804498 0.1887733 2.042433 -3.126705e+38
4.3804302 0.18078856 2.042433 -2.3279253e+38
4.3304033 0.16992666 2.0328617 -2.4886302e+38
4.3303843 0.16203716 2.0328617 -2.6351568e+38
4.3303647 0.15414767 2.0328617 -2.5952278e+38
4.3303452 0.14625816 2.0328617 -2.5685392e+38
4.3303261 0.13836867 2.0328617 -2.5419542e+38
4.2813005 0.1281262 2.0234816 -2.515318e+38
4.2812815 0.12033004 2.0234816 -2.5419544e+38
4.2812624 0.11253387 2.0234816 -2.5554027e+38
4.2812433 0.10473771 2.0234816 -2.5686952e+38
4.2332187 0.095002323 2.0142932 -2.5819881e+38
4.2331996 0.087297574 2.0142932 -2.6218653e+38
4.233181 0.079592839 2.0142932 -2.6483965e+38
4.2331619 0.071888089 2.0142932 -2.5949144e+38
4.2331429 0.064183354 2.0142932 -2.5293467e+38
4.2331243 0.056478605 2.0142932 -3.1044564e+38
4.2331052 0.048773885 2.0142932 nan
4.2330861 0.041069135 2.0142932 nan
4.2330675 0.0333644 2.0142932 nan
4.2330484 0.025659665 2.0142932 nan
4.2330294 0.017954931 2.0142932 nan
4.186008 0.0093361214 2.005296 nan
4.1859894 0.0017209053 2.005296 nan
4.1859708 -0.0058943108 2.005296 nan
4.1859522 -0.013509519 2.005296 nan
4.1859331 -0.021124735 2.005296 nan
4.1859145 -0.028739952 2.005296 nan
4.2328968 -0.035978246 2.0142932 nan
4.2328782 -0.043682985 2.0142932 nan
4.2328591 -0.051387724 2.0142932 nan
4.2328401 -0.059092462 2.0142932 nan
4.2328215 -0.066797204 2.0142932 nan
4.2328024 -0.074501939 2.0142932 nan
4.2327833 -0.082206681 2.0142932 nan
4.2327642 -0.089911416 2.0142932 nan
4.2327456 -0.097616158 2.0142932 nan
4.1857276 -0.1048921 2.005296 -3.3561135e+38
4.1397099 -0.11200003 1.9964902 -2.8483468e+38
4.1396914 -0.11952762 1.9964902 -2.3423609e+38
4.1396732 -0.12705523 1.9964902 -2.462462e+38
4.1396546 -0.13458282 1.9964902 -2.5954369e+38
4.0946379 -0.14127129 1.9878759 -2.6087292e+38
4.0946198 -0.14871317 1.9878759 -2.6220732e+38
4.0946016 -0.15615506 1.9878759 -2.621969e+38
4.0515857 -0.16254941 1.9796445 -2.6352091e+38
4.0515676 -0.16990939 1.9796445 -2.5954359e+38
4.0515494 -0.17726937 1.9796445 -2.5688513e+38
4.0515313 -0.18462935 1.9796445 -2.5686954e+38
4.0945101 -0.19336447 1.9878759 -2.5684356e+38
4.094492 -0.20080636 1.9878759 -2.5286624e+38
4.1394696 -0.20985879 1.9964902 -2.5018693e+38
4.139451 -0.21738639 1.9964902 -2.4087704e+38
4.1394329 -0.22491398 1.9964902 -2.3288092e+38
4.1394143 -0.23244159 1.9964902 -2.6078954e+38
4.1393957 -0.23996918 1.9964902 -2.873585e+38
4.1393771 -0.24749677 1.9964902 -2.6081025e+38
4.1393585 -0.25502437 1.9964902 -2.3422569e+38
4.1853347 -0.26481164 2.005296 -2.4087181e+38
4.1853161 -0.27242684 2.005296 -2.4752312e+38
4.1852975 -0.28004205 2.005296 -2.5019192e+38
4.2322721 -0.29023463 2.0142932 -2.5153155e+38
4.2322536 -0.29793936 2.0142932 -2.5420041e+38
4.2802281 -0.30845916 2.0234816 -2.5686936e+38
4.2322154 -0.31334886 2.0142932 -2.5687463e+38
4.2321968 -0.32105356 2.0142932 -2.5687994e+38
4.2801709 -0.33184767 2.0234816 -2.595489e+38
4.2801514 -0.33964381 2.0234816 -2.6356261e+38
4.2801323 -0.34744 2.0234816 -2.4889961e+38
4.2801132 -0.35523617 2.0234816 -2.3428909e+38
4.2800941 -0.36303234 2.0234816 -3.2628681e+38
4.4315963 0.24847549 2.0441141 nan
4.4315767 0.24039358 2.0441141 nan
4.4315567 0.2323117 2.0441141 nan
4.4315367 0.22422981 2.0441141 nan
4.3805084 0.21272749 2.0344484 nan
4.3804889 0.20474276 2.0344484 nan
4.3804693 0.19675803 2.0344484 nan
4.3804498 0.1887733 2.0344484 -3.1923904e+38
4.3804302 0.18078856 2.0344484 -2.5413823e+38
4.3304033 0.16992666 2.0249722 -2.6087801e+38
4.3303843 0.16203716 2.0249722 -2.6617931e+38
4.3303647 0.15414767 2.0249722 -2.6085199e+38
4.3303452 0.14625816 2.0249722 -2.5420064e+38
4.3303261 0.13836867 2.0249722 -2.5154216e+38
4.2813005 0.1281262 2.0156856 -2.4887851e+38
4.2812815 0.12033004 2.0156856 -2.5286622e+38
4.2812624 0.11253387 2.0156856 -2.5554027e+38
4.2812433 0.10473771 2.0156856 -2.5953317e+38
4.2812243 0.096941531 2.0156856 -2.621917e+38
4.2331996 0.087297574 2.0065885 -2.6618466e+38
4.233181 0.079592839 2.0065885 -2.7015141e+38
4.2331619 0.071888089 2.0065885 -2.7010452e+38
4.2331429 0.064183354 2.0065885 -2.6897891e+38
4.2331243 0.056478605 2.0065885 -3.1851975e+38
4.2331052 0.048773885 2.0065885 nan
4.2330861 0.041069135 2.0065885 nan
4.2330675 0.0333644 2.0065885 nan
4.2330484 0.025659665 2.0065885 nan
4.2330294 0.017954931 2.0065885 nan
4.186008 0.0093361214 1.9976807 nan
4.1859894 0.0017209053 1.9976807 nan
4.1859708 -0.0058943108 1.9976807 nan
4.1859522 -0.013509519 1.9976807 nan
4.232935 -0.020568766 2.0065885 nan
4.2329159 -0.028273508 2.0065885 nan
4.2328968 -0.035978246 2.0065885 nan
4.2328782 -0.043682985 2.0065885 nan
4.2328591 -0.051387724 2.0065885 nan
4.2328401 -0.059092462 2.0065885 nan
4.2328215 -0.066797204 2.0065885 nan
4.2328024 -0.074501939 2.0065885 nan
4.2327833 -0.082206681 2.0065885 nan
4.2327642 -0.089911416 2.0065885 nan
4.2327456 -0.097616158 2.0065885 nan
4.1857276 -0.1048921 1.9976807 -3.2756858e+38
4.1397099 -0.11200003 1.9889627 -2.8739996e+38
4.1396914 -0.11952762 1.9889627 -2.4753373e+38
4.1396732 -0.12705523 1.9889627 -2.5422682e+38
4.1396546 -0.13458282 1.9889627 -2.6087294e+38
4.0946379 -0.14127129 1.9804341 -2.6219696e+38
4.0946198 -0.14871317 1.9804341 -2.6220732e+38
4.0946016 -0.15615506 1.9804341 -2.6353651e+38
4.0515857 -0.16254941 1.9722846 -2.6486572e+38
4.0085702 -0.16877995 1.9641349 -2.6220724e+38
4.0515494 -0.17726937 1.9722846 -2.5821436e+38
4.0515313 -0.18462935 1.9722846 -2.5820398e+38
4.0945101 -0.19336447 1.9804341 -2.5819877e+38
4.094492 -0.20080636 1.9804341 -2.5554029e+38
4.1394696 -0.20985879 1.9889627 -2.5286618e+38
4.139451 -0.21738639 1.9889627 -2.3821865e+38
4.1394329 -0.22491398 1.9889627 -2.2224714e+38
4.1394143 -0.23244159 1.9889627 -2.7940394e+38
4.1393957 -0.23996918 1.9889627 -3.3662301e+38
4.1393771 -0.24749677 1.9889627 -2.8211424e+38
4.1853533 -0.2571964 1.9976807 -2.262347e+38
4.1853347 -0.26481164 1.9976807 -2.3952177e+38
4.1853161 -0.27242684 1.9976807 -2.5283482e+38
4.1852975 -0.28004205 1.9976807 -2.5550368e+38
4.2322721 -0.29023463 2.0065885 -2.5817256e+38
4.2322536 -0.29793936 2.0065885 -2.5951221e+38
4.2322345 -0.30564412 2.0065885 -2.5952266e+38
4.2322154 -0.31334886 2.0065885 -2.5820386e+38
4.2321968 -0.32105356 2.0065885 -2.5687469e+38
4.2801709 -0.33184767 2.0156856 -2.5820917e+38
4.2801514 -0.33964381 2.0156856 -2.5953319e+38
4.2801323 -0.34744 2.0156856 -2.4751819e+38
4.2801132 -0.35523617 2.0156856 -2.3429911e+38
4.2800941 -0.36303234 2.0156856 -3.1292657e+38
4.3290663 -0.37444887 2.0249722 nan
4.3290467 -0.38233837 2.0249722 nan
4.4315767 0.24039358 2.0360322 nan
4.4315567 0.2323117 2.0360322 nan
4.4315367 0.22422981 2.0360322 nan
4.4315171 0.21614796 2.0360322 nan
4.4314971 0.20806608 2.0360322 nan
4.3804693 0.19675803 2.0264635 -2.8498633e+38
4.3804498 0.1887733 2.0264635 -2.6882212e+38
4.3804302 0.18078856 2.0264635 -2.5414875e+38
4.3804107 0.1728038 2.0264635 -2.5951765e+38
4.3803911 0.16481908 2.0264635 -2.6616892e+38
4.3303647 0.15414767 2.0170827 -2.6084676e+38
4.3303452 0.14625816 2.0170827 -2.5685388e+38
4.3303261 0.13836867 2.0170827 -2.541954e+38
4.2813005 0.1281262 2.0078893 -2.5153697e+38
4.2812815 0.12033004 2.0078893 -2.5420064e+38
4.2812624 0.11253387 2.0078893 -2.5554027e+38
4.2812433 0.10473771 2.0078893 -2.5820913e+38
4.2812243 0.096941531 2.0078893 -2.6086769e+38
4.2331996 0.087297574 1.9988836 -2.5953856e+38
4.233181 0.079592839 1.9988836 -2.5687475e+38
4.2331619 0.071888089 1.9988836 -2.6351032e+38
4.2331429 0.064183354 1.9988836 -2.7156992e+38
4.2331243 0.056478605 1.9988836 -3.2374845e+38
4.2331052 0.048773885 1.9988836 nan
4.2330861 0.041069135 1.9988836 nan
4.1860642 0.03218177 1.9900656 nan
4.2330484 0.025659665 1.9988836 nan
4.2330294 0.017954931 1.9988836 nan
4.186008 0.0093361214 1.9900656 nan
4.1859894 0.0017209053 1.9900656 nan
4.1859708 -0.0058943108 1.9900656 nan
4.1859522 -0.013509519 1.9900656 nan
4.232935 -0.020568766 1.9988836 nan
4.2329159 -0.028273508 1.9988836 nan
4.2328968 -0.035978246 1.9988836 nan
4.2328782 -0.043682985 1.9988836 nan
4.2328591 -0.051387724 1.9988836 nan
4.2328401 -0.059092462 1.9988836 nan
4.1858211 -0.066816024 1.9900656 nan
4.2328024 -0.074501939 1.9988836 nan
4.2327833 -0.082206681 1.9988836 nan
4.2327642 -0.089911416 1.9988836 nan
4.1857462 -0.097276889 1.9900656 nan
4.1397285 -0.10447244 1.9814351 -3.0768738e+38
4.1397099 -0.11200003 1.9814351 -2.7817872e+38
4.1396914 -0.11952762 1.9814351 -2.4882679e+38
4.1396732 -0.12705523 1.9814351 -2.542113e+38
4.1396546 -0.13458282 1.9814351 -2.5820933e+38
4.0946379 -0.14127129 1.9729922 -2.5686966e+38
4.0946198 -0.14871317 1.9729922 -2.5423714e+38
4.0946016 -0.15615506 1.9729922 -2.5288191e+38
4.0515857 -0.16254941 1.9649246 -2.5157863e+38
4.0515676 -0.16990939 1.9649246 -2.4490131e+38
4.0515494 -0.17726937 1.9649246 -2.3961556e+38
4.0515313 -0.18462935 1.9649246 -2.4222728e+38
4.0945101 -0.19336447 1.9729922 -2.4359283e+38
4.094492 -0.20080636 1.9729922 -2.5022338e+38
4.1394696 -0.20985879 1.9814351 -2.582039e+38
4.139451 -0.21738639 1.9814351 -2.5286616e+38
4.1394329 -0.22491398 1.9814351 -2.4748694e+38
4.1854095 -0.23435076 1.9900656 -2.821455e+38
4.1853909 -0.24196598 1.9900656 -3.1816959e+38
4.1853724 -0.24958119 1.9900656 -2.8480383e+38
4.1853533 -0.2571964 1.9900656 -2.514329e+38
4.1853347 -0.26481164 1.9900656 -2.5682244e+38
4.2323103 -0.27482516 1.9988836 -2.6214461e+38
4.2802858 -0.28507066 2.0078893 -2.6348947e+38
4.2802663 -0.29286683 2.0078893 -2.6480838e+38
4.2322536 -0.29793936 1.9988836 -2.648344e+38
4.2802281 -0.30845916 2.0078893 -2.635e+38
4.2322154 -0.31334886 1.9988836 -2.6219154e+38
4.2321968 -0.32105356 1.9988836 -2.6085193e+38
4.2801709 -0.33184767 2.0078893 -2.608727e+38
4.2801514 -0.33964381 2.0078893 -2.5952779e+38
4.2801323 -0.34744 2.0078893 -2.4620426e+38
4.2801132 -0.35523617 2.0078893 -2.3285529e+38
4.2800941 -0.36303234 2.0078893 -2.6359928e+38
4.3290663 -0.37444887 2.0170827 -2.9310262e+38
4.3290467 -0.38233837 2.0170827 nan
4.4315567 0.2323117 2.0279503 nan
4.4315367 0.22422981 2.0279503 nan
4.4315171 0.21614796 2.0279503 nan
4.3804889 0.20474276 2.0184789 nan
4.3804693 0.19675803 2.0184789 -1.8511747e+38
4.3804498 0.1887733 2.0184789 -2.1956806e+38
4.3804302 0.18078856 2.0184789 -2.5417476e+38
4.3804107 0.1728038 2.0184789 -2.5952805e+38
4.3303843 0.16203716 2.0091932 -2.6483971e+38
4.3303647 0.15414767 2.0091932 -2.62176e+38
4.3303452 0.14625816 2.0091932 -2.5951234e+38
4.3303261 0.13836867 2.0091932 -2.5684869e+38
4.3303065 0.13047916 2.0091932 -2.5420062e+38
4.2812815 0.12033004 2.000093 -2.5553506e+38
4.2812624 0.11253387 2.000093 -2.5554546e+38
4.2812433 0.10473771 2.000093 -2.5821434e+38
4.2812243 0.096941531 2.000093 -2.5954371e+38
4.2812052 0.089145377 2.000093 -2.5156327e+38
4.2811856 0.081349194 2.000093 -2.4357746e+38
4.2331619 0.071888089 1.9911788 -2.5815739e+38
4.2331429 0.064183354 1.9911788 -2.7300316e+38
4.2331243 0.056478605 1.9911788 -3.2917961e+38
4.2331052 0.048773885 1.9911788 nan
4.2330861 0.041069135 1.9911788 nan
4.2330675 0.0333644 1.9911788 nan
4.2330484 0.025659665 1.9911788 nan
4.2330294 0.017954931 1.9911788 nan
4.2330103 0.010250196 1.9911788 nan
4.2329917 0.0025454462 1.9911788 nan
4.2329726 -0.0051592886 1.9911788 nan
4.2329535 -0.012864035 1.9911788 nan
4.232935 -0.020568766 1.9911788 nan
4.2329159 -0.028273508 1.9911788 nan
4.2328968 -0.035978246 1.9911788 nan
4.2328782 -0.043682985 1.9911788 nan
4.2328591 -0.051387724 1.9911788 nan
4.2328401 -0.059092462 1.9911788 nan
4.1858211 -0.066816024 1.9824502 nan
4.2328024 -0.074501939 1.9911788 nan
4.2327833 -0.082206681 1.9911788 nan
4.2327642 -0.089911416 1.9911788 nan
4.1857462 -0.097276889 1.9824502 -3.3161399e+38
4.1397285 -0.10447244 1.9739075 -2.8762941e+38
4.1397099 -0.11200003 1.9739075 -2.688015e+38
4.1396914 -0.11952762 1.9739075 -2.502079e+38
4.1396732 -0.12705523 1.9739075 -2.5291311e+38
4.1396546 -0.13458282 1.9739075 -2.5552479e+38
4.0946379 -0.14127129 1.9655502 -2.5151111e+38
4.0946198 -0.14871317 1.9655502 -2.4619403e+38
4.0946016 -0.15615506 1.9655502 -2.4216467e+38
4.094583 -0.16359696 1.9655502 -2.368322e+38
4.0945649 -0.17103884 1.9655502 -2.2886207e+38
4.0945468 -0.17848071 1.9655502 -2.2085542e+38
4.0945282 -0.18592259 1.9655502 -2.248326e+38
4.0945101 -0.19336447 1.9655502 -2.2884639e+38
4.094492 -0.20080636 1.9655502 -2.4620959e+38
4.1394696 -0.20985879 1.9739075 -2.622019e+38
4.139451 -0.21738639 1.9739075 -2.6754482e+38
4.1394329 -0.22491398 1.9739075 -2.7152212e+38
4.1854095 -0.23435076 1.9824502 -2.8618516e+38
4.1853909 -0.24196598 1.9824502 -2.9949815e+38
4.1853724 -0.24958119 1.9824502 -2.8750391e+38
4.1853533 -0.2571964 1.9824502 -2.7548891e+38
4.2323294 -0.26712042 1.9911788 -2.728564e+38
4.2323103 -0.27482516 1.9911788 -2.7017721e+38
4.2802858 -0.28507066 2.000093 -2.7150131e+38
4.2802663 -0.29286683 2.000093 -2.7150652e+38
4.2322536 -0.29793936 1.9911788 -2.7018253e+38
4.2802281 -0.30845916 2.000093 -2.6753447e+38
4.2802091 -0.31625533 2.000093 -2.6621044e+38
4.2321968 -0.32105356 1.9911788 -2.6488121e+38
4.2801709 -0.33184767 2.000093 -2.6223831e+38
4.2801514 -0.33964381 2.000093 -2.5955903e+38
4.2801323 -0.34744 2.000093 -2.4624594e+38
4.2801132 -0.35523617 2.000093 -2.3156214e+38
4.2800941 -0.36303234 2.000093 -2.1284912e+38
4.3290663 -0.37444887 2.0091932 -1.9456804e+38
4.4315567 0.2323117 2.0198684 nan
4.4315367 0.22422981 2.0198684 nan
4.4315171 0.21614796 2.0198684 nan
4.3804889 0.20474276 2.010494 -3.3279136e+38
4.3804693 0.19675803 2.010494 -1.7811803e+38
4.3804498 0.1887733 2.010494 -2.1954735e+38
4.3804302 0.18078856 2.010494 -2.6218651e+38
4.3804107 0.1728038 2.010494 -2.6351055e+38
4.3303843 0.16203716 2.0013037 -2.6482933e+38
4.3303647 0.15414767 2.0013037 -2.6217081e+38
4.3803515 0.14884962 2.010494 -2.5951236e+38
4.380332 0.14086486 2.010494 -2.5818311e+38
4.3303065 0.13047916 2.0013037 -2.5685907e+38
4.2812815 0.12033004 1.9922969 -2.5686946e+38
4.2812624 0.11253387 1.9922969 -2.5688509e+38
4.2812433 0.10473771 1.9922969 -2.5688513e+38
4.2812243 0.096941531 1.9922969 -2.5821972e+38
4.2812052 0.089145377 1.9922969 -2.5024451e+38
4.2811856 0.081349194 1.9922969 -2.4359843e+38
4.2331619 0.071888089 1.983474 -2.6621095e+38
4.2331429 0.064183354 1.983474 -2.889281e+38
4.2331243 0.056478605 1.983474 -3.2775173e+38
4.2331052 0.048773885 1.983474 nan
4.2330861 0.041069135 1.983474 nan
4.2330675 0.0333644 1.983474 nan
4.2330484 0.025659665 1.983474 nan
4.2330294 0.017954931 1.983474 nan
4.2330103 0.010250196 1.983474 nan
4.2329917 0.0025454462 1.983474 nan
4.2329726 -0.0051592886 1.983474 nan
4.2329535 -0.012864035 1.983474 nan
