# .PCD v0.7 - Point Cloud Data file format
VERSION 0.7
FIELDS x y z rgb
SIZE 4 4 4 4
TYPE F F F F
COUNT 1 1 1 1
WIDTH 1272
HEIGHT 1
VIEWPOINT 0 0 0 1 0 0 0
POINTS 1272
DATA ascii
6.2040157 -2.5859489 2.2101951 nan
6.200387 -2.5899146 2.2101951 nan
6.1967583 -2.5938802 2.2101951 nan
6.1800504 -2.5780692 2.2022874 nan
6.1764512 -2.5820026 2.2022874 nan
6.1728525 -2.5859361 2.2022874 nan
6.2983594 -2.482842 2.2048197 nan
6.2947311 -2.4868076 2.2048197 nan
6.2772245 -2.4718695 2.1969559 nan
6.2736254 -2.4758027 2.1969559 nan
6.2700262 -2.4797361 2.1969559 nan
6.2532377 -2.4654946 2.1894341 nan
6.2496667 -2.4693971 2.1894341 nan
6.200387 -2.5899146 2.2048197 nan
6.1967583 -2.5938802 2.2048197 nan
6.1800504 -2.5780692 2.1969559 nan
6.1764512 -2.5820026 2.1969559 nan
6.1728525 -2.5859361 2.1969559 nan
6.2808232 -2.467936 2.1916246 nan
6.2772245 -2.4718695 2.1916246 nan
6.2736254 -2.4758027 2.1916246 nan
6.2700262 -2.4797361 2.1916246 nan
6.2532377 -2.4654946 2.1841445 nan
6.2496667 -2.4693971 2.1841445 nan
6.2460961 -2.4732995 2.1841445 nan
6.1872482 -2.5702026 2.1916246 nan
6.1836495 -2.574136 2.1916246 nan
6.1800504 -2.5780692 2.1916246 nan
6.1764512 -2.5820026 2.1916246 nan
6.1728525 -2.5859361 2.1916246 nan
6.1692533 -2.5898693 2.1916246 nan
6.2983594 -2.482842 2.1940694 nan
6.2808232 -2.467936 2.1862931 nan
6.2772245 -2.4718695 2.1862931 nan
6.2736254 -2.4758027 2.1862931 nan
6.2568083 -2.4615922 2.1788549 nan
6.2532377 -2.4654946 2.1788549 nan
6.2359071 -2.4503639 2.1710789 nan
6.2323661 -2.4542339 2.1710789 nan
6.2288246 -2.4581041 2.1710789 nan
6.2252836 -2.4619741 2.1710789 nan
6.2217426 -2.4658442 2.1710789 nan
6.1952305 -2.4637103 2.1639788 nan
6.1917162 -2.4675508 2.1639788 nan
6.1882019 -2.4713914 2.1639788 nan
6.1846876 -2.4752321 2.1639788 nan
6.1811738 -2.4790726 2.1639788 nan
6.1648655 -2.4643056 2.1565409 nan
6.1741457 -2.4867537 2.1639788 nan
6.1872482 -2.5702026 2.1862931 nan
6.1836495 -2.574136 2.1862931 nan
6.1800504 -2.5780692 2.1862931 nan
6.1764512 -2.5820026 2.1862931 nan
6.1728525 -2.5859361 2.1862931 nan
6.1692533 -2.5898693 2.1862931 nan
6.1656542 -2.5938025 2.1862931 nan
6.3196135 -2.4936852 2.1964264 nan
6.3019881 -2.4788764 2.188694 nan
6.2844224 -2.4640026 2.1809616 nan
6.2808232 -2.467936 2.1809616 nan
6.2772245 -2.4718695 2.1809616 nan
6.2736254 -2.4758027 2.1809616 nan
6.2568083 -2.4615922 2.1735654 nan
6.2532377 -2.4654946 2.1735654 nan
6.2359071 -2.4503639 2.165833 nan
6.2323661 -2.4542339 2.165833 nan
6.2288246 -2.4581041 2.165833 nan
6.2252836 -2.4619741 2.165833 nan
6.2217426 -2.4658442 2.165833 nan
6.2057729 -2.4521885 2.1587732 nan
6.1987448 -2.4598696 2.1587732 nan
6.1952305 -2.4637103 2.1587732 nan
6.1917162 -2.4675508 2.1587732 nan
6.1882019 -2.4713914 2.1587732 nan
6.1846876 -2.4752321 2.1587732 nan
6.1683517 -2.4604959 2.151377 nan
6.1776595 -2.4829133 2.1587732 nan
6.1863308 -2.5045452 2.165833 nan
6.1827898 -2.5084152 2.165833 nan
6.1721659 -2.5200255 2.165833 nan
6.1686249 -2.5238957 2.165833 nan
6.1908474 -2.5662694 2.1809616 nan
6.1872482 -2.5702026 2.1809616 nan
6.1836495 -2.574136 2.1809616 nan
6.1800504 -2.5780692 2.1809616 nan
6.1764512 -2.5820026 2.1809616 nan
6.1728525 -2.5859361 2.1809616 nan
6.1692533 -2.5898693 2.1809616 nan
6.1656542 -2.5938025 2.1809616 nan
6.162055 -2.5977359 2.1809616 nan
6.3196135 -2.4936852 2.1910074 nan
6.3019881 -2.4788764 2.1833189 nan
6.2844224 -2.4640026 2.1756303 nan
6.2808232 -2.467936 2.1756303 nan
6.2639499 -2.4537876 2.1682758 nan
6.2603788 -2.4576898 2.1682758 nan
6.2568083 -2.4615922 2.1682758 nan
6.2394485 -2.4464939 2.1605873 nan
6.2359071 -2.4503639 2.1605873 nan
6.2323661 -2.4542339 2.1605873 nan
6.2288246 -2.4581041 2.1605873 nan
6.2252836 -2.4619741 2.1605873 nan
6.2217426 -2.4658442 2.1605873 nan
6.2057729 -2.4521885 2.1535673 nan
6.2022586 -2.4560292 2.1535673 nan
6.1987448 -2.4598696 2.1535673 nan
6.1952305 -2.4637103 2.1535673 nan
6.1917162 -2.4675508 2.1535673 nan
6.1882019 -2.4713914 2.1535673 nan
6.1718378 -2.4566865 2.1462131 nan
6.1683517 -2.4604959 2.1462131 nan
6.1648655 -2.4643056 2.1462131 nan
6.1741457 -2.4867537 2.1535673 nan
6.1706314 -2.4905944 2.1535673 nan
6.1792483 -2.5122855 2.1605873 nan
6.1757073 -2.5161555 2.1605873 nan
6.1721659 -2.5200255 2.1605873 nan
6.1818228 -2.5435431 2.1682758 nan
6.1908474 -2.5662694 2.1756303 nan
6.1872482 -2.5702026 2.1756303 nan
6.1836495 -2.574136 2.1756303 nan
6.1800504 -2.5780692 2.1756303 nan
6.1764512 -2.5820026 2.1756303 nan
6.1728525 -2.5859361 2.1756303 nan
6.1692533 -2.5898693 2.1756303 nan
6.1656542 -2.5938025 2.1756303 nan
6.162055 -2.5977359 2.1756303 nan
6.1584558 -2.6016693 2.1756303 nan
6.3196135 -2.4936852 2.1855884 nan
6.3019881 -2.4788764 2.1779437 nan
6.2844224 -2.4640026 2.1702988 nan
6.2808232 -2.467936 2.1702988 nan
6.2639499 -2.4537876 2.1629865 nan
6.2603788 -2.4576898 2.1629865 nan
6.2568083 -2.4615922 2.1629865 nan
6.2394485 -2.4464939 2.1553416 nan
6.2359071 -2.4503639 2.1553416 nan
6.2323661 -2.4542339 2.1553416 nan
6.2288246 -2.4581041 2.1553416 nan
6.212801 -2.4445074 2.1483617 nan
6.2092872 -2.448348 2.1483617 nan
6.1927528 -2.4338284 2.1410494 nan
6.2022586 -2.4560292 2.1483617 nan
6.185781 -2.4414477 2.1410494 nan
6.1822948 -2.4452574 2.1410494 nan
6.1788092 -2.4490671 2.1410494 nan
6.1882019 -2.4713914 2.1483617 nan
6.1718378 -2.4566865 2.1410494 nan
6.1683517 -2.4604959 2.1410494 nan
6.1648655 -2.4643056 2.1410494 nan
6.1863308 -2.5045452 2.1553416 nan
6.1827898 -2.5084152 2.1553416 nan
6.1792483 -2.5122855 2.1553416 nan
6.1757073 -2.5161555 2.1553416 nan
6.1721659 -2.5200255 2.1553416 nan
6.1818228 -2.5435431 2.1629865 nan
6.1908474 -2.5662694 2.1702988 nan
6.1872482 -2.5702026 2.1702988 nan
6.1836495 -2.574136 2.1702988 nan
6.1800504 -2.5780692 2.1702988 nan
6.1764512 -2.5820026 2.1702988 nan
6.1728525 -2.5859361 2.1702988 nan
6.1692533 -2.5898693 2.1702988 nan
6.1656542 -2.5938025 2.1702988 nan
6.162055 -2.5977359 2.1702988 nan
6.1584558 -2.6016693 2.1702988 nan
6.3128738 -2.4669793 2.1725683 nan
6.3092451 -2.4709449 2.1725683 nan
6.3196135 -2.4936852 2.1801693 nan
6.2880216 -2.4600694 2.1649675 nan
6.2844224 -2.4640026 2.1649675 nan
6.2675204 -2.4498851 2.157697 nan
6.2639499 -2.4537876 2.157697 nan
6.2603788 -2.4576898 2.157697 nan
6.2568083 -2.4615922 2.157697 nan
6.2394485 -2.4464939 2.1500959 nan
6.2359071 -2.4503639 2.1500959 nan
6.2323661 -2.4542339 2.1500959 nan
6.2288246 -2.4581041 2.1500959 nan
6.212801 -2.4445074 2.1431561 nan
6.2092872 -2.448348 2.1431561 nan
6.2057729 -2.4521885 2.1431561 nan
6.2022586 -2.4560292 2.1431561 nan
6.185781 -2.4414477 2.1358855 nan
6.1822948 -2.4452574 2.1358855 nan
6.1917162 -2.4675508 2.1431561 nan
6.1882019 -2.4713914 2.1431561 nan
6.1718378 -2.4566865 2.1358855 nan
6.1811738 -2.4790726 2.1431561 nan
6.1648655 -2.4643056 2.1358855 nan
6.1863308 -2.5045452 2.1500959 nan
6.1827898 -2.5084152 2.1500959 nan
6.1792483 -2.5122855 2.1500959 nan
6.1757073 -2.5161555 2.1500959 nan
6.1721659 -2.5200255 2.1500959 nan
6.1818228 -2.5435431 2.157697 nan
6.1782522 -2.5474453 2.157697 nan
6.1872482 -2.5702026 2.1649675 nan
6.1836495 -2.574136 2.1649675 -3.3832785e+38
6.1800504 -2.5780692 2.1649675 -3.1045585e+38
6.1764512 -2.5820026 2.1649675 nan
6.1728525 -2.5859361 2.1649675 nan
6.1692533 -2.5898693 2.1649675 nan
6.1656542 -2.5938025 2.1649675 nan
6.162055 -2.5977359 2.1649675 nan
6.1461153 -2.5825672 2.157697 nan
6.3165026 -2.4630136 2.1671932 nan
6.3128738 -2.4669793 2.1671932 nan
6.3092451 -2.4709449 2.1671932 nan
6.3056169 -2.4749107 2.1671932 nan
6.2880216 -2.4600694 2.159636 nan
6.2844224 -2.4640026 2.159636 nan
6.2675204 -2.4498851 2.1524074 nan
6.2639499 -2.4537876 2.1524074 nan
6.2465305 -2.4387536 2.1448503 nan
6.2429895 -2.4426236 2.1448503 nan
6.2394485 -2.4464939 2.1448503 nan
6.2359071 -2.4503639 2.1448503 nan
6.2198296 -2.4368262 2.1379502 nan
6.2163153 -2.4406667 2.1379502 nan
6.1997247 -2.426209 2.1307216 nan
6.2092872 -2.448348 2.1379502 nan
6.1927528 -2.4338284 2.1307216 nan
6.1892672 -2.437638 2.1307216 nan
6.185781 -2.4414477 2.1307216 nan
6.1822948 -2.4452574 2.1307216 nan
6.1788092 -2.4490671 2.1307216 nan
6.1882019 -2.4713914 2.1379502 nan
6.1718378 -2.4566865 2.1307216 nan
6.1811738 -2.4790726 2.1379502 nan
6.1776595 -2.4829133 2.1379502 nan
6.1863308 -2.5045452 2.1448503 nan
6.1827898 -2.5084152 2.1448503 nan
6.1792483 -2.5122855 2.1448503 nan
6.1757073 -2.5161555 2.1448503 nan
6.1721659 -2.5200255 2.1448503 nan
6.1818228 -2.5435431 2.1524074 nan
6.1782522 -2.5474453 2.1524074 nan
6.1872482 -2.5702026 2.159636 nan
6.1836495 -2.574136 2.159636 -3.2763117e+38
6.1800504 -2.5780692 2.159636 -3.103307e+38
6.1764512 -2.5820026 2.159636 -3.2900766e+38
6.1728525 -2.5859361 2.159636 nan
6.1692533 -2.5898693 2.159636 nan
6.1656542 -2.5938025 2.159636 nan
6.162055 -2.5977359 2.159636 nan
6.1461153 -2.5825672 2.1524074 nan
6.3128738 -2.4669793 2.161818 nan
6.3092451 -2.4709449 2.161818 nan
6.3056169 -2.4749107 2.161818 nan
6.2880216 -2.4600694 2.1543045 nan
6.2844224 -2.4640026 2.1543045 nan
6.2675204 -2.4498851 2.1471179 nan
6.2639499 -2.4537876 2.1471179 nan
6.2603788 -2.4576898 2.1471179 nan
6.2568083 -2.4615922 2.1471179 nan
6.2394485 -2.4464939 2.1396046 nan
6.2359071 -2.4503639 2.1396046 nan
6.2198296 -2.4368262 2.1327446 nan
6.2163153 -2.4406667 2.1327446 nan
6.212801 -2.4445074 2.1327446 nan
6.2092872 -2.448348 2.1327446 nan
6.1927528 -2.4338284 2.1255579 nan
6.1892672 -2.437638 2.1255579 nan
6.185781 -2.4414477 2.1255579 nan
6.1822948 -2.4452574 2.1255579 nan
6.1788092 -2.4490671 2.1255579 nan
6.1882019 -2.4713914 2.1327446 nan
6.1846876 -2.4752321 2.1327446 nan
6.1811738 -2.4790726 2.1327446 nan
6.1776595 -2.4829133 2.1327446 nan
6.1863308 -2.5045452 2.1396046 nan
6.1827898 -2.5084152 2.1396046 nan
6.1792483 -2.5122855 2.1396046 nan
6.1757073 -2.5161555 2.1396046 nan
6.1721659 -2.5200255 2.1396046 nan
6.1818228 -2.5435431 2.1471179 nan
6.1782522 -2.5474453 2.1471179 nan
6.1872482 -2.5702026 2.1543045 -3.2623978e+38
6.1836495 -2.574136 2.1543045 -3.1822279e+38
6.1800504 -2.5780692 2.1543045 -3.1026817e+38
6.1764512 -2.5820026 2.1543045 -3.0623895e+38
6.1728525 -2.5859361 2.1543045 -3.0240241e+38
6.1692533 -2.5898693 2.1543045 nan
6.1656542 -2.5938025 2.1543045 nan
6.162055 -2.5977359 2.1543045 nan
6.1461153 -2.5825672 2.1471179 nan
6.3165026 -2.4630136 2.1564426 nan
6.3128738 -2.4669793 2.1564426 nan
6.3092451 -2.4709449 2.1564426 nan
6.3056169 -2.4749107 2.1564426 nan
6.2880216 -2.4600694 2.148973 nan
6.2844224 -2.4640026 2.148973 nan
6.2675204 -2.4498851 2.1418283 nan
6.2639499 -2.4537876 2.1418283 nan
6.2603788 -2.4576898 2.1418283 nan
6.2429895 -2.4426236 2.1343589 nan
6.2394485 -2.4464939 2.1343589 nan
6.2359071 -2.4503639 2.1343589 nan
6.2198296 -2.4368262 2.1275387 nan
6.2163153 -2.4406667 2.1275387 nan
6.212801 -2.4445074 2.1275387 nan
6.2092872 -2.448348 2.1275387 nan
6.1927528 -2.4338284 2.120394 nan
6.1892672 -2.437638 2.120394 nan
6.185781 -2.4414477 2.120394 nan
6.1822948 -2.4452574 2.120394 nan
6.1788092 -2.4490671 2.120394 nan
6.1882019 -2.4713914 2.1275387 nan
6.1846876 -2.4752321 2.1275387 nan
6.1811738 -2.4790726 2.1275387 nan
6.1776595 -2.4829133 2.1275387 nan
6.1996765 -2.5240309 2.1418283 nan
6.1827898 -2.5084152 2.1343589 nan
6.1792483 -2.5122855 2.1343589 nan
6.1636028 -2.4982755 2.1275387 nan
6.1721659 -2.5200255 2.1343589 nan
6.1686249 -2.5238957 2.1343589 nan
6.1782522 -2.5474453 2.1418283 nan
6.1746812 -2.5513477 2.1418283 -3.381664e+38
6.1836495 -2.574136 2.148973 -3.1688322e+38
6.1800504 -2.5780692 2.148973 -2.9696531e+38
6.1764512 -2.5820026 2.148973 -2.996079e+38
6.1728525 -2.5859361 2.148973 -3.0225664e+38
6.1692533 -2.5898693 2.148973 -3.1969304e+38
6.1656542 -2.5938025 2.148973 -3.3714454e+38
6.162055 -2.5977359 2.148973 nan
6.1461153 -2.5825672 2.1418283 nan
6.3165026 -2.4630136 2.1510673 nan
6.3128738 -2.4669793 2.1510673 nan
6.2952194 -2.4522028 2.1436417 nan
6.3056169 -2.4749107 2.1510673 nan
6.2880216 -2.4600694 2.1436417 nan
6.2844224 -2.4640026 2.1436417 nan
6.2808232 -2.467936 2.1436417 nan
6.2639499 -2.4537876 2.1365387 nan
6.2603788 -2.4576898 2.1365387 nan
6.2568083 -2.4615922 2.1365387 nan
6.2394485 -2.4464939 2.1291132 nan
6.2359071 -2.4503639 2.1291132 nan
6.2323661 -2.4542339 2.1291132 nan
6.2288246 -2.4581041 2.1291132 nan
6.212801 -2.4445074 2.122333 nan
6.2092872 -2.448348 2.122333 nan
6.1927528 -2.4338284 2.1152303 nan
6.1892672 -2.437638 2.1152303 nan
6.1987448 -2.4598696 2.122333 nan
6.1952305 -2.4637103 2.122333 nan
6.1788092 -2.4490671 2.1152303 nan
6.1882019 -2.4713914 2.122333 nan
6.1846876 -2.4752321 2.122333 nan
6.1811738 -2.4790726 2.122333 nan
6.1776595 -2.4829133 2.122333 nan
6.1863308 -2.5045452 2.1291132 nan
6.1827898 -2.5084152 2.1291132 nan
6.1792483 -2.5122855 2.1291132 nan
6.1636028 -2.4982755 2.122333 nan
6.1721659 -2.5200255 2.1291132 nan
6.1686249 -2.5238957 2.1291132 nan
6.1782522 -2.5474453 2.1365387 nan
6.1746812 -2.5513477 2.1365387 nan
6.1836495 -2.574136 2.1436417 -3.1550716e+38
6.1800504 -2.5780692 2.1436417 -2.8231268e+38
6.1764512 -2.5820026 2.1436417 -2.9296196e+38
6.1728525 -2.5859361 2.1436417 -3.0224096e+38
6.1692533 -2.5898693 2.1436417 -2.956004e+38
6.1656542 -2.5938025 2.1436417 -2.8782784e+38
6.162055 -2.5977359 2.1436417 nan
6.1584558 -2.6016693 2.1436417 nan
6.3342457 -2.4776933 2.153074 nan
6.3024178 -2.4443359 2.1383102 nan
6.3128738 -2.4669793 2.1456921 nan
6.2952194 -2.4522028 2.1383102 nan
6.3056169 -2.4749107 2.1456921 nan
6.2880216 -2.4600694 2.1383102 nan
6.2844224 -2.4640026 2.1383102 nan
6.2808232 -2.467936 2.1383102 nan
6.2639499 -2.4537876 2.1312494 nan
6.2603788 -2.4576898 2.1312494 nan
6.2568083 -2.4615922 2.1312494 nan
6.2394485 -2.4464939 2.1238675 nan
6.2359071 -2.4503639 2.1238675 nan
6.2323661 -2.4542339 2.1238675 nan
6.2163153 -2.4406667 2.1171274 nan
6.212801 -2.4445074 2.1171274 nan
6.2092872 -2.448348 2.1171274 nan
6.2057729 -2.4521885 2.1171274 nan
6.1892672 -2.437638 2.1100664 nan
6.1987448 -2.4598696 2.1171274 nan
6.1952305 -2.4637103 2.1171274 nan
6.1917162 -2.4675508 2.1171274 nan
6.1882019 -2.4713914 2.1171274 nan
6.1846876 -2.4752321 2.1171274 nan
6.1934128 -2.496805 2.1238675 nan
6.1898718 -2.5006752 2.1238675 nan
6.1863308 -2.5045452 2.1238675 nan
6.1827898 -2.5084152 2.1238675 nan
6.1792483 -2.5122855 2.1238675 nan
6.1757073 -2.5161555 2.1238675 nan
6.1721659 -2.5200255 2.1238675 nan
6.1686249 -2.5238957 2.1238675 nan
6.1782522 -2.5474453 2.1312494 nan
6.1746812 -2.5513477 2.1312494 nan
6.1836495 -2.574136 2.1383102 -3.3416817e+38
6.1800504 -2.5780692 2.1383102 -2.8893812e+38
6.1764512 -2.5820026 2.1383102 -2.9824792e+38
6.1728525 -2.5859361 2.1383102 -3.0884548e+38
6.1692533 -2.5898693 2.1383102 -2.9825326e+38
6.1656542 -2.5938025 2.1383102 -2.8770815e+38
6.162055 -2.5977359 2.1383102 nan
6.1584558 -2.6016693 2.1383102 nan
6.3165026 -2.4630136 2.140317 nan
6.3128738 -2.4669793 2.140317 nan
6.2952194 -2.4522028 2.1329789 nan
6.2916203 -2.456136 2.1329789 nan
6.2880216 -2.4600694 2.1329789 nan
6.2844224 -2.4640026 2.1329789 nan
6.2675204 -2.4498851 2.1259599 nan
6.2639499 -2.4537876 2.1259599 nan
6.2603788 -2.4576898 2.1259599 nan
6.2429895 -2.4426236 2.1186218 nan
6.2394485 -2.4464939 2.1186218 nan
6.2359071 -2.4503639 2.1186218 nan
6.2323661 -2.4542339 2.1186218 nan
6.2288246 -2.4581041 2.1186218 nan
6.212801 -2.4445074 2.1119218 -3.3564847e+38
6.2092872 -2.448348 2.1119218 nan
6.2057729 -2.4521885 2.1119218 nan
6.1892672 -2.437638 2.1049027 nan
6.1987448 -2.4598696 2.1119218 nan
6.1952305 -2.4637103 2.1119218 nan
6.1917162 -2.4675508 2.1119218 nan
6.1882019 -2.4713914 2.1119218 nan
6.1846876 -2.4752321 2.1119218 nan
6.1934128 -2.496805 2.1186218 nan
6.1898718 -2.5006752 2.1186218 nan
6.1996765 -2.5240309 2.1259599 nan
6.1827898 -2.5084152 2.1186218 nan
6.1792483 -2.5122855 2.1186218 nan
6.1757073 -2.5161555 2.1186218 nan
6.1721659 -2.5200255 2.1186218 nan
6.1686249 -2.5238957 2.1186218 nan
6.1650839 -2.5277658 2.1186218 nan
6.1746812 -2.5513477 2.1259599 nan
6.1836495 -2.574136 2.1329789 nan
6.1800504 -2.5780692 2.1329789 -2.9559458e+38
6.1764512 -2.5820026 2.1329789 -3.0490962e+38
6.1728525 -2.5859361 2.1329789 -3.1417787e+38
6.1692533 -2.5898693 2.1329789 -3.0085963e+38
6.1656542 -2.5938025 2.1329789 -2.8768197e+38
6.162055 -2.5977359 2.1329789 nan
6.1584558 -2.6016693 2.1329789 nan
6.3342457 -2.4776933 2.142236 nan
6.3165026 -2.4630136 2.1349416 nan
6.3128738 -2.4669793 2.1349416 nan
6.2952194 -2.4522028 2.1276474 nan
6.3056169 -2.4749107 2.1349416 nan
6.2880216 -2.4600694 2.1276474 nan
6.2844224 -2.4640026 2.1276474 nan
6.2808232 -2.467936 2.1276474 nan
6.2639499 -2.4537876 2.1206703 nan
6.2603788 -2.4576898 2.1206703 nan
6.2429895 -2.4426236 2.1133759 nan
6.2394485 -2.4464939 2.1133759 nan
6.2359071 -2.4503639 2.1133759 nan
6.2198296 -2.4368262 2.1067159 nan
6.2163153 -2.4406667 2.1067159 -3.3963073e+38
6.212801 -2.4445074 2.1067159 -3.3564836e+38
6.2092872 -2.448348 2.1067159 -3.3827057e+38
6.2057729 -2.4521885 2.1067159 -3.3963104e+38
6.1892672 -2.437638 2.0997388 -3.3827074e+38
6.1987448 -2.4598696 2.1067159 -3.3695191e+38
6.1952305 -2.4637103 2.1067159 -3.382396e+38
6.1917162 -2.4675508 2.1067159 -3.3954287e+38
6.1882019 -2.4713914 2.1067159 nan
6.1846876 -2.4752321 2.1067159 nan
6.1934128 -2.496805 2.1133759 nan
6.1898718 -2.5006752 2.1133759 nan
6.1996765 -2.5240309 2.1206703 nan
6.1827898 -2.5084152 2.1133759 nan
6.1792483 -2.5122855 2.1133759 nan
6.1757073 -2.5161555 2.1133759 nan
6.1853933 -2.5396404 2.1206703 nan
6.1818228 -2.5435431 2.1206703 nan
6.1782522 -2.5474453 2.1206703 nan
6.1746812 -2.5513477 2.1206703 nan
6.1836495 -2.574136 2.1276474 nan
6.1800504 -2.5780692 2.1276474 -3.1686219e+38
6.1764512 -2.5820026 2.1276474 -3.1684669e+38
6.1728525 -2.5859361 2.1276474 -3.1683103e+38
6.1692533 -2.5898693 2.1276474 -3.0352829e+38
6.1656542 -2.5938025 2.1276474 -2.9020003e+38
6.162055 -2.5977359 2.1276474 -3.343297e+38
6.1584558 -2.6016693 2.1276474 nan
6.3342457 -2.4776933 2.136817 nan
6.3305879 -2.4816914 2.136817 nan
6.3128738 -2.4669793 2.1295664 nan
6.3092451 -2.4709449 2.1295664 nan
6.3056169 -2.4749107 2.1295664 nan
6.2880216 -2.4600694 2.1223159 nan
6.2844224 -2.4640026 2.1223159 nan
6.2675204 -2.4498851 2.1153808 nan
6.2639499 -2.4537876 2.1153808 nan
6.2603788 -2.4576898 2.1153808 -3.396568e+38
6.2429895 -2.4426236 2.1081302 nan
6.2394485 -2.4464939 2.1081302 nan
6.2359071 -2.4503639 2.1081302 nan
6.2198296 -2.4368262 2.1015103 nan
6.2288246 -2.4581041 2.1081302 -3.3826524e+38
6.212801 -2.4445074 2.1015103 -3.3559125e+38
6.2092872 -2.448348 2.1015103 -3.3557573e+38
6.2057729 -2.4521885 2.1015103 -3.3425695e+38
6.2022586 -2.4560292 2.1015103 -3.3292257e+38
6.1987448 -2.4598696 2.1015103 -3.3025894e+38
6.1952305 -2.4637103 2.1015103 -3.3288107e+38
6.1917162 -2.4675508 2.1015103 -3.3421551e+38
6.1882019 -2.4713914 2.1015103 -3.368532e+38
6.1846876 -2.4752321 2.1015103 -3.3954281e+38
6.1934128 -2.496805 2.1081302 nan
6.1898718 -2.5006752 2.1081302 nan
6.1996765 -2.5240309 2.1153808 nan
6.1827898 -2.5084152 2.1081302 nan
6.1792483 -2.5122855 2.1081302 nan
6.1757073 -2.5161555 2.1081302 nan
6.1721659 -2.5200255 2.1081302 nan
6.1686249 -2.5238957 2.1081302 nan
6.1650839 -2.5277658 2.1081302 nan
6.1746812 -2.5513477 2.1153808 nan
6.1711102 -2.5552502 2.1153808 nan
6.1675396 -2.5591526 2.1153808 -3.3685253e+38
6.163969 -2.563055 2.1153808 -3.2744397e+38
6.1603985 -2.5669575 2.1153808 -3.1815499e+38
6.1568274 -2.5708599 2.1153808 -3.0488354e+38
6.1532564 -2.5747623 2.1153808 -2.9162787e+38
6.337904 -2.4736955 2.131398 nan
6.3342457 -2.4776933 2.131398 nan
6.3305879 -2.4816914 2.131398 nan
6.3269296 -2.4856894 2.131398 nan
6.3232713 -2.4896874 2.131398 nan
6.2916203 -2.456136 2.1169846 nan
6.2880216 -2.4600694 2.1169846 nan
6.2844224 -2.4640026 2.1169846 nan
6.2675204 -2.4498851 2.1100912 nan
6.2639499 -2.4537876 2.1100912 nan
6.2603788 -2.4576898 2.1100912 -3.3698779e+38
6.2429895 -2.4426236 2.1028845 -3.3695617e+38
6.2394485 -2.4464939 2.1028845 -3.3694088e+38
6.2359071 -2.4503639 2.1028845 -3.3426711e+38
6.2198296 -2.4368262 2.0963044 -3.3292756e+38
6.2288246 -2.4581041 2.1028845 -3.3157243e+38
6.212801 -2.4445074 2.0963044 -3.2889321e+38
6.2092872 -2.448348 2.0963044 -3.2755879e+38
6.2057729 -2.4521885 2.0963044 -3.2755881e+38
6.2022586 -2.4560292 2.0963044 -3.2491595e+38
6.1987448 -2.4598696 2.0963044 -3.2358676e+38
6.1952305 -2.4637103 2.0963044 -3.2491601e+38
6.1917162 -2.4675508 2.0963044 -3.2624528e+38
6.1882019 -2.4713914 2.0963044 -3.2223684e+38
6.1846876 -2.4752321 2.0963044 -3.1826476e+38
6.1934128 -2.496805 2.1028845 -3.3290186e+38
6.1898718 -2.5006752 2.1028845 nan
6.1863308 -2.5045452 2.1028845 nan
6.196106 -2.5279334 2.1100912 nan
6.1792483 -2.5122855 2.1028845 nan
6.1757073 -2.5161555 2.1028845 nan
6.1853933 -2.5396404 2.1100912 nan
6.1818228 -2.5435431 2.1100912 nan
6.1650839 -2.5277658 2.1028845 nan
6.1746812 -2.5513477 2.1100912 nan
6.1580014 -2.535506 2.1028845 nan
6.15446 -2.539376 2.1028845 -3.3953697e+38
6.163969 -2.563055 2.1100912 -3.1948914e+38
6.147378 -2.5471163 2.1028845 -2.9953014e+38
6.1438365 -2.5509863 2.1028845 -2.9158091e+38
6.1402955 -2.5548563 2.1028845 -2.8366286e+38
6.337904 -2.4736955 2.1259789 nan
6.3342457 -2.4776933 2.1259789 nan
6.3305879 -2.4816914 2.1259789 nan
6.2988186 -2.4482694 2.1116531 nan
6.2952194 -2.4522028 2.1116531 nan
6.2916203 -2.456136 2.1116531 nan
6.2844224 -2.4640026 2.1116531 nan
6.2500715 -2.4348836 2.0976388 -3.3554468e+38
6.2429895 -2.4426236 2.0976388 -3.3292719e+38
6.2394485 -2.4464939 2.0976388 -3.3026888e+38
6.2359071 -2.4503639 2.0976388 -3.2759501e+38
6.2323661 -2.4542339 2.0976388 -3.2491061e+38
6.2288246 -2.4581041 2.0976388 -3.2354506e+38
6.2252836 -2.4619741 2.0976388 -3.2221583e+38
6.2217426 -2.4658442 2.0976388 -3.2087105e+38
6.2057729 -2.4521885 2.0910988 -3.1957297e+38
6.2022586 -2.4560292 2.0910988 -3.1825413e+38
6.1987448 -2.4598696 2.0910988 -3.1693531e+38
6.1952305 -2.4637103 2.0910988 -3.1827496e+38
6.1917162 -2.4675508 2.0910988 -3.1825423e+38
6.1882019 -2.4713914 2.0910988 -3.0758931e+38
6.1846876 -2.4752321 2.0910988 -2.9564703e+38
6.1811738 -2.4790726 2.0910988 -3.2355045e+38
6.1776595 -2.4829133 2.0910988 nan
6.1863308 -2.5045452 2.0976388 nan
6.1827898 -2.5084152 2.0976388 nan
6.1792483 -2.5122855 2.0976388 nan
6.1757073 -2.5161555 2.0976388 nan
6.1721659 -2.5200255 2.0976388 nan
6.1818228 -2.5435431 2.1048017 nan
6.1650839 -2.5277658 2.0976388 nan
6.1746812 -2.5513477 2.1048017 nan
6.1460319 -2.5174785 2.0910988 nan
6.1675396 -2.5591526 2.1048017 nan
6.163969 -2.563055 2.1048017 -3.1011711e+38
6.1354895 -2.5290003 2.0910988 -2.7958127e+38
6.1319752 -2.5328407 2.0910988 -2.7825213e+38
6.1284609 -2.5366814 2.0910988 -2.7569249e+38
6.3342457 -2.4776933 2.1205597 nan
6.3305879 -2.4816914 2.1205597 nan
6.3128738 -2.4669793 2.1134408 nan
6.3092451 -2.4709449 2.1134408 nan
6.3056169 -2.4749107 2.1134408 nan
6.2568083 -2.4615922 2.0995121 -3.2493649e+38
6.2532377 -2.4654946 2.0995121 -3.2227806e+38
6.2496667 -2.4693971 2.0995121 -3.2092289e+38
6.2323661 -2.4542339 2.0923932 -3.1956251e+38
6.2288246 -2.4581041 2.0923932 -3.1822287e+38
6.2252836 -2.4619741 2.0923932 -3.182177e+38
6.2217426 -2.4658442 2.0923932 -3.1689367e+38
6.2057729 -2.4521885 2.0858932 -3.1559038e+38
6.1892672 -2.437638 2.0790834 -3.1426632e+38
6.1987448 -2.4598696 2.0858932 -3.1427675e+38
6.1952305 -2.4637103 2.0858932 -3.1559563e+38
6.1917162 -2.4675508 2.0858932 -3.1691454e+38
6.1882019 -2.4713914 2.0858932 -3.1025807e+38
6.1846876 -2.4752321 2.0858932 -3.0229309e+38
6.1811738 -2.4790726 2.0858932 -3.3158284e+38
6.1898718 -2.5006752 2.0923932 nan
6.1863308 -2.5045452 2.0923932 nan
6.1827898 -2.5084152 2.0923932 nan
6.1792483 -2.5122855 2.0923932 nan
6.1889639 -2.5357382 2.0995121 nan
6.1853933 -2.5396404 2.0995121 nan
6.1818228 -2.5435431 2.0995121 nan
6.1782522 -2.5474453 2.0995121 nan
6.1746812 -2.5513477 2.0995121 nan
6.1460319 -2.5174785 2.0858932 nan
6.1675396 -2.5591526 2.0995121 nan
6.150919 -2.5432463 2.0923932 -3.1816002e+38
6.147378 -2.5471163 2.0923932 -2.7693833e+38
6.1438365 -2.5509863 2.0923932 -2.7564022e+38
6.3526635 -2.4931178 2.1225235 -3.3701937e+38
6.3342457 -2.4776933 2.1151407 nan
6.3305879 -2.4816914 2.1151407 nan
6.3269296 -2.4856894 2.1151407 nan
6.3232713 -2.4896874 2.1151407 nan
6.334218 -2.5132763 2.1225235 nan
6.2603788 -2.4576898 2.0942225 -3.1961441e+38
6.2568083 -2.4615922 2.0942225 -3.1694553e+38
6.2532377 -2.4654946 2.0942225 -3.1427671e+38
6.2496667 -2.4693971 2.0942225 -3.1425077e+38
6.2323661 -2.4542339 2.0871475 -3.1291113e+38
6.2288246 -2.4581041 2.0871475 -3.1289554e+38
6.2252836 -2.4619741 2.0871475 -3.1290071e+38
6.2217426 -2.4658442 2.0871475 -3.1157148e+38
6.2057729 -2.4521885 2.0806875 -3.1025779e+38
6.2022586 -2.4560292 2.0806875 -3.1026815e+38
6.1987448 -2.4598696 2.0806875 -3.10263e+38
6.1952305 -2.4637103 2.0806875 -3.1290594e+38
6.1917162 -2.4675508 2.0806875 -3.1556446e+38
6.1882019 -2.4713914 2.0806875 -3.1290087e+38
6.1846876 -2.4752321 2.0806875 -3.0896513e+38
6.1811738 -2.4790726 2.0806875 -3.3962564e+38
6.1898718 -2.5006752 2.0871475 nan
6.1863308 -2.5045452 2.0871475 nan
6.196106 -2.5279334 2.0942225 nan
6.1925349 -2.5318358 2.0942225 nan
6.1889639 -2.5357382 2.0942225 nan
6.1853933 -2.5396404 2.0942225 nan
6.1818228 -2.5435431 2.0942225 nan
6.1782522 -2.5474453 2.0942225 nan
6.1872482 -2.5702026 2.1009903 nan
6.1711102 -2.5552502 2.0942225 nan
6.1675396 -2.5591526 2.0942225 nan
6.150919 -2.5432463 2.0871475 -3.2738657e+38
6.147378 -2.5471163 2.0871475 -2.742745e+38
6.1438365 -2.5509863 2.0871475 -2.7300754e+38
6.3342457 -2.4776933 2.1097217 nan
6.3305879 -2.4816914 2.1097217 nan
6.3269296 -2.4856894 2.1097217 nan
6.3379073 -2.5092447 2.1170588 nan
6.334218 -2.5132763 2.1170588 -3.3955804e+38
6.3305292 -2.517308 2.1170588 -3.3423592e+38
6.2772245 -2.4718695 2.0956588 -3.2094354e+38
6.2568083 -2.4615922 2.088933 -3.1428186e+38
6.2532377 -2.4654946 2.088933 -3.1161304e+38
6.2496667 -2.4693971 2.088933 -3.1025785e+38
6.2460961 -2.4732995 2.088933 -3.1024225e+38
6.2425251 -2.4772019 2.088933 -3.1024223e+38
6.2252836 -2.4619741 2.0819016 -3.1024219e+38
6.2217426 -2.4658442 2.0819016 -3.0891812e+38
6.2182012 -2.4697144 2.0819016 -3.0892329e+38
6.2022586 -2.4560292 2.0754817 -3.0892325e+38
6.1987448 -2.4598696 2.0754817 -3.1024734e+38
6.1952305 -2.4637103 2.0754817 -3.1289546e+38
6.2040367 -2.4851947 2.0819016 -3.1421957e+38
6.1882019 -2.4713914 2.0754817 -3.1555405e+38
6.1969543 -2.4929349 2.0819016 -3.1693003e+38
6.1811738 -2.4790726 2.0754817 -3.3825482e+38
6.1776595 -2.4829133 2.0754817 nan
6.1863308 -2.5045452 2.0819016 nan
6.196106 -2.5279334 2.088933 nan
6.1792483 -2.5122855 2.0819016 nan
6.1757073 -2.5161555 2.0819016 nan
6.1721659 -2.5200255 2.0819016 nan
6.1818228 -2.5435431 2.088933 nan
6.1782522 -2.5474453 2.088933 nan
6.1746812 -2.5513477 2.088933 nan
6.1580014 -2.535506 2.0819016 nan
6.15446 -2.539376 2.0819016 nan
6.150919 -2.5432463 2.0819016 -3.0620181e+38
6.1354895 -2.5290003 2.0754817 -2.6895222e+38
6.1319752 -2.5328407 2.0754817 -2.8223924e+38
6.3489742 -2.4971495 2.1115942 nan
6.3452854 -2.5011811 2.1115942 nan
6.3269296 -2.4856894 2.1043026 nan
6.3379073 -2.5092447 2.1115942 nan
6.3196135 -2.4936852 2.1043026 -3.3955794e+38
6.2772245 -2.4718695 2.0903273 -3.1828502e+38
6.2736254 -2.4758027 2.0903273 -3.1295257e+38
6.2700262 -2.4797361 2.0903273 -3.1027858e+38
6.2532377 -2.4654946 2.0836437 -3.0760978e+38
6.2496667 -2.4693971 2.0836437 -3.0758905e+38
6.2460961 -2.4732995 2.0836437 -3.0625457e+38
6.2425251 -2.4772019 2.0836437 -3.0625453e+38
6.2389545 -2.4811044 2.0836437 -3.0625447e+38
6.2217426 -2.4658442 2.0766559 -3.062596e+38
6.2182012 -2.4697144 2.0766559 -3.0625958e+38
6.2146602 -2.4735844 2.0766559 -3.0891801e+38
6.2111187 -2.4774544 2.0766559 -3.1023171e+38
6.1952305 -2.4637103 2.070276 -3.1155059e+38
6.2040367 -2.4851947 2.0766559 -3.1287467e+38
6.2004957 -2.4890647 2.0766559 -3.1817087e+38
6.1969543 -2.4929349 2.0766559 -3.2356051e+38
6.1811738 -2.4790726 2.070276 -3.3692033e+38
6.1776595 -2.4829133 2.070276 nan
6.1863308 -2.5045452 2.0766559 nan
6.1827898 -2.5084152 2.0766559 nan
6.1792483 -2.5122855 2.0766559 nan
6.1757073 -2.5161555 2.0766559 nan
6.1721659 -2.5200255 2.0766559 nan
6.1818228 -2.5435431 2.0836437 nan
6.1782522 -2.5474453 2.0836437 -3.3287519e+38
6.1746812 -2.5513477 2.0836437 -3.0101031e+38
6.1580014 -2.535506 2.0766559 -3.0364824e+38
6.15446 -2.539376 2.0766559 -3.0626457e+38
6.1390038 -2.5251596 2.070276 -2.8486133e+38
6.1354895 -2.5290003 2.070276 -2.6227488e+38
6.3342457 -2.4776933 2.0988836 nan
6.3305879 -2.4816914 2.0988836 nan
6.3269296 -2.4856894 2.0988836 nan
6.3232713 -2.4896874 2.0988836 nan
6.3056169 -2.4749107 2.0919399 -3.3822342e+38
6.3019881 -2.4788764 2.0919399 -3.3289608e+38
6.2844224 -2.4640026 2.084996 -3.2626027e+38
6.2808232 -2.467936 2.084996 -3.2093818e+38
6.2772245 -2.4718695 2.084996 -3.1826936e+38
6.2736254 -2.4758027 2.084996 -3.1427135e+38
6.2700262 -2.4797361 2.084996 -3.1159738e+38
6.2532377 -2.4654946 2.0783541 -3.0892343e+38
6.2496667 -2.4693971 2.0783541 -3.089183e+38
6.2460961 -2.4732995 2.0783541 -3.0891304e+38
6.2425251 -2.4772019 2.0783541 -3.0890777e+38
6.2389545 -2.4811044 2.0783541 -3.0890769e+38
6.235384 -2.4850068 2.0783541 -3.1024201e+38
6.2182012 -2.4697144 2.0714102 -3.1156604e+38
6.2146602 -2.4735844 2.0714102 -3.1289525e+38
6.2111187 -2.4774544 2.0714102 -3.1420375e+38
6.1952305 -2.4637103 2.0650702 -3.1420377e+38
6.2040367 -2.4851947 2.0714102 -3.1552266e+38
6.2004957 -2.4890647 2.0714102 -3.2086038e+38
6.1846876 -2.4752321 2.0650702 -3.2488447e+38
6.1811738 -2.4790726 2.0650702 -3.3420989e+38
6.1776595 -2.4829133 2.0650702 nan
6.1863308 -2.5045452 2.0714102 nan
6.1827898 -2.5084152 2.0714102 nan
6.1792483 -2.5122855 2.0714102 nan
6.1757073 -2.5161555 2.0714102 nan
6.1853933 -2.5396404 2.0783541 nan
6.1818228 -2.5435431 2.0783541 nan
6.1782522 -2.5474453 2.0783541 -3.3018475e+38
6.1746812 -2.5513477 2.0783541 -3.1684618e+38
6.1711102 -2.5552502 2.0783541 -3.2488429e+38
6.1675396 -2.5591526 2.0783541 -3.341573e+38
6.163969 -2.563055 2.0783541 -3.074996e+38
6.147378 -2.5471163 2.0714102 -2.8220805e+38
6.3342457 -2.4776933 2.0934646 nan
6.3305879 -2.4816914 2.0934646 nan
6.3128738 -2.4669793 2.0865645 nan
6.3232713 -2.4896874 2.0934646 nan
6.3056169 -2.4749107 2.0865645 -3.3822865e+38
6.2880216 -2.4600694 2.0796645 -3.3157726e+38
6.2844224 -2.4640026 2.0796645 -3.262655e+38
6.2808232 -2.467936 2.0796645 -3.1960378e+38
6.2772245 -2.4718695 2.0796645 -3.18259e+38
6.2736254 -2.4758027 2.0796645 -3.15585e+38
6.2700262 -2.4797361 2.0796645 -3.1291103e+38
6.2532377 -2.4654946 2.0730646 -3.0892337e+38
6.2496667 -2.4693971 2.0730646 -3.1024744e+38
6.2460961 -2.4732995 2.0730646 -3.1156621e+38
6.2425251 -2.4772019 2.0730646 -3.1156093e+38
6.2389545 -2.4811044 2.0730646 -3.1157126e+38
6.235384 -2.4850068 2.0730646 -3.1422448e+38
6.2182012 -2.4697144 2.0661645 -3.1555371e+38
6.2146602 -2.4735844 2.0661645 -3.1688294e+38
6.2111187 -2.4774544 2.0661645 -3.1687255e+38
6.2075777 -2.4813247 2.0661645 -3.1819659e+38
6.2040367 -2.4851947 2.0661645 -3.1819661e+38
6.2004957 -2.4890647 2.0661645 -3.2219991e+38
6.1969543 -2.4929349 2.0661645 -3.2620321e+38
6.1811738 -2.4790726 2.0598645 -3.3284422e+38
6.1776595 -2.4829133 2.0598645 -3.3820273e+38
6.1863308 -2.5045452 2.0661645 nan
6.1827898 -2.5084152 2.0661645 nan
6.1792483 -2.5122855 2.0661645 nan
6.1757073 -2.5161555 2.0661645 nan
6.1853933 -2.5396404 2.0730646 -3.3945338e+38
6.1818228 -2.5435431 2.0730646 -3.2218894e+38
6.1782522 -2.5474453 2.0730646 -3.2747985e+38
6.1872482 -2.5702026 2.0796645 -3.3151459e+38
6.1711102 -2.5552502 2.0730646 nan
6.1800504 -2.5780692 2.0796645 nan
6.163969 -2.563055 2.0730646 -3.3143127e+38
6.1603985 -2.5669575 2.0730646 -3.009477e+38
6.3305879 -2.4816914 2.0880456 nan
6.3128738 -2.4669793 2.0811892 nan
6.3092451 -2.4709449 2.0811892 nan
6.3056169 -2.4749107 2.0811892 -3.3824427e+38
6.2880216 -2.4600694 2.0743332 -3.3422537e+38
6.2844224 -2.4640026 2.0743332 -3.2757917e+38
6.2808232 -2.467936 2.0743332 -3.2091745e+38
6.2772245 -2.4718695 2.0743332 -3.1559016e+38
6.2736254 -2.4758027 2.0743332 -3.1158174e+38
6.2568083 -2.4615922 2.067775 -3.0758891e+38
6.2532377 -2.4654946 2.067775 -3.0360642e+38
6.2496667 -2.4693971 2.067775 -3.0624408e+38
6.2460961 -2.4732995 2.067775 -3.0757323e+38
6.2425251 -2.4772019 2.067775 -3.1158158e+38
6.2389545 -2.4811044 2.067775 -3.1556926e+38
6.235384 -2.4850068 2.067775 -3.1823291e+38
6.2182012 -2.4697144 2.0609188 -3.1954656e+38
6.2146602 -2.4735844 2.0609188 -3.1823291e+38
6.2111187 -2.4774544 2.0609188 -3.168777e+38
6.2075777 -2.4813247 2.0609188 -3.1685689e+38
6.2040367 -2.4851947 2.0609188 -3.1820172e+38
6.2004957 -2.4890647 2.0609188 -3.2087058e+38
6.1969543 -2.4929349 2.0609188 -3.2354465e+38
6.1811738 -2.4790726 2.0546589 -3.3287525e+38
6.1776595 -2.4829133 2.0546589 nan
6.1863308 -2.5045452 2.0609188 nan
6.1827898 -2.5084152 2.0609188 nan
6.1792483 -2.5122855 2.0609188 nan
6.1757073 -2.5161555 2.0609188 nan
6.1853933 -2.5396404 2.067775 nan
6.1818228 -2.5435431 2.067775 -3.1417219e+38
6.1782522 -2.5474453 2.067775 -3.1817551e+38
6.1872482 -2.5702026 2.0743332 -3.2088614e+38
6.1836495 -2.574136 2.0743332 nan
6.1800504 -2.5780692 2.0743332 nan
6.1764512 -2.5820026 2.0743332 nan
6.1603985 -2.5669575 2.067775 -3.3414791e+38
6.1692533 -2.5898693 2.0743332 nan
6.3305879 -2.4816914 2.0826263 nan
6.3128738 -2.4669793 2.075814 nan
6.3092451 -2.4709449 2.075814 -3.396099e+38
6.3056169 -2.4749107 2.075814 -3.3827029e+38
6.2880216 -2.4600694 2.0690017 -3.3557024e+38
6.2844224 -2.4640026 2.0690017 -3.2890846e+38
6.2808232 -2.467936 2.0690017 -3.2091747e+38
6.2772245 -2.4718695 2.0690017 -3.1425052e+38
6.2736254 -2.4758027 2.0690017 -3.0758365e+38
6.2700262 -2.4797361 2.0690017 -3.0358045e+38
6.2532377 -2.4654946 2.0624855 -2.9825304e+38
6.2496667 -2.4693971 2.0624855 -3.008906e+38
6.2460961 -2.4732995 2.0624855 -3.036166e+38
6.2425251 -2.4772019 2.0624855 -3.1162318e+38
6.2389545 -2.4811044 2.0624855 -3.1959847e+38
6.235384 -2.4850068 2.0624855 -3.2226203e+38
6.2318134 -2.4889092 2.0624855 -3.2358625e+38
6.2146602 -2.4735844 2.0556731 -3.2094877e+38
6.2111187 -2.4774544 2.0556731 -3.1688813e+38
6.2075777 -2.4813247 2.0556731 -3.1681519e+38
6.2040367 -2.4851947 2.0556731 -3.1686716e+38
6.2004957 -2.4890647 2.0556731 -3.1820162e+38
6.1969543 -2.4929349 2.0556731 -3.1955174e+38
6.1811738 -2.4790726 2.0494533 -3.3287531e+38
6.1776595 -2.4829133 2.0494533 nan
6.1863308 -2.5045452 2.0556731 nan
6.1827898 -2.5084152 2.0556731 nan
6.1792483 -2.5122855 2.0556731 nan
6.1757073 -2.5161555 2.0556731 nan
6.1721659 -2.5200255 2.0556731 nan
6.1818228 -2.5435431 2.0624855 -3.0617105e+38
6.1782522 -2.5474453 2.0624855 -3.0883475e+38
6.1746812 -2.5513477 2.0624855 -3.1024207e+38
6.1711102 -2.5552502 2.0624855 nan
6.1800504 -2.5780692 2.0690017 nan
6.1764512 -2.5820026 2.0690017 nan
6.1603985 -2.5669575 2.0624855 nan
6.1952353 -2.6296163 2.0826263 nan
6.3165026 -2.4630136 2.0704389 nan
6.3128738 -2.4669793 2.0704389 nan
6.3092451 -2.4709449 2.0704389 nan
6.2916203 -2.456136 2.0636702 -3.3959439e+38
6.2880216 -2.4600694 2.0636702 -3.2625012e+38
6.2844224 -2.4640026 2.0636702 -3.2625526e+38
6.2808232 -2.467936 2.0636702 -3.2490518e+38
6.2772245 -2.4718695 2.0636702 -3.1556933e+38
6.2603788 -2.4576898 2.0571959 -3.0624402e+38
6.2568083 -2.4615922 2.0571959 -3.168831e+38
6.2532377 -2.4654946 2.0571959 -3.287992e+38
6.2496667 -2.4693971 2.0571959 -3.328801e+38
6.2460961 -2.4732995 2.0571959 -3.3690952e+38
6.2425251 -2.4772019 2.0571959 -3.3825453e+38
6.2389545 -2.4811044 2.0571959 -3.3956283e+38
6.235384 -2.4850068 2.0571959 nan
6.2318134 -2.4889092 2.0571959 nan
6.2146602 -2.4735844 2.0504274 nan
6.2111187 -2.4774544 2.0504274 -3.3949026e+38
6.2075777 -2.4813247 2.0504274 -3.3816054e+38
6.2175303 -2.504519 2.0571959 -3.3684695e+38
6.2004957 -2.4890647 2.0504274 -3.3151452e+38
6.1969543 -2.4929349 2.0504274 -3.275167e+38
6.1811738 -2.4790726 2.0442474 nan
6.1776595 -2.4829133 2.0442474 nan
6.1863308 -2.5045452 2.0504274 nan
6.1827898 -2.5084152 2.0504274 nan
6.1792483 -2.5122855 2.0504274 nan
6.1757073 -2.5161555 2.0504274 nan
6.1721659 -2.5200255 2.0504274 nan
6.1818228 -2.5435431 2.0571959 -3.353883e+38
6.1782522 -2.5474453 2.0571959 -3.3409025e+38
6.1746812 -2.5513477 2.0571959 -3.3408007e+38
6.1711102 -2.5552502 2.0571959 nan
6.1675396 -2.5591526 2.0571959 nan
6.163969 -2.563055 2.0571959 nan
6.3165026 -2.4630136 2.0650635 nan
6.3128738 -2.4669793 2.0650635 nan
6.3092451 -2.4709449 2.0650635 nan
6.2916203 -2.456136 2.0583389 nan
6.2880216 -2.4600694 2.0583389 -3.1697662e+38
6.2844224 -2.4640026 2.0583389 -3.2361747e+38
6.2808232 -2.467936 2.0583389 -3.2887726e+38
6.2772245 -2.4718695 2.0583389 -3.1688304e+38
6.2603788 -2.4576898 2.0519066 -3.0494605e+38
6.2568083 -2.4615922 2.0519066 -3.3156706e+38
6.2532377 -2.4654946 2.0519066 nan
6.2496667 -2.4693971 2.0519066 nan
6.2460961 -2.4732995 2.0519066 nan
6.2425251 -2.4772019 2.0519066 nan
6.2389545 -2.4811044 2.0519066 nan
6.235384 -2.4850068 2.0519066 nan
6.2318134 -2.4889092 2.0519066 nan
6.2282424 -2.4928117 2.0519066 nan
6.2111187 -2.4774544 2.0451818 nan
6.2075777 -2.4813247 2.0451818 nan
6.2040367 -2.4851947 2.0451818 nan
6.2004957 -2.4890647 2.0451818 nan
6.1969543 -2.4929349 2.0451818 -3.3423555e+38
6.1811738 -2.4790726 2.0390418 nan
6.1776595 -2.4829133 2.0390418 nan
6.1863308 -2.5045452 2.0451818 nan
6.1827898 -2.5084152 2.0451818 nan
6.1792483 -2.5122855 2.0451818 nan
6.1757073 -2.5161555 2.0451818 nan
6.1721659 -2.5200255 2.0451818 nan
6.1818228 -2.5435431 2.0519066 nan
6.1782522 -2.5474453 2.0519066 nan
6.1746812 -2.5513477 2.0519066 nan
6.1836495 -2.574136 2.0583389 nan
6.1800504 -2.5780692 2.0583389 nan
6.1764512 -2.5820026 2.0583389 nan
6.1858726 -2.605777 2.0650635 nan
6.3165026 -2.4630136 2.0596883 nan
6.2988186 -2.4482694 2.0530074 nan
6.2952194 -2.4522028 2.0530074 nan
6.2916203 -2.456136 2.0530074 nan
6.2880216 -2.4600694 2.0530074 nan
6.2844224 -2.4640026 2.0530074 -3.3953695e+38
6.2808232 -2.467936 2.0530074 -3.2883571e+38
6.2772245 -2.4718695 2.0530074 -3.2752731e+38
6.2603788 -2.4576898 2.046617 -3.2622418e+38
6.2568083 -2.4615922 2.046617 nan
6.2532377 -2.4654946 2.046617 nan
6.2496667 -2.4693971 2.046617 nan
6.2460961 -2.4732995 2.046617 nan
6.2425251 -2.4772019 2.046617 nan
6.2389545 -2.4811044 2.046617 nan
6.235384 -2.4850068 2.046617 nan
6.2318134 -2.4889092 2.046617 nan
6.2282424 -2.4928117 2.046617 nan
6.2111187 -2.4774544 2.0399361 nan
6.2211008 -2.5006166 2.046617 nan
6.2040367 -2.4851947 2.0399361 nan
6.2004957 -2.4890647 2.0399361 nan
6.1846876 -2.4752321 2.0338359 nan
6.1811738 -2.4790726 2.0338359 nan
6.1776595 -2.4829133 2.0338359 nan
6.1863308 -2.5045452 2.0399361 nan
6.1827898 -2.5084152 2.0399361 nan
6.1671171 -2.4944348 2.0338359 nan
6.1757073 -2.5161555 2.0399361 nan
6.1721659 -2.5200255 2.0399361 nan
6.1818228 -2.5435431 2.046617 nan
6.1782522 -2.5474453 2.046617 nan
6.1872482 -2.5702026 2.0530074 nan
6.1836495 -2.574136 2.0530074 nan
6.1800504 -2.5780692 2.0530074 nan
6.1895013 -2.6018114 2.0596883 nan
6.1858726 -2.605777 2.0596883 nan
6.2988186 -2.4482694 2.0476761 nan
6.2952194 -2.4522028 2.0476761 nan
6.2916203 -2.456136 2.0476761 nan
6.2880216 -2.4600694 2.0476761 nan
6.2844224 -2.4640026 2.0476761 nan
6.2808232 -2.467936 2.0476761 -3.2753741e+38
6.2772245 -2.4718695 2.0476761 -3.368316e+38
6.2603788 -2.4576898 2.0413275 nan
6.2568083 -2.4615922 2.0413275 nan
6.2532377 -2.4654946 2.0413275 nan
6.2496667 -2.4693971 2.0413275 nan
6.2460961 -2.4732995 2.0413275 nan
6.2425251 -2.4772019 2.0413275 nan
6.2389545 -2.4811044 2.0413275 nan
6.235384 -2.4850068 2.0413275 nan
6.2318134 -2.4889092 2.0413275 nan
6.2282424 -2.4928117 2.0413275 nan
6.2111187 -2.4774544 2.0346904 nan
6.2211008 -2.5006166 2.0413275 nan
6.2040367 -2.4851947 2.0346904 nan
6.2004957 -2.4890647 2.0346904 nan
6.1969543 -2.4929349 2.0346904 nan
6.1811738 -2.4790726 2.0286303 nan
6.1776595 -2.4829133 2.0286303 nan
6.1863308 -2.5045452 2.0346904 nan
6.1827898 -2.5084152 2.0346904 nan
6.1671171 -2.4944348 2.0286303 nan
6.1757073 -2.5161555 2.0346904 nan
6.1721659 -2.5200255 2.0346904 nan
6.1818228 -2.5435431 2.0413275 nan
6.1908474 -2.5662694 2.0476761 nan
6.1872482 -2.5702026 2.0476761 nan
6.1836495 -2.574136 2.0476761 nan
6.1800504 -2.5780692 2.0476761 nan
6.1895013 -2.6018114 2.0543132 nan
6.1858726 -2.605777 2.0543132 nan
6.2952194 -2.4522028 2.0423446 nan
6.2916203 -2.456136 2.0423446 nan
6.2880216 -2.4600694 2.0423446 nan
6.2844224 -2.4640026 2.0423446 nan
6.2808232 -2.467936 2.0423446 nan
6.2772245 -2.4718695 2.0423446 nan
6.2736254 -2.4758027 2.0423446 nan
6.2700262 -2.4797361 2.0423446 nan
6.266427 -2.4836693 2.0423446 nan
6.2496667 -2.4693971 2.0360379 nan
6.2460961 -2.4732995 2.0360379 nan
6.2425251 -2.4772019 2.0360379 nan
6.2389545 -2.4811044 2.0360379 nan
6.235384 -2.4850068 2.0360379 nan
6.2318134 -2.4889092 2.0360379 nan
6.2282424 -2.4928117 2.0360379 nan
6.2246714 -2.4967141 2.0360379 nan
6.2211008 -2.5006166 2.0360379 nan
6.2040367 -2.4851947 2.0294445 nan
6.2004957 -2.4890647 2.0294445 nan
6.1969543 -2.4929349 2.0294445 nan
6.1811738 -2.4790726 2.0234246 nan
6.1776595 -2.4829133 2.0234246 nan
6.1863308 -2.5045452 2.0294445 nan
6.1827898 -2.5084152 2.0294445 nan
6.1792483 -2.5122855 2.0294445 nan
6.1757073 -2.5161555 2.0294445 nan
6.1721659 -2.5200255 2.0294445 nan
6.1818228 -2.5435431 2.0360379 nan
6.1908474 -2.5662694 2.0423446 nan
6.1872482 -2.5702026 2.0423446 nan
6.1836495 -2.574136 2.0423446 nan
6.19313 -2.5978458 2.0489378 nan
6.1895013 -2.6018114 2.0489378 nan
6.2916203 -2.456136 2.0370131 nan
6.3019881 -2.4788764 2.0435627 nan
6.2983594 -2.482842 2.0435627 nan
6.2947311 -2.4868076 2.0435627 nan
6.2911024 -2.4907732 2.0435627 nan
6.2736254 -2.4758027 2.0370131 nan
6.2700262 -2.4797361 2.0370131 nan
6.266427 -2.4836693 2.0370131 nan
6.2628279 -2.4876027 2.0370131 nan
6.2460961 -2.4732995 2.0307484 nan
6.2425251 -2.4772019 2.0307484 nan
6.2389545 -2.4811044 2.0307484 nan
6.235384 -2.4850068 2.0307484 nan
6.2318134 -2.4889092 2.0307484 nan
6.2282424 -2.4928117 2.0307484 nan
6.2246714 -2.4967141 2.0307484 nan
6.2211008 -2.5006166 2.0307484 nan
6.2175303 -2.504519 2.0307484 nan
6.2004957 -2.4890647 2.0241988 nan
6.1969543 -2.4929349 2.0241988 nan
6.1934128 -2.496805 2.0241988 nan
6.1776595 -2.4829133 2.0182188 nan
6.1996765 -2.5240309 2.0307484 nan
6.1827898 -2.5084152 2.0241988 nan
6.1792483 -2.5122855 2.0241988 nan
6.1757073 -2.5161555 2.0241988 nan
6.1853933 -2.5396404 2.0307484 nan
6.1818228 -2.5435431 2.0307484 nan
6.1908474 -2.5662694 2.0370131 nan
6.1872482 -2.5702026 2.0370131 nan
6.1836495 -2.574136 2.0370131 nan
6.1800504 -2.5780692 2.0370131 nan
6.1764512 -2.5820026 2.0370131 nan
6.3305292 -2.517308 2.0514817 nan
6.3122969 -2.5016813 2.044693 nan
6.2947311 -2.4868076 2.0381875 nan
6.2911024 -2.4907732 2.0381875 nan
6.2736254 -2.4758027 2.0316815 nan
6.2700262 -2.4797361 2.0316815 nan
6.266427 -2.4836693 2.0316815 nan
6.2628279 -2.4876027 2.0316815 nan
6.2460961 -2.4732995 2.0254588 nan
6.2425251 -2.4772019 2.0254588 nan
6.2389545 -2.4811044 2.0254588 nan
6.235384 -2.4850068 2.0254588 nan
6.2318134 -2.4889092 2.0254588 nan
6.2282424 -2.4928117 2.0254588 nan
6.2246714 -2.4967141 2.0254588 nan
6.2211008 -2.5006166 2.0254588 nan
6.2175303 -2.504519 2.0254588 nan
6.2139597 -2.5084212 2.0254588 nan
6.1969543 -2.4929349 2.0189531 nan
6.1934128 -2.496805 2.0189531 nan
6.1898718 -2.5006752 2.0189531 nan
6.1996765 -2.5240309 2.0254588 nan
6.196106 -2.5279334 2.0254588 nan
6.1925349 -2.5318358 2.0254588 nan
6.1889639 -2.5357382 2.0254588 nan
6.1853933 -2.5396404 2.0254588 nan
6.1818228 -2.5435431 2.0254588 nan
6.1908474 -2.5662694 2.0316815 nan
6.1872482 -2.5702026 2.0316815 nan
6.1836495 -2.574136 2.0316815 nan
6.1800504 -2.5780692 2.0316815 nan
6.1764512 -2.5820026 2.0316815 nan
6.3122969 -2.5016813 2.039274 nan
6.3086386 -2.5056791 2.039274 nan
6.2911024 -2.4907732 2.0328121 nan
6.2874737 -2.4947388 2.0328121 nan
6.2700262 -2.4797361 2.0263503 nan
6.266427 -2.4836693 2.0263503 nan
6.2628279 -2.4876027 2.0263503 nan
6.2592292 -2.4915361 2.0263503 nan
6.2425251 -2.4772019 2.0201693 nan
6.2389545 -2.4811044 2.0201693 nan
6.235384 -2.4850068 2.0201693 nan
6.2318134 -2.4889092 2.0201693 nan
6.2282424 -2.4928117 2.0201693 nan
6.2246714 -2.4967141 2.0201693 nan
6.2211008 -2.5006166 2.0201693 nan
6.2175303 -2.504519 2.0201693 nan
6.2004957 -2.4890647 2.0137074 nan
6.1969543 -2.4929349 2.0137074 nan
6.1934128 -2.496805 2.0137074 nan
6.1898718 -2.5006752 2.0137074 nan
6.1996765 -2.5240309 2.0201693 nan
6.196106 -2.5279334 2.0201693 nan
6.1925349 -2.5318358 2.0201693 nan
6.1889639 -2.5357382 2.0201693 nan
6.1853933 -2.5396404 2.0201693 nan
6.1818228 -2.5435431 2.0201693 nan
6.1908474 -2.5662694 2.0263503 nan
6.1872482 -2.5702026 2.0263503 nan
6.1836495 -2.574136 2.0263503 nan
6.1800504 -2.5780692 2.0263503 nan
6.1764512 -2.5820026 2.0263503 nan
6.1728525 -2.5859361 2.0263503 nan
6.3268404 -2.5213397 2.0405521 nan
6.3086386 -2.5056791 2.033855 nan
6.3049803 -2.5096772 2.033855 nan
6.2874737 -2.4947388 2.027437 nan
6.2700262 -2.4797361 2.0210187 nan
6.266427 -2.4836693 2.0210187 nan
6.2628279 -2.4876027 2.0210187 nan
6.2460961 -2.4732995 2.0148797 nan
6.2425251 -2.4772019 2.0148797 nan
6.2389545 -2.4811044 2.0148797 nan
6.235384 -2.4850068 2.0148797 nan
6.2318134 -2.4889092 2.0148797 nan
6.2282424 -2.4928117 2.0148797 nan
6.2246714 -2.4967141 2.0148797 nan
6.2211008 -2.5006166 2.0148797 nan
6.2175303 -2.504519 2.0148797 nan
6.2004957 -2.4890647 2.0084617 nan
6.1969543 -2.4929349 2.0084617 nan
6.1934128 -2.496805 2.0084617 nan
6.1898718 -2.5006752 2.0084617 nan
6.1996765 -2.5240309 2.0148797 nan
6.196106 -2.5279334 2.0148797 -3.3681614e+38
6.1925349 -2.5318358 2.0148797 nan
6.1889639 -2.5357382 2.0148797 nan
6.1853933 -2.5396404 2.0148797 nan
6.1818228 -2.5435431 2.0148797 nan
6.1908474 -2.5662694 2.0210187 nan
6.1872482 -2.5702026 2.0210187 nan
6.1836495 -2.574136 2.0210187 nan
6.1800504 -2.5780692 2.0210187 nan
6.1764512 -2.5820026 2.0210187 nan
6.3268404 -2.5213397 2.0350873 nan
6.3231511 -2.5253713 2.0350873 nan
6.3049803 -2.5096772 2.0284359 nan
6.3013225 -2.5136752 2.0284359 nan
6.2838449 -2.4987044 2.0220618 nan
6.266427 -2.4836693 2.0156875 nan
6.2628279 -2.4876027 2.0156875 nan
6.2592292 -2.4915361 2.0156875 nan
6.2425251 -2.4772019 2.0095901 nan
6.2389545 -2.4811044 2.0095901 nan
6.235384 -2.4850068 2.0095901 nan
6.2318134 -2.4889092 2.0095901 nan
6.2282424 -2.4928117 2.0095901 nan
6.2246714 -2.4967141 2.0095901 nan
6.2211008 -2.5006166 2.0095901 nan
6.2175303 -2.504519 2.0095901 nan
6.2139597 -2.5084212 2.0095901 nan
6.1969543 -2.4929349 2.003216 nan
6.2068176 -2.5162261 2.0095901 nan
6.1898718 -2.5006752 2.003216 nan
6.1996765 -2.5240309 2.0095901 nan
6.196106 -2.5279334 2.0095901 -3.155589e+38
6.2052436 -2.5505359 2.0156875 -3.1156611e+38
6.1889639 -2.5357382 2.0095901 -3.0765647e+38
6.1853933 -2.5396404 2.0095901 nan
6.1818228 -2.5435431 2.0095901 nan
6.1908474 -2.5662694 2.0156875 nan
6.1872482 -2.5702026 2.0156875 nan
6.1836495 -2.574136 2.0156875 nan
6.1800504 -2.5780692 2.0156875 nan
6.1764512 -2.5820026 2.0156875 nan
6.3268404 -2.5213397 2.0296226 nan
6.3231511 -2.5253713 2.0296226 nan
6.3194618 -2.529403 2.0296226 nan
6.3013225 -2.5136752 2.0230169 nan
6.2838449 -2.4987044 2.0166864 nan
6.266427 -2.4836693 2.0103559 nan
6.2628279 -2.4876027 2.0103559 nan
6.2592292 -2.4915361 2.0103559 nan
6.25563 -2.4954693 2.0103559 nan
6.2520313 -2.4994028 2.0103559 nan
6.235384 -2.4850068 2.0043006 nan
6.2318134 -2.4889092 2.0043006 nan
6.2282424 -2.4928117 2.0043006 nan
6.2246714 -2.4967141 2.0043006 nan
6.2211008 -2.5006166 2.0043006 nan
6.2175303 -2.504519 2.0043006 nan
6.2004957 -2.4890647 1.9979702 nan
6.1969543 -2.4929349 1.9979702 nan
6.1934128 -2.496805 1.9979702 nan
6.1898718 -2.5006752 1.9979702 nan
6.1996765 -2.5240309 2.0043006 nan
6.196106 -2.5279334 2.0043006 nan
6.2052436 -2.5505359 2.0103559 nan
6.2016444 -2.5544693 2.0103559 nan
6.1980457 -2.5584025 2.0103559 nan
6.1818228 -2.5435431 2.0043006 nan
6.1908474 -2.5662694 2.0103559 nan
