# .PCD v0.7 - Point Cloud Data file format
VERSION 0.7
FIELDS x y z rgb
SIZE 4 4 4 4
TYPE F F F F
COUNT 1 1 1 1
WIDTH 1091
HEIGHT 1
VIEWPOINT 0 0 0 1 0 0 0
POINTS 1091
DATA ascii
0.62776005 0.17784001 1.5960001 -2.142305e+38
0.63080007 0.17784001 1.5960001 -2.1556502e+38
0.63384002 0.17784001 1.5960001 -2.1823915e+38
0.63688004 0.17784001 1.5960001 -2.1960483e+38
0.63992006 0.17784001 1.5960001 -2.2498934e+38
0.64296007 0.17784001 1.5960001 -2.2896153e+38
0.64883339 0.17862001 1.603 -2.3159411e+38
0.6518867 0.17862001 1.603 -2.3426804e+38
0.65494007 0.17862001 1.603 -2.0631261e+38
0.66127717 0.17951144 1.6110001 -1.7833751e+38
0.66434574 0.17951144 1.6110001 -2.0378076e+38
0.66741431 0.17951144 1.6110001 -2.296027e+38
0.67048287 0.17951144 1.6110001 nan
0.6735515 0.17951144 1.6110001 nan
0.67662007 0.17951144 1.6110001 nan
0.43471813 0.21465334 1.8940001 -2.6494948e+38
0.43578002 0.21340668 1.8830001 -2.5437815e+38
0.43703336 0.21227334 1.8730001 -2.5837638e+38
0.44060099 0.21227334 1.8730001 -2.623484e+38
0.44179717 0.21114001 1.863 -2.5702101e+38
0.44534573 0.21114001 1.863 -2.5302799e+38
0.44889432 0.21114001 1.863 -2.5033822e+38
0.45001432 0.21000668 1.853 -2.4766412e+38
0.45354384 0.21000668 1.853 -2.4361924e+38
0.45460668 0.20887335 1.8430001 -2.4091395e+38
0.45811719 0.20887335 1.8430001 -2.3557098e+38
0.46162766 0.20887335 1.8430001 -2.3156249e+38
0.46261433 0.20774001 1.8330001 -2.2757476e+38
0.46610576 0.20774001 1.8330001 -2.2490586e+38
0.46959716 0.20774001 1.8330001 -2.2357655e+38
0.47308859 0.20774001 1.8330001 -2.222473e+38
0.47658002 0.20774001 1.8330001 -2.2091803e+38
0.48007146 0.20774001 1.8330001 -2.2092325e+38
0.48356289 0.20774001 1.8330001 -2.1958883e+38
0.48705432 0.20774001 1.8330001 -2.1958367e+38
0.49054575 0.20774001 1.8330001 -2.1825968e+38
0.49403718 0.20774001 1.8330001 -2.1694603e+38
0.49752861 0.20774001 1.8330001 -2.1827526e+38
0.50102001 0.20774001 1.8330001 -2.2093899e+38
0.50451148 0.20774001 1.8330001 -2.2626634e+38
0.50800288 0.20774001 1.8330001 -2.3292299e+38
0.51149434 0.20774001 1.8330001 -2.3824522e+38
0.51498574 0.20774001 1.8330001 -2.4490188e+38
0.5184772 0.20774001 1.8330001 -2.4889488e+38
0.5219686 0.20774001 1.8330001 -2.5289808e+38
0.52546 0.20774001 1.8330001 -2.1693098e+38
0.52895147 0.20774001 1.8330001 -1.8105813e+38
0.53244287 0.20774001 1.8330001 -2.7584422e+38
0.53593433 0.20774001 1.8330001 nan
0.53942573 0.20774001 1.8330001 nan
0.54291719 0.20774001 1.8330001 nan
0.54640859 0.20774001 1.8330001 nan
0.55593717 0.18428001 1.626 -3.1837933e+38
0.55903435 0.18428001 1.626 -3.1705016e+38
0.56213146 0.18428001 1.626 -3.1572576e+38
0.56522858 0.18428001 1.626 -3.0635328e+38
0.56832576 0.18428001 1.626 -2.9831035e+38
0.56861144 0.18337335 1.618 -2.9431742e+38
0.57169336 0.18337335 1.618 -2.9028298e+38
0.57477528 0.18337335 1.618 -2.8226604e+38
0.5778572 0.18337335 1.618 -2.7556272e+38
0.58093911 0.18337335 1.618 -2.7025092e+38
0.58149433 0.18258001 1.6110001 -2.6490796e+38
0.5845629 0.18258001 1.6110001 -2.5827211e+38
0.58763146 0.18258001 1.6110001 -2.5294479e+38
0.59070003 0.18258001 1.6110001 -2.4895707e+38
0.59082001 0.18167335 1.603 -2.4494851e+38
0.59387338 0.18167335 1.603 -2.4228995e+38
0.59692669 0.18167335 1.603 -2.4093988e+38
0.59998006 0.18167335 1.603 -2.3826574e+38
0.60303336 0.18167335 1.603 -2.3557098e+38
0.60608673 0.18167335 1.603 -2.3025411e+38
0.60914004 0.18167335 1.603 -2.2492162e+38
0.61219335 0.18167335 1.603 -2.2225278e+38
0.61256003 0.18088001 1.5960001 -2.1957868e+38
0.61560005 0.18088001 1.5960001 -2.1691498e+38
0.61864007 0.18088001 1.5960001 -2.155753e+38
0.62168002 0.18088001 1.5960001 -2.1424082e+38
0.62472004 0.18088001 1.5960001 -2.1290644e+38
0.62776005 0.18088001 1.5960001 -2.142253e+38
0.63080007 0.18088001 1.5960001 -2.15565e+38
0.63384002 0.18088001 1.5960001 -2.1690469e+38
0.63688004 0.18088001 1.5960001 -2.1827035e+38
0.63992006 0.18088001 1.5960001 -2.2228405e+38
0.64578003 0.18167335 1.603 -2.2627186e+38
0.64883339 0.18167335 1.603 -2.3027003e+38
0.6518867 0.18167335 1.603 -2.3428378e+38
0.65494007 0.18167335 1.603 -2.0627142e+38
0.66127717 0.18258001 1.6110001 -1.7696125e+38
0.66434574 0.18258001 1.6110001 -2.557391e+38
0.66741431 0.18258001 1.6110001 -3.3451257e+38
0.67048287 0.18258001 1.6110001 nan
0.6735515 0.18258001 1.6110001 nan
0.67662007 0.18258001 1.6110001 nan
0.43471813 0.21826097 1.8940001 -2.8745805e+38
0.43832573 0.21826097 1.8940001 -2.2907604e+38
0.4393667 0.21699335 1.8830001 -2.4374966e+38
0.44060099 0.21584097 1.8730001 -2.5702628e+38
0.4441686 0.21584097 1.8730001 -2.5435736e+38
0.44534573 0.21468858 1.863 -2.5167282e+38
0.44889432 0.21468858 1.863 -2.4899345e+38
0.45244288 0.21468858 1.863 -2.4628818e+38
0.45354384 0.2135362 1.853 -2.4358811e+38
0.45707336 0.2135362 1.853 -2.3957436e+38
0.45811719 0.21238382 1.8430001 -2.3556581e+38
0.46162766 0.21238382 1.8430001 -2.3023845e+38
0.46513814 0.21238382 1.8430001 -2.2890397e+38
0.46864861 0.21238382 1.8430001 -2.2624024e+38
0.47215909 0.21238382 1.8430001 -2.2357653e+38
0.47308859 0.21123144 1.8330001 -2.2092325e+38
0.47658002 0.21123144 1.8330001 -2.2225245e+38
0.48007146 0.21123144 1.8330001 -2.2224728e+38
0.48356289 0.21123144 1.8330001 -2.209129e+38
0.48705432 0.21123144 1.8330001 -2.1824929e+38
0.49054575 0.21123144 1.8330001 -2.2090779e+38
0.49403718 0.21123144 1.8330001 -2.2224221e+38
0.49752861 0.21123144 1.8330001 -2.2356625e+38
0.50102001 0.21123144 1.8330001 -2.2491628e+38
0.50451148 0.21123144 1.8330001 -2.2891959e+38
0.5055086 0.2101943 1.8240001 -2.3158334e+38
0.51149434 0.21123144 1.8330001 -2.3823477e+38
0.51498574 0.21123144 1.8330001 -2.4489148e+38
0.5184772 0.21123144 1.8330001 -2.5020338e+38
0.5219686 0.21123144 1.8330001 -2.5419086e+38
0.52546 0.21123144 1.8330001 -2.1688402e+38
0.52895147 0.21123144 1.8330001 -1.7846214e+38
0.53244287 0.21123144 1.8330001 -2.9993704e+38
0.53593433 0.21123144 1.8330001 nan
0.53942573 0.21123144 1.8330001 nan
0.54025149 0.2101943 1.8240001 nan
0.54372573 0.2101943 1.8240001 nan
0.55593717 0.18737715 1.626 -3.1840515e+38
0.55903435 0.18737715 1.626 -3.1709681e+38
0.56213146 0.18737715 1.626 -3.1438619e+38
0.56522858 0.18737715 1.626 -3.0769827e+38
0.56832576 0.18737715 1.626 -2.9968128e+38
0.57142287 0.18737715 1.626 -2.9833122e+38
0.57169336 0.18645525 1.618 -2.9696038e+38
0.57477528 0.18645525 1.618 -2.8756743e+38
0.5778572 0.18645525 1.618 -2.7694393e+38
0.58093911 0.18645525 1.618 -2.7161655e+38
0.58149433 0.18564859 1.6110001 -2.6626843e+38
0.5845629 0.18564859 1.6110001 -2.5961184e+38
0.58763146 0.18564859 1.6110001 -2.529553e+38
0.59070003 0.18564859 1.6110001 -2.5030201e+38
0.5937686 0.18564859 1.6110001 -2.4763828e+38
0.59387338 0.18472669 1.603 -2.4631934e+38
0.59990573 0.18564859 1.6110001 -2.449433e+38
0.6029743 0.18564859 1.6110001 -2.4093994e+38
0.60604292 0.18564859 1.6110001 -2.3559702e+38
0.60608673 0.18472669 1.603 -2.302749e+38
0.60914004 0.18472669 1.603 -2.2359754e+38
0.61219335 0.18472669 1.603 -2.2225787e+38
0.61524671 0.18472669 1.603 -2.1957858e+38
0.61830002 0.18472669 1.603 -2.1823372e+38
0.62135339 0.18472669 1.603 -2.1557005e+38
0.62168002 0.18392001 1.5960001 -2.1422522e+38
0.62472004 0.18392001 1.5960001 -2.1288046e+38
0.62776005 0.18392001 1.5960001 -2.1419934e+38
0.63080007 0.18392001 1.5960001 -2.1553902e+38
0.63662004 0.18472669 1.603 -2.1554948e+38
0.63688004 0.18392001 1.5960001 -2.1559106e+38
0.63992006 0.18392001 1.5960001 -2.1960477e+38
0.64578003 0.18472669 1.603 -2.236029e+38
0.64883339 0.18472669 1.603 -2.2893545e+38
0.6518867 0.18472669 1.603 -2.3422642e+38
0.65494007 0.18472669 1.603 -2.0487436e+38
0.66127717 0.18564859 1.6110001 -1.7570994e+38
0.66434574 0.18564859 1.6110001 -3.0769886e+38
0.66741431 0.18564859 1.6110001 nan
0.67048287 0.18564859 1.6110001 nan
0.67647815 0.18645525 1.618 nan
0.67662007 0.18564859 1.6110001 nan
0.67968863 0.18564859 1.6110001 nan
0.43338668 0.22304001 1.904 -3.3567467e+38
0.43701336 0.22304001 1.904 -2.8892741e+38
0.44064003 0.22304001 1.904 -2.4104944e+38
0.44193336 0.22186859 1.8940001 -2.4905097e+38
0.44295335 0.22058001 1.8830001 -2.5835032e+38
0.4441686 0.21940859 1.8730001 -2.543314e+38
0.44773623 0.21940859 1.8730001 -2.516313e+38
0.44889432 0.21823716 1.863 -2.4895195e+38
0.45244288 0.21823716 1.863 -2.4624147e+38
0.45354384 0.21706572 1.853 -2.422433e+38
0.45707336 0.21706572 1.853 -2.3955361e+38
0.45811719 0.2158943 1.8430001 -2.3423141e+38
0.46162766 0.2158943 1.8430001 -2.3022807e+38
0.46513814 0.2158943 1.8430001 -2.2624028e+38
0.46864861 0.2158943 1.8430001 -2.2357657e+38
0.47215909 0.2158943 1.8430001 -2.2092325e+38
0.47566956 0.2158943 1.8430001 -2.1826996e+38
0.47658002 0.21472287 1.8330001 -2.1826475e+38
0.48007146 0.21472287 1.8330001 -2.1958365e+38
0.48356289 0.21472287 1.8330001 -2.1824929e+38
0.48705432 0.21472287 1.8330001 -2.1824414e+38
0.49054575 0.21472287 1.8330001 -2.1957858e+38
0.49403718 0.21472287 1.8330001 -2.2223185e+38
0.49752861 0.21472287 1.8330001 -2.2357146e+38
0.50102001 0.21472287 1.8330001 -2.2491109e+38
0.50451148 0.21472287 1.8330001 -2.2890918e+38
0.50800288 0.21472287 1.8330001 -2.3290214e+38
0.51149434 0.21472287 1.8330001 -2.3823471e+38
0.51498574 0.21472287 1.8330001 -2.4223819e+38
0.5184772 0.21472287 1.8330001 -2.4490726e+38
0.5219686 0.21472287 1.8330001 -2.4760173e+38
0.52546 0.21472287 1.8330001 -2.1149937e+38
0.52895147 0.21472287 1.8330001 -1.7547154e+38
0.53244287 0.21472287 1.8330001 -3.1985524e+38
0.53593433 0.21472287 1.8330001 nan
0.53942573 0.21472287 1.8330001 nan
0.54291719 0.21472287 1.8330001 nan
0.54640859 0.21472287 1.8330001 nan
0.5617848 0.19141144 1.6340001 -3.0378368e+38
0.56489718 0.19141144 1.6340001 -3.1967718e+38
0.56522858 0.1904743 1.626 -3.1169131e+38
0.56832576 0.1904743 1.626 -3.0236586e+38
0.57142287 0.1904743 1.626 -2.9837291e+38
0.57452005 0.1904743 1.626 -2.9304029e+38
0.57477528 0.18953715 1.618 -2.8367846e+38
0.5778572 0.18953715 1.618 -2.7568226e+38
0.58093911 0.18953715 1.618 -2.6898412e+38
0.58149433 0.18871716 1.6110001 -2.6362563e+38
0.5845629 0.18871716 1.6110001 -2.5828791e+38
0.58763146 0.18871716 1.6110001 -2.5162619e+38
0.59070003 0.18871716 1.6110001 -2.4896773e+38
0.5937686 0.18871716 1.6110001 -2.4632997e+38
0.59683716 0.18871716 1.6110001 -2.4495912e+38
0.59990573 0.18871716 1.6110001 -2.4359866e+38
0.6029743 0.18871716 1.6110001 -2.3959529e+38
0.60604292 0.18871716 1.6110001 -2.3560232e+38
0.60608673 0.18778001 1.603 -2.3024374e+38
0.61218005 0.18871716 1.6110001 -2.2491635e+38
0.61219335 0.18778001 1.603 -2.2091816e+38
0.61524671 0.18778001 1.603 -2.1824925e+38
0.61830002 0.18778001 1.603 -2.1557514e+38
0.62135339 0.18778001 1.603 -2.1290632e+38
0.6244067 0.18778001 1.603 -2.1288557e+38
0.62472004 0.18696001 1.5960001 -2.1285448e+38
0.62776005 0.18696001 1.5960001 -2.1419413e+38
0.63080007 0.18696001 1.5960001 -2.1418381e+38
0.63662004 0.18778001 1.603 -2.1289618e+38
0.63688004 0.18696001 1.5960001 -2.1293257e+38
0.63992006 0.18696001 1.5960001 -2.169151e+38
0.64296007 0.18696001 1.5960001 -2.2093396e+38
0.64883339 0.18778001 1.603 -2.2891971e+38
0.6518867 0.18778001 1.603 -2.3557617e+38
0.65494007 0.18778001 1.603 -2.1287018e+38
0.66127717 0.18871716 1.6110001 -1.9009786e+38
0.66434574 0.18871716 1.6110001 -2.5702766e+38
0.66741431 0.18871716 1.6110001 -3.2404015e+38
0.67048287 0.18871716 1.6110001 nan
0.67647815 0.18953715 1.618 nan
0.67662007 0.18871716 1.6110001 nan
0.43338668 0.22666669 1.904 -3.2497333e+38
0.43701336 0.22666669 1.904 -2.888654e+38
0.44064003 0.22666669 1.904 -2.5300746e+38
0.44193336 0.22547621 1.8940001 -2.5570233e+38
0.44295335 0.22416668 1.8830001 -2.5833474e+38
0.4441686 0.22297621 1.8730001 -2.5430542e+38
0.44773623 0.22297621 1.8730001 -2.5030205e+38
0.44889432 0.22178572 1.863 -2.4761751e+38
0.45244288 0.22178572 1.863 -2.4492782e+38
0.45354384 0.22059526 1.853 -2.422433e+38
0.45707336 0.22059526 1.853 -2.3822956e+38
0.45811719 0.21940477 1.8430001 -2.3423139e+38
0.46162766 0.21940477 1.8430001 -2.2889882e+38
0.46513814 0.21940477 1.8430001 -2.2490067e+38
0.46864861 0.21940477 1.8430001 -2.2091814e+38
0.47215909 0.21940477 1.8430001 -2.1826481e+38
0.47566956 0.21940477 1.8430001 -2.1560635e+38
0.47658002 0.2182143 1.8330001 -2.1560118e+38
0.48007146 0.2182143 1.8330001 -2.1559601e+38
0.48356289 0.2182143 1.8330001 -2.1691487e+38
0.48705432 0.2182143 1.8330001 -2.1692011e+38
0.49054575 0.2182143 1.8330001 -2.195786e+38
0.49403718 0.2182143 1.8330001 -2.2091304e+38
0.49752861 0.2182143 1.8330001 -2.2358191e+38
0.50102001 0.2182143 1.8330001 -2.2491113e+38
0.50451148 0.2182143 1.8330001 -2.3022287e+38
0.5055086 0.21714287 1.8240001 -2.3423139e+38
0.51149434 0.2182143 1.8330001 -2.3690031e+38
0.51498574 0.2182143 1.8330001 -2.3957964e+38
0.5184772 0.2182143 1.8330001 -2.3959012e+38
0.5219686 0.2182143 1.8330001 -2.3951723e+38
0.52546 0.2182143 1.8330001 -2.0604231e+38
0.52895147 0.2182143 1.8330001 -1.7311953e+38
0.53534764 0.21940477 1.8430001 nan
0.53885812 0.21940477 1.8430001 nan
0.54531145 0.22059526 1.853 nan
0.54291719 0.2182143 1.8330001 nan
0.54640859 0.2182143 1.8330001 nan
0.55903435 0.19357145 1.626 -2.9049122e+38
0.56213146 0.19357145 1.626 -3.2503038e+38
0.56522858 0.19357145 1.626 -3.1569463e+38
0.56832576 0.19357145 1.626 -3.0504517e+38
0.57142287 0.19357145 1.626 -2.9709049e+38
0.57169336 0.19261906 1.618 -2.8907344e+38
0.57477528 0.19261906 1.618 -2.8108233e+38
0.5778572 0.19261906 1.618 -2.73029e+38
0.58093911 0.19261906 1.618 -2.6767047e+38
0.58149433 0.19178572 1.6110001 -2.6096711e+38
0.5845629 0.19178572 1.6110001 -2.5561894e+38
0.58763146 0.19178572 1.6110001 -2.5028639e+38
0.59326673 0.19261906 1.618 -2.4761751e+38
0.5937686 0.19178572 1.6110001 -2.4494863e+38
0.59683716 0.19178572 1.6110001 -2.4358821e+38
0.59990573 0.19178572 1.6110001 -2.409141e+38
0.6029743 0.19178572 1.6110001 -2.3824517e+38
0.60604292 0.19178572 1.6110001 -2.3423656e+38
0.60911149 0.19178572 1.6110001 -2.3018123e+38
0.61218005 0.19178572 1.6110001 -2.248902e+38
0.61219335 0.19083335 1.603 -2.2090246e+38
0.61524671 0.19083335 1.603 -2.1690956e+38
0.61830002 0.19083335 1.603 -2.1291147e+38
0.62135339 0.19083335 1.603 -2.089134e+38
0.62168002 0.19000001 1.5960001 -2.1155107e+38
0.62472004 0.19000001 1.5960001 -2.1287515e+38
0.62776005 0.19000001 1.5960001 -2.1286997e+38
0.63080007 0.19000001 1.5960001 -2.1287005e+38
0.63384002 0.19000001 1.5960001 -2.1156689e+38
0.63688004 0.19000001 1.5960001 -2.089033e+38
0.63992006 0.19000001 1.5960001 -2.1419431e+38
0.64296007 0.19000001 1.5960001 -2.1825473e+38
0.64883339 0.19083335 1.603 -2.2757494e+38
0.6518867 0.19083335 1.603 -2.3690033e+38
0.65494007 0.19083335 1.603 -2.2092886e+38
0.66127717 0.19178572 1.6110001 -2.0492162e+38
0.66434574 0.19178572 1.6110001 -2.0759624e+38
0.66741431 0.19178572 1.6110001 -2.0938345e+38
0.67048287 0.19178572 1.6110001 nan
0.67647815 0.19261906 1.618 nan
0.67956007 0.19261906 1.618 nan
0.68264192 0.19261906 1.618 nan
0.43338668 0.23029335 1.904 -2.8764586e+38
0.43701336 0.23029335 1.904 -2.5695902e+38
0.44064003 0.23029335 1.904 -2.2773672e+38
0.44193336 0.22908382 1.8940001 -2.3971526e+38
0.44295335 0.22775334 1.8830001 -2.5167821e+38
0.4441686 0.22654383 1.8730001 -2.4899887e+38
0.44773623 0.22654383 1.8730001 -2.4631435e+38
0.44889432 0.2253343 1.863 -2.4495904e+38
0.45001432 0.22412477 1.853 -2.4359857e+38
0.45354384 0.22412477 1.853 -2.4091408e+38
0.45460668 0.22291525 1.8430001 -2.3822436e+38
0.45811719 0.22291525 1.8430001 -2.3422617e+38
0.46162766 0.22291525 1.8430001 -2.2888843e+38
0.46513814 0.22291525 1.8430001 -2.2491105e+38
0.46864861 0.22291525 1.8430001 -2.2225256e+38
0.47215909 0.22291525 1.8430001 -2.1826483e+38
0.47566956 0.22291525 1.8430001 -2.14272e+38
0.47658002 0.22170573 1.8330001 -2.1560124e+38
0.48007146 0.22170573 1.8330001 -2.1692528e+38
0.48356289 0.22170573 1.8330001 -2.1824929e+38
0.48705432 0.22170573 1.8330001 -2.1957858e+38
0.49054575 0.22170573 1.8330001 -2.2090785e+38
0.49403718 0.22170573 1.8330001 -2.2223712e+38
0.49752861 0.22170573 1.8330001 -2.2491119e+38
0.50102001 0.22170573 1.8330001 -2.2757484e+38
0.50451148 0.22170573 1.8330001 -2.3156251e+38
0.50800288 0.22170573 1.8330001 -2.3556064e+38
0.51149434 0.22170573 1.8330001 -2.3957434e+38
0.51498574 0.22170573 1.8330001 -2.4225357e+38
0.5184772 0.22170573 1.8330001 -2.4358277e+38
0.5219686 0.22170573 1.8330001 -2.4623079e+38
0.52832669 0.22291525 1.8430001 -2.1010789e+38
0.53183717 0.22291525 1.8430001 -1.7414773e+38
0.53534764 0.22291525 1.8430001 nan
0.54178196 0.22412477 1.853 nan
0.55119717 0.22654383 1.8730001 nan
0.55180287 0.2253343 1.863 nan
0.55535144 0.2253343 1.863 nan
0.55903435 0.19666858 1.626 -3.2092309e+38
0.56213146 0.19666858 1.626 -2.9450481e+38
0.56522858 0.19666858 1.626 -2.970855e+38
0.56832576 0.19666858 1.626 -2.9971793e+38
0.57142287 0.19666858 1.626 -2.9436981e+38
0.57452005 0.19666858 1.626 -2.9039232e+38
0.57477528 0.19570096 1.618 -2.7967005e+38
0.5778572 0.19570096 1.618 -2.7034458e+38
0.58093911 0.19570096 1.618 -2.6497045e+38
0.58149433 0.1948543 1.6110001 -2.5961186e+38
0.58710289 0.19570096 1.618 -2.5560844e+38
0.58763146 0.1948543 1.6110001 -2.5027066e+38
0.59070003 0.1948543 1.6110001 -2.4627247e+38
0.5937686 0.1948543 1.6110001 -2.4226403e+38
0.59683716 0.1948543 1.6110001 -2.3693154e+38
0.59990573 0.1948543 1.6110001 -2.3291265e+38
0.6029743 0.1948543 1.6110001 -2.3158853e+38
0.60303336 0.19388668 1.603 -2.3025391e+38
0.60608673 0.19388668 1.603 -2.2623486e+38
0.61218005 0.1948543 1.6110001 -2.23566e+38
0.61219335 0.19388668 1.603 -2.2089712e+38
0.61524671 0.19388668 1.603 -2.1822313e+38
0.61830002 0.19388668 1.603 -2.1423549e+38
0.62135339 0.19388668 1.603 -2.1023738e+38
0.6244067 0.19388668 1.603 -2.1023214e+38
0.62472004 0.19304001 1.5960001 -2.1023217e+38
0.62776005 0.19304001 1.5960001 -2.1154582e+38
0.63080007 0.19304001 1.5960001 -2.1418362e+38
0.63384002 0.19304001 1.5960001 -2.1288046e+38
0.63688004 0.19304001 1.5960001 -2.1285979e+38
0.63992006 0.19304001 1.5960001 -2.182339e+38
0.64296007 0.19304001 1.5960001 -2.2493202e+38
0.64883339 0.19388668 1.603 -2.2893535e+38
0.6518867 0.19388668 1.603 -2.3294394e+38
0.65494007 0.19388668 1.603 -2.1431412e+38
0.66127717 0.1948543 1.6110001 -1.9708099e+38
0.66434574 0.1948543 1.6110001 -1.9560129e+38
0.66741431 0.1948543 1.6110001 -1.9558192e+38
0.67339623 0.19570096 1.618 nan
0.67647815 0.19570096 1.618 nan
0.67956007 0.19570096 1.618 nan
0.68264192 0.19570096 1.618 nan
0.68911433 0.19666858 1.626 nan
0.42976004 0.23392001 1.904 nan
0.43338668 0.23392001 1.904 -2.4903047e+38
0.43701336 0.23392001 1.904 -2.2492217e+38
0.44064003 0.23392001 1.904 -2.0108441e+38
0.44193336 0.23269144 1.8940001 -2.2241964e+38
0.44060099 0.23011145 1.8730001 -2.4368719e+38
0.44179717 0.22888288 1.863 -2.4368711e+38
0.44534573 0.22888288 1.863 -2.4232662e+38
0.44889432 0.22888288 1.863 -2.4230573e+38
0.45001432 0.22765431 1.853 -2.4094527e+38
0.45354384 0.22765431 1.853 -2.3957959e+38
0.45460668 0.22642572 1.8430001 -2.3823471e+38
0.45811719 0.22642572 1.8430001 -2.3422098e+38
0.46162766 0.22642572 1.8430001 -2.2890401e+38
0.46513814 0.22642572 1.8430001 -2.262559e+38
0.46864861 0.22642572 1.8430001 -2.2225781e+38
0.47215909 0.22642572 1.8430001 -2.1826491e+38
0.47566956 0.22642572 1.8430001 -2.1294281e+38
0.47658002 0.22519715 1.8330001 -2.1559605e+38
0.48007146 0.22519715 1.8330001 -2.1824929e+38
0.48356289 0.22519715 1.8330001 -2.2090252e+38
0.48705432 0.22519715 1.8330001 -2.2223179e+38
0.49054575 0.22519715 1.8330001 -2.2223183e+38
0.49403718 0.22519715 1.8330001 -2.2224227e+38
0.49752861 0.22519715 1.8330001 -2.2624042e+38
0.50102001 0.22519715 1.8330001 -2.3023853e+38
0.50451148 0.22519715 1.8330001 -2.3422106e+38
0.50800288 0.22519715 1.8330001 -2.3690552e+38
0.51149434 0.22519715 1.8330001 -2.4091921e+38
0.51498574 0.22519715 1.8330001 -2.4492251e+38
0.5184772 0.22519715 1.8330001 -2.4891545e+38
0.5219686 0.22519715 1.8330001 -2.5148551e+38
0.52546 0.22519715 1.8330001 -2.1268855e+38
0.53183717 0.22642572 1.8430001 -1.7446448e+38
0.53825241 0.22765431 1.853 nan
0.54470575 0.22888288 1.863 nan
0.55119717 0.23011145 1.8730001 nan
0.55476481 0.23011145 1.8730001 nan
0.55833244 0.23011145 1.8730001 nan
0.56490004 0.23134002 1.8830001 nan
0.56489718 0.20074858 1.6340001 -2.6369329e+38
0.56800956 0.20074858 1.6340001 -2.7841363e+38
0.56832576 0.19976573 1.626 -2.929936e+38
0.57142287 0.19976573 1.626 -2.915969e+38
0.57452005 0.19976573 1.626 -2.9025712e+38
0.57761717 0.19976573 1.626 -2.7818489e+38
0.5778572 0.19878288 1.618 -2.6627366e+38
0.58093911 0.19878288 1.618 -2.6225993e+38
0.58402097 0.19878288 1.618 -2.5826696e+38
0.58710289 0.19878288 1.618 -2.5426881e+38
0.59018481 0.19878288 1.618 -2.5026544e+38
0.59326673 0.19878288 1.618 -2.4492766e+38
0.5937686 0.19792287 1.6110001 -2.3827114e+38
0.59683716 0.19792287 1.6110001 -2.3161461e+38
0.59990573 0.19792287 1.6110001 -2.249476e+38
0.6029743 0.19792287 1.6110001 -2.2493194e+38
0.60303336 0.19694002 1.603 -2.2492657e+38
0.60608673 0.19694002 1.603 -2.2358675e+38
0.60914004 0.19694002 1.603 -2.2224718e+38
0.61219335 0.19694002 1.603 -2.209024e+38
0.61524671 0.19694002 1.603 -2.1823358e+38
0.61830002 0.19694002 1.603 -2.1424072e+38
0.62135339 0.19694002 1.603 -2.1024265e+38
0.62168002 0.19608001 1.5960001 -2.0891342e+38
0.62472004 0.19608001 1.5960001 -2.0757381e+38
0.62776005 0.19608001 1.5960001 -2.1155111e+38
0.63080007 0.19608001 1.5960001 -2.1421484e+38
0.63384002 0.19608001 1.5960001 -2.1557013e+38
0.63688004 0.19608001 1.5960001 -2.155806e+38
0.63992006 0.19608001 1.5960001 -2.2361316e+38
0.64296007 0.19608001 1.5960001 -2.3026977e+38
0.64883339 0.19694002 1.603 -2.2896139e+38
0.6518867 0.19694002 1.603 -2.2761151e+38
0.65494007 0.19694002 1.603 -2.0896612e+38
0.65799338 0.19694002 1.603 -1.8900174e+38
0.66434574 0.19792287 1.6110001 -1.8481157e+38
0.66741431 0.19792287 1.6110001 -1.8117321e+38
0.67048287 0.19792287 1.6110001 nan
0.67647815 0.19878288 1.618 nan
0.67956007 0.19878288 1.618 nan
0.68264192 0.19878288 1.618 nan
0.68911433 0.19976573 1.626 nan
0.43338668 0.23754668 1.904 -2.1558658e+38
0.43701336 0.23754668 1.904 -2.0897105e+38
0.44064003 0.23754668 1.904 -2.036907e+38
0.44193336 0.23629907 1.8940001 -2.2237281e+38
0.44060099 0.23367906 1.8730001 -2.410079e+38
0.44179717 0.23243144 1.863 -2.4099746e+38
0.44534573 0.23243144 1.863 -2.4098178e+38
0.44889432 0.23243144 1.863 -2.3963685e+38
0.45001432 0.23118383 1.853 -2.3828675e+38
0.45354384 0.23118383 1.853 -2.3693665e+38
0.45707336 0.23118383 1.853 -2.3559698e+38
0.45811719 0.22993621 1.8430001 -2.3158328e+38
0.46162766 0.22993621 1.8430001 -2.2890922e+38
0.46513814 0.22993621 1.8430001 -2.2625073e+38
0.46864861 0.22993621 1.8430001 -2.2224748e+38
0.47215909 0.22993621 1.8430001 -2.1958903e+38
0.47566956 0.22993621 1.8430001 -2.1692534e+38
0.47918004 0.22993621 1.8430001 -2.1825451e+38
0.48269051 0.22993621 1.8430001 -2.1824927e+38
0.48620099 0.22993621 1.8430001 -2.2090248e+38
0.48705432 0.22868858 1.8330001 -2.2356095e+38
0.49054575 0.22868858 1.8330001 -2.2357136e+38
0.49403718 0.22868858 1.8330001 -2.2358184e+38
0.49752861 0.22868858 1.8330001 -2.2757482e+38
0.50102001 0.22868858 1.8330001 -2.3157818e+38
0.50451148 0.22868858 1.8330001 -2.3424191e+38
0.50800288 0.22868858 1.8330001 -2.3692118e+38
0.51149434 0.22868858 1.8330001 -2.4092446e+38
0.51498574 0.22868858 1.8330001 -2.4493821e+38
0.5184772 0.22868858 1.8330001 -2.4758638e+38
0.52481622 0.22993621 1.8430001 -2.5025506e+38
0.52832669 0.22993621 1.8430001 -2.1415803e+38
0.53472286 0.23118383 1.853 -1.7682182e+38
0.53825241 0.23118383 1.853 nan
0.54470575 0.23243144 1.863 nan
0.55119717 0.23367906 1.8730001 nan
0.55476481 0.23367906 1.8730001 nan
0.56131339 0.23492669 1.8830001 nan
0.56490004 0.23492669 1.8830001 nan
0.56731719 0.2047343 1.641 -2.5160001e+38
0.56800956 0.20386097 1.6340001 -2.7700097e+38
0.57112193 0.20386097 1.6340001 -3.0091677e+38
0.57423431 0.20386097 1.6340001 -2.9558953e+38
0.57452005 0.20286287 1.626 -2.8888098e+38
0.57761717 0.20286287 1.626 -2.7957626e+38
0.58071434 0.20286287 1.626 -2.689164e+38
0.58093911 0.20186478 1.618 -2.6492861e+38
0.58402097 0.20186478 1.618 -2.6090975e+38
0.58710289 0.20186478 1.618 -2.5692203e+38
0.59018481 0.20186478 1.618 -2.5291349e+38
0.59326673 0.20186478 1.618 -2.4759648e+38
0.59634858 0.20186478 1.618 -2.4092438e+38
0.59683716 0.20099144 1.6110001 -2.3427303e+38
0.59990573 0.20099144 1.6110001 -2.2893005e+38
0.6029743 0.20099144 1.6110001 -2.2759034e+38
0.60604292 0.20099144 1.6110001 -2.2757977e+38
0.60608673 0.19999334 1.603 -2.2491594e+38
0.60914004 0.19999334 1.603 -2.2225239e+38
0.61219335 0.19999334 1.603 -2.1958363e+38
0.61524671 0.19999334 1.603 -2.1691479e+38
0.61830002 0.19999334 1.603 -2.1291672e+38
0.62135339 0.19999334 1.603 -2.0758428e+38
0.62168002 0.19912001 1.5960001 -2.0624988e+38
0.62472004 0.19912001 1.5960001 -2.0358104e+38
0.62776005 0.19912001 1.5960001 -2.0757389e+38
0.63080007 0.19912001 1.5960001 -2.1024281e+38
0.63384002 0.19912001 1.5960001 -2.1290135e+38
0.63688004 0.19912001 1.5960001 -2.1691508e+38
0.63992006 0.19912001 1.5960001 -2.2225282e+38
0.64296007 0.19912001 1.5960001 -2.2761137e+38
0.64883339 0.19999334 1.603 -2.2761147e+38
0.6518867 0.19999334 1.603 -2.2628237e+38
0.65494007 0.19999334 1.603 -2.2097075e+38
0.66127717 0.20099144 1.6110001 -2.1432974e+38
0.66434574 0.20099144 1.6110001 -1.9688354e+38
0.66741431 0.20099144 1.6110001 -1.7958948e+38
0.67339623 0.20186478 1.618 nan
0.67647815 0.20186478 1.618 nan
0.67956007 0.20186478 1.618 nan
0.68264192 0.20186478 1.618 nan
0.68572384 0.20186478 1.618 nan
0.42976004 0.24117334 1.904 -3.1822295e+38
0.43338668 0.24117334 1.904 -1.8237655e+38
0.43701336 0.24117334 1.904 -1.9434962e+38
0.44064003 0.24117334 1.904 -2.050511e+38
0.44193336 0.23990668 1.8940001 -2.2237277e+38
0.44295335 0.23851335 1.8830001 -2.3832344e+38
0.4441686 0.23724668 1.8730001 -2.3830261e+38
0.44773623 0.23724668 1.8730001 -2.3830249e+38
0.44889432 0.23598002 1.863 -2.3696276e+38
0.45244288 0.23598002 1.863 -2.3429901e+38
0.45354384 0.23471335 1.853 -2.3295929e+38
0.45707336 0.23471335 1.853 -2.3161441e+38
0.45811719 0.23344669 1.8430001 -2.3026433e+38
0.46162766 0.23344669 1.8430001 -2.2891953e+38
0.46513814 0.23344669 1.8430001 -2.2625588e+38
0.46864861 0.23344669 1.8430001 -2.2225783e+38
0.47215909 0.23344669 1.8430001 -2.2225266e+38
0.47566956 0.23344669 1.8430001 -2.209182e+38
0.47918004 0.23344669 1.8430001 -2.1958374e+38
0.48269051 0.23344669 1.8430001 -2.1824927e+38
0.48620099 0.23344669 1.8430001 -2.2090252e+38
0.48971146 0.23344669 1.8430001 -2.2357136e+38
0.49054575 0.23218001 1.8330001 -2.2358694e+38
0.49403718 0.23218001 1.8330001 -2.2358698e+38
0.49752861 0.23218001 1.8330001 -2.275747e+38
0.50102001 0.23218001 1.8330001 -2.3157287e+38
0.50451148 0.23218001 1.8330001 -2.3423664e+38
0.50800288 0.23218001 1.8330001 -2.3558672e+38
0.51149434 0.23218001 1.8330001 -2.3959525e+38
0.51498574 0.23218001 1.8330001 -2.4358823e+38
0.52130574 0.23344669 1.8430001 -2.4622604e+38
0.52481622 0.23344669 1.8430001 -2.4888443e+38
0.52832669 0.23344669 1.8430001 -2.1421021e+38
0.53472286 0.23471335 1.853 -1.798698e+38
0.53825241 0.23471335 1.853 nan
0.54762954 0.23724668 1.8730001 nan
0.55119717 0.23724668 1.8730001 nan
0.55476481 0.23724668 1.8730001 nan
0.55833244 0.23724668 1.8730001 nan
0.58740002 0.24801335 1.9580001 nan
0.59112954 0.24801335 1.9580001 nan
0.56731719 0.20786001 1.641 -2.3974139e+38
0.57044291 0.20786001 1.641 -2.744051e+38
0.57356858 0.20786001 1.641 -3.0894424e+38
0.57423431 0.20697334 1.6340001 -2.983052e+38
0.57734668 0.20697334 1.6340001 -2.8762457e+38
0.57761717 0.20596002 1.626 -2.7965429e+38
0.58071434 0.20596002 1.626 -2.7162694e+38
0.58381146 0.20596002 1.626 -2.6762881e+38
0.58402097 0.20494668 1.618 -2.6228084e+38
0.58710289 0.20494668 1.618 -2.5960172e+38
0.59018481 0.20494668 1.618 -2.5559818e+38
0.59326673 0.20494668 1.618 -2.5028617e+38
0.59634858 0.20494668 1.618 -2.4360356e+38
0.59683716 0.20406002 1.6110001 -2.3827615e+38
0.59990573 0.20406002 1.6110001 -2.3160394e+38
0.6029743 0.20406002 1.6110001 -2.3025384e+38
0.60604292 0.20406002 1.6110001 -2.2890892e+38
0.60608673 0.20304668 1.603 -2.2623998e+38
0.60914004 0.20304668 1.603 -2.2225235e+38
0.61219335 0.20304668 1.603 -2.1959398e+38
0.61524671 0.20304668 1.603 -2.1558559e+38
0.61830002 0.20304668 1.603 -2.1025835e+38
0.62135339 0.20304668 1.603 -2.0492067e+38
0.62168002 0.20216002 1.5960001 -2.0225185e+38
0.62472004 0.20216002 1.5960001 -1.9959339e+38
0.62776005 0.20216002 1.5960001 -2.0358108e+38
0.63080007 0.20216002 1.5960001 -2.0623959e+38
0.63384002 0.20216002 1.5960001 -2.1153578e+38
0.63688004 0.20216002 1.5960001 -2.1688392e+38
0.63992006 0.20216002 1.5960001 -2.208665e+38
0.64296007 0.20216002 1.5960001 -2.2492182e+38
0.64883339 0.20304668 1.603 -2.2492716e+38
0.6518867 0.20304668 1.603 -2.2497401e+38
0.65494007 0.20304668 1.603 -2.3298065e+38
0.65799338 0.20304668 1.603 -2.3955887e+38
0.66434574 0.20406002 1.6110001 -2.087941e+38
0.66741431 0.20406002 1.6110001 -1.7847802e+38
0.67339623 0.20494668 1.618 -3.4013157e+38
0.67647815 0.20494668 1.618 nan
0.67956007 0.20494668 1.618 nan
0.68264192 0.20494668 1.618 nan
0.68572384 0.20494668 1.618 nan
0.4322429 0.2462143 1.9150001 -3.3019089e+38
0.43338668 0.24480002 1.904 -1.7812913e+38
0.43701336 0.24480002 1.904 -2.0229911e+38
0.44064003 0.24480002 1.904 -2.263707e+38
0.4393667 0.24210002 1.8830001 -2.3167213e+38
0.44295335 0.24210002 1.8830001 -2.3831302e+38
0.4441686 0.2408143 1.8730001 -2.3697335e+38
0.44773623 0.2408143 1.8730001 -2.3563878e+38
0.44889432 0.23952858 1.863 -2.3430422e+38
0.45244288 0.23952858 1.863 -2.3163528e+38
0.45354384 0.23824288 1.853 -2.3029557e+38
0.45707336 0.23824288 1.853 -2.2896104e+38
0.45811719 0.23695716 1.8430001 -2.2893498e+38
0.46162766 0.23695716 1.8430001 -2.2759541e+38
0.46513814 0.23695716 1.8430001 -2.2625584e+38
0.46864861 0.23695716 1.8430001 -2.2358182e+38
0.47215909 0.23695716 1.8430001 -2.2358184e+38
0.47566956 0.23695716 1.8430001 -2.2357144e+38
0.47658002 0.23567145 1.8330001 -2.2091294e+38
0.48007146 0.23567145 1.8330001 -2.1957852e+38
0.48620099 0.23695716 1.8430001 -2.1958369e+38
0.48971146 0.23695716 1.8430001 -2.209129e+38
0.49322194 0.23695716 1.8430001 -2.2092327e+38
0.49673241 0.23695716 1.8430001 -2.2092844e+38
0.50024289 0.23695716 1.8430001 -2.2492129e+38
0.50375336 0.23695716 1.8430001 -2.3023835e+38
0.50726384 0.23695716 1.8430001 -2.3291252e+38
0.50800288 0.23567145 1.8330001 -2.3691071e+38
0.51428479 0.23695716 1.8430001 -2.4092448e+38
0.51779526 0.23695716 1.8430001 -2.4492267e+38
0.52130574 0.23695716 1.8430001 -2.4891048e+38
0.52481622 0.23695716 1.8430001 -2.5293976e+38
0.53119338 0.23824288 1.853 -2.1686893e+38
0.53472286 0.23824288 1.853 -1.7966741e+38
0.53825241 0.23824288 1.853 nan
0.54762954 0.2408143 1.8730001 nan
0.55119717 0.2408143 1.8730001 nan
0.55476481 0.2408143 1.8730001 nan
0.56131339 0.24210002 1.8830001 nan
0.58080006 0.2489143 1.9360001 nan
0.58448768 0.2489143 1.9360001 nan
0.5700829 0.2120143 1.649 -2.1295492e+38
0.57322383 0.2120143 1.649 -2.5439427e+38
0.57356858 0.21098574 1.641 -2.9568851e+38
0.57669431 0.21098574 1.641 -2.8900071e+38
0.57734668 0.21008573 1.6340001 -2.8233374e+38
0.57761717 0.20905715 1.626 -2.7832001e+38
0.58071434 0.20905715 1.626 -2.7429075e+38
0.58381146 0.20905715 1.626 -2.689738e+38
0.58402097 0.20802858 1.618 -2.6497078e+38
0.58710289 0.20802858 1.618 -2.6095738e+38
0.59018481 0.20802858 1.618 -2.5826209e+38
0.59326673 0.20802858 1.618 -2.529343e+38
0.59634858 0.20802858 1.618 -2.4759121e+38
0.59683716 0.20712858 1.6110001 -2.4093446e+38
0.59990573 0.20712858 1.6110001 -2.3559148e+38
0.59998006 0.20610002 1.603 -2.3291735e+38
0.60303336 0.20610002 1.603 -2.2889328e+38
0.60608673 0.20610002 1.603 -2.2491592e+38
0.60914004 0.20610002 1.603 -2.1959907e+38
0.60952002 0.20520002 1.5960001 -2.1825952e+38
0.61256003 0.20520002 1.5960001 -2.1690445e+38
0.61560005 0.20520002 1.5960001 -2.1025322e+38
0.61864007 0.20520002 1.5960001 -2.0490515e+38
0.62168002 0.20520002 1.5960001 -2.0359148e+38
0.62472004 0.20520002 1.5960001 -2.0358631e+38
0.62776005 0.20520002 1.5960001 -2.0359671e+38
0.63080007 0.20520002 1.5960001 -2.0491039e+38
0.63384002 0.20520002 1.5960001 -2.1156174e+38
0.63688004 0.20520002 1.5960001 -2.195424e+38
0.63992006 0.20520002 1.5960001 -2.2091325e+38
0.64296007 0.20520002 1.5960001 -2.2228939e+38
0.64600003 0.20520002 1.5960001 -2.1698824e+38
0.64904004 0.20520002 1.5960001 -2.1303704e+38
0.65494007 0.20610002 1.603 -2.2634502e+38
0.65799338 0.20610002 1.603 -2.4098652e+38
0.66434574 0.20712858 1.6110001 -2.0881947e+38
0.66410005 0.20610002 1.603 -1.768058e+38
0.67339623 0.20802858 1.618 -3.3182385e+38
0.6735515 0.20712858 1.6110001 nan
0.67662007 0.20712858 1.6110001 nan
0.67968863 0.20712858 1.6110001 nan
0.4322429 0.24986193 1.9150001 nan
0.4358905 0.24986193 1.9150001 -1.7297316e+38
0.43701336 0.24842668 1.904 -2.103368e+38
0.44064003 0.24842668 1.904 -2.4760719e+38
0.4393667 0.24568668 1.8830001 -2.4229555e+38
0.44295335 0.24568668 1.8830001 -2.3696819e+38
0.4441686 0.24438192 1.8730001 -2.3562852e+38
0.44534573 0.24307716 1.863 -2.3296994e+38
0.44889432 0.24307716 1.863 -2.3164059e+38
0.45244288 0.24307716 1.863 -2.2896646e+38
0.45599145 0.24307716 1.863 -2.2762155e+38
0.45707336 0.2417724 1.853 -2.2628188e+38
0.46060288 0.2417724 1.853 -2.2626103e+38
0.4641324 0.2417724 1.853 -2.2626103e+38
0.46513814 0.24046764 1.8430001 -2.2625584e+38
0.46864861 0.24046764 1.8430001 -2.2492142e+38
0.47215909 0.24046764 1.8430001 -2.2624545e+38
0.47566956 0.24046764 1.8430001 -2.2624026e+38
0.47918004 0.24046764 1.8430001 -2.2357659e+38
0.48007146 0.23916288 1.8330001 -2.1959931e+38
0.48620099 0.24046764 1.8430001 -2.1827008e+38
0.48971146 0.24046764 1.8430001 -2.1694086e+38
0.49322194 0.24046764 1.8430001 -2.1827008e+38
0.49673241 0.24046764 1.8430001 -2.1827526e+38
0.50024289 0.24046764 1.8430001 -2.2359215e+38
0.50375336 0.24046764 1.8430001 -2.2759034e+38
0.50726384 0.24046764 1.8430001 -2.3291258e+38
0.51077431 0.24046764 1.8430001 -2.3825558e+38
0.51428479 0.24046764 1.8430001 -2.4225898e+38
0.51779526 0.24046764 1.8430001 -2.4625717e+38
0.52413434 0.2417724 1.853 -2.5155342e+38
0.52766383 0.2417724 1.853 -2.5679737e+38
0.53119338 0.2417724 1.853 -2.1800546e+38
0.53760862 0.24307716 1.863 -1.7983847e+38
0.54115719 0.24307716 1.863 nan
0.54762954 0.24438192 1.8730001 nan
0.55119717 0.24438192 1.8730001 nan
0.55772668 0.24568668 1.8830001 nan
0.56131339 0.24568668 1.8830001 nan
0.5700829 0.21515526 1.649 -1.8643751e+38
0.57322383 0.21515526 1.649 -2.345181e+38
0.57636482 0.21515526 1.649 -2.8237023e+38
0.57950574 0.21515526 1.649 -2.7968056e+38
0.57982004 0.21411145 1.641 -2.7701685e+38
0.58045906 0.21319811 1.6340001 -2.7699604e+38
0.58071434 0.2121543 1.626 -2.7566153e+38
0.58381146 0.2121543 1.626 -2.7166341e+38
0.58690864 0.2121543 1.626 -2.6764986e+38
0.59000576 0.2121543 1.626 -2.6364672e+38
0.59018481 0.21111049 1.618 -2.5960156e+38
0.59326673 0.21111049 1.618 -2.5558755e+38
0.59634858 0.21111049 1.618 -2.5026009e+38
0.59683716 0.21019715 1.6110001 -2.4493263e+38
0.59990573 0.21019715 1.6110001 -2.3959491e+38
0.59998006 0.20915335 1.603 -2.3426757e+38
0.60303336 0.20915335 1.603 -2.289246e+38
0.60608673 0.20915335 1.603 -2.2359722e+38
0.60914004 0.20915335 1.603 -2.1694593e+38
0.60952002 0.20824002 1.5960001 -2.1693037e+38
0.61256003 0.20824002 1.5960001 -2.1692524e+38
0.61560005 0.20824002 1.5960001 -2.1160317e+38
0.61864007 0.20824002 1.5960001 -2.0495184e+38
0.62168002 0.20824002 1.5960001 -2.0628107e+38
0.62472004 0.20824002 1.5960001 -2.0628626e+38
0.62776005 0.20824002 1.5960001 -2.0496744e+38
0.63080007 0.20824002 1.5960001 -2.0361227e+38
0.63384002 0.20824002 1.5960001 -2.1291689e+38
0.63688004 0.20824002 1.5960001 -2.2090791e+38
0.63992006 0.20824002 1.5960001 -2.2094953e+38
0.64296007 0.20824002 1.5960001 -2.1962562e+38
0.64600003 0.20824002 1.5960001 -2.1034713e+38
0.6518867 0.20915335 1.603 -1.9972385e+38
0.65494007 0.20915335 1.603 -2.2102803e+38
0.65799338 0.20915335 1.603 -2.4086735e+38
0.66104668 0.20915335 1.603 -2.0737141e+38
0.66741431 0.21019715 1.6110001 -1.7440714e+38
0.67339623 0.21111049 1.618 -3.239002e+38
0.67647815 0.21111049 1.618 nan
0.67956007 0.21111049 1.618 nan
0.68264192 0.21111049 1.618 nan
0.68572384 0.21111049 1.618 nan
0.4322429 0.25350955 1.9150001 -3.3146812e+38
0.4358905 0.25350955 1.9150001 -1.7281219e+38
0.43953812 0.25350955 1.9150001 -2.1027969e+38
0.44064003 0.25205335 1.904 -2.4894159e+38
0.4393667 0.24927334 1.8830001 -2.4228513e+38
0.44295335 0.24927334 1.8830001 -2.3695258e+38
0.4441686 0.24794954 1.8730001 -2.3429406e+38
0.44773623 0.24794954 1.8730001 -2.3162514e+38
0.44889432 0.24662574 1.863 -2.2896139e+38
0.45244288 0.24662574 1.863 -2.2762167e+38
0.45599145 0.24662574 1.863 -2.2627677e+38
0.45954004 0.24662574 1.863 -2.2626634e+38
0.4630886 0.24662574 1.863 -2.2626111e+38
0.4641324 0.24530192 1.853 -2.2625588e+38
0.46513814 0.24397811 1.8430001 -2.2359738e+38
0.46864861 0.24397811 1.8430001 -2.2226294e+38
0.47215909 0.24397811 1.8430001 -2.2226292e+38
0.47566956 0.24397811 1.8430001 -2.2092852e+38
0.47918004 0.24397811 1.8430001 -2.1960448e+38
0.48269051 0.24397811 1.8430001 -2.196201e+38
0.48620099 0.24397811 1.8430001 -2.1960974e+38
0.48971146 0.24397811 1.8430001 -2.1961495e+38
0.49322194 0.24397811 1.8430001 -2.1960459e+38
0.49673241 0.24397811 1.8430001 -2.2093899e+38
0.50024289 0.24397811 1.8430001 -2.2492663e+38
0.50375336 0.24397811 1.8430001 -2.2893001e+38
0.50726384 0.24397811 1.8430001 -2.3160417e+38
0.51077431 0.24397811 1.8430001 -2.3429394e+38
0.5170753 0.24530192 1.853 -2.3962657e+38
0.52060479 0.24530192 1.853 -2.4362474e+38
0.52413434 0.24530192 1.853 -2.5023983e+38
0.52766383 0.24530192 1.853 -2.5683346e+38
0.53406006 0.24662574 1.863 -2.1680543e+38
0.53760862 0.24662574 1.863 -1.7823378e+38
0.54115719 0.24662574 1.863 nan
0.54470575 0.24662574 1.863 nan
0.55119717 0.24794954 1.8730001 nan
0.55476481 0.24794954 1.8730001 nan
0.55833244 0.24794954 1.8730001 nan
0.57284862 0.21935526 1.6570001 -1.8503527e+38
0.5760048 0.21935526 1.6570001 -2.3842263e+38
0.57636482 0.2182962 1.649 -2.9300922e+38
0.57950574 0.2182962 1.649 -2.8901633e+38
0.57982004 0.21723716 1.641 -2.8499745e+38
0.58045906 0.21631049 1.6340001 -2.8235972e+38
0.58357149 0.21631049 1.6340001 -2.8102003e+38
0.58381146 0.21525145 1.626 -2.7566667e+38
0.58690864 0.21525145 1.626 -2.703082e+38
0.59000576 0.21525145 1.626 -2.6496528e+38
0.59018481 0.21419239 1.618 -2.5957543e+38
0.59326673 0.21419239 1.618 -2.5427905e+38
0.59634858 0.21419239 1.618 -2.4894646e+38
0.59683716 0.21326573 1.6110001 -2.4495348e+38
0.59692669 0.21220668 1.603 -2.3960543e+38
0.59998006 0.21220668 1.603 -2.3294374e+38
0.60303336 0.21220668 1.603 -2.2760594e+38
0.60608673 0.21220668 1.603 -2.2227852e+38
0.60914004 0.21220668 1.603 -2.1828045e+38
0.61219335 0.21220668 1.603 -2.1827526e+38
0.61256003 0.21128002 1.5960001 -2.1960448e+38
0.61560005 0.21128002 1.5960001 -2.1428755e+38
0.61864007 0.21128002 1.5960001 -2.0898104e+38
0.62168002 0.21128002 1.5960001 -2.0630701e+38
0.62472004 0.21128002 1.5960001 -2.0365894e+38
0.62776005 0.21128002 1.5960001 -2.0230373e+38
0.63080007 0.21128002 1.5960001 -2.0229339e+38
0.63384002 0.21128002 1.5960001 -2.062759e+38
0.63688004 0.21128002 1.5960001 -2.1160328e+38
0.64272672 0.21220668 1.603 -2.1160853e+38
0.64296007 0.21128002 1.5960001 -2.1295342e+38
0.64883339 0.21220668 1.603 -2.1295867e+38
0.6518867 0.21220668 1.603 -2.1296928e+38
0.65494007 0.21220668 1.603 -2.2895139e+38
0.66127717 0.21326573 1.6110001 -2.4357799e+38
0.66434574 0.21326573 1.6110001 -2.1155697e+38
0.66741431 0.21326573 1.6110001 -1.796256e+38
0.67339623 0.21419239 1.618 -2.7715375e+38
0.6735515 0.21326573 1.6110001 nan
0.67956007 0.21419239 1.618 nan
0.68264192 0.21419239 1.618 nan
0.68572384 0.21419239 1.618 nan
0.68880576 0.21419239 1.618 nan
0.43450004 0.25850001 1.9250001 -3.2195565e+38
0.4358905 0.25715715 1.9150001 -1.7163342e+38
0.43701336 0.25568002 1.904 -2.1169193e+38
0.44064003 0.25568002 1.904 -2.5025518e+38
0.4393667 0.25286001 1.8830001 -2.436091e+38
0.44060099 0.25151715 1.8730001 -2.3562333e+38
0.4441686 0.25151715 1.8730001 -2.3297004e+38
0.44773623 0.25151715 1.8730001 -2.2896672e+38
0.45130384 0.25151715 1.8730001 -2.2762186e+38
0.45244288 0.25017431 1.863 -2.2494772e+38
0.45599145 0.25017431 1.863 -2.2492166e+38
0.45954004 0.25017431 1.863 -2.2492675e+38
0.4630886 0.25017431 1.863 -2.2492667e+38
0.4641324 0.24883145 1.853 -2.2492144e+38
0.46513814 0.24748859 1.8430001 -2.2226815e+38
0.46864861 0.24748859 1.8430001 -2.1960444e+38
0.47215909 0.24748859 1.8430001 -2.1827517e+38
0.47566956 0.24748859 1.8430001 -2.1561672e+38
0.47918004 0.24748859 1.8430001 -2.1694075e+38
0.48269051 0.24748859 1.8430001 -2.1827524e+38
0.48620099 0.24748859 1.8430001 -2.1960452e+38
0.48971146 0.24748859 1.8430001 -2.2093379e+38
0.49589813 0.24883145 1.853 -2.2225268e+38
0.49942765 0.24883145 1.853 -2.2226306e+38
0.50024289 0.24748859 1.8430001 -2.2625077e+38
0.50375336 0.24748859 1.8430001 -2.289249e+38
0.50726384 0.24748859 1.8430001 -2.3026979e+38
0.51077431 0.24748859 1.8430001 -2.3030625e+38
0.5170753 0.24883145 1.853 -2.3565963e+38
0.52060479 0.24883145 1.853 -2.4097145e+38
0.52413434 0.24883145 1.853 -2.4893656e+38
0.52766383 0.24883145 1.853 -2.5551989e+38
0.53406006 0.25017431 1.863 -2.1681083e+38
0.53760862 0.25017431 1.863 -1.7717468e+38
0.54115719 0.25017431 1.863 nan
0.54470575 0.25017431 1.863 nan
0.54825431 0.25017431 1.863 nan
0.55476481 0.25151715 1.8730001 nan
0.55833244 0.25151715 1.8730001 nan
0.56969243 0.22251144 1.6570001 -3.3631229e+38
0.57284862 0.22251144 1.6570001 -1.8371107e+38
0.5760048 0.22251144 1.6570001 -2.4379154e+38
0.57636482 0.22143716 1.649 -3.0231911e+38
0.57950574 0.22143716 1.649 -2.9836779e+38
0.57982004 0.22036287 1.641 -2.9303526e+38
0.58045906 0.21942288 1.6340001 -2.8908389e+38
0.58071434 0.21834859 1.626 -2.8502858e+38
0.58381146 0.21834859 1.626 -2.7834599e+38
0.58690864 0.21834859 1.626 -2.71679e+38
0.59000576 0.21834859 1.626 -2.6499644e+38
0.59310287 0.21834859 1.626 -2.5833454e+38
0.59326673 0.21727429 1.618 -2.5301227e+38
0.59634858 0.21727429 1.618 -2.4765891e+38
0.59683716 0.2163343 1.6110001 -2.4367634e+38
0.59990573 0.2163343 1.6110001 -2.3962628e+38
0.6029743 0.2163343 1.6110001 -2.3295934e+38
0.60303336 0.21526001 1.603 -2.2496306e+38
0.60608673 0.21526001 1.603 -2.2229409e+38
0.60914004 0.21526001 1.603 -2.1829598e+38
0.61219335 0.21526001 1.603 -2.1961479e+38
0.61256003 0.21432002 1.5960001 -2.2093882e+38
0.61560005 0.21432002 1.5960001 -2.1695631e+38
0.61864007 0.21432002 1.5960001 -2.1162901e+38
0.62168002 0.21432002 1.5960001 -2.0630174e+38
0.62472004 0.21432002 1.5960001 -1.9965043e+38
0.62776005 0.21432002 1.5960001 -2.0095893e+38
0.63080007 0.21432002 1.5960001 -2.0095375e+38
0.63384002 0.21432002 1.5960001 -2.009382e+38
0.63688004 0.21432002 1.5960001 -2.0094864e+38
0.64272672 0.21526001 1.603 -2.0358637e+38
0.64296007 0.21432002 1.5960001 -2.0627608e+38
0.64883339 0.21526001 1.603 -2.1689443e+38
0.6518867 0.21526001 1.603 -2.2625113e+38
0.65494007 0.21526001 1.603 -2.3690073e+38
0.66127717 0.2163343 1.6110001 -2.4624162e+38
0.66104668 0.21526001 1.603 -2.1565375e+38
0.66741431 0.2163343 1.6110001 -1.8505638e+38
0.67339623 0.21727429 1.618 -2.3036521e+38
0.6735515 0.2163343 1.6110001 -2.7609968e+38
0.67662007 0.2163343 1.6110001 nan
0.67968863 0.2163343 1.6110001 nan
0.6827572 0.2163343 1.6110001 nan
0.68582577 0.2163343 1.6110001 nan
0.43450004 0.26216668 1.9250001 -3.2871064e+38
0.4358905 0.26080477 1.9150001 -1.7281195e+38
0.43701336 0.25930667 1.904 -2.1161399e+38
0.43832573 0.25794479 1.8940001 -2.5158435e+38
0.4393667 0.25644669 1.8830001 -2.4360385e+38
0.44060099 0.25508478 1.8730001 -2.3561292e+38
0.4441686 0.25508478 1.8730001 -2.3163043e+38
0.44773623 0.25508478 1.8730001 -2.2763234e+38
0.45130384 0.25508478 1.8730001 -2.2761153e+38
0.45244288 0.25372288 1.863 -2.2626143e+38
0.45599145 0.25372288 1.863 -2.2625095e+38
0.45954004 0.25372288 1.863 -2.2624044e+38
0.4630886 0.25372288 1.863 -2.2624549e+38
0.4641324 0.25236097 1.853 -2.2623509e+38
0.46513814 0.25099906 1.8430001 -2.2358698e+38
0.46864861 0.25099906 1.8430001 -2.2225767e+38
0.47215909 0.25099906 1.8430001 -2.2093355e+38
0.47566956 0.25099906 1.8430001 -2.1960432e+38
0.47918004 0.25099906 1.8430001 -2.196043e+38
0.48269051 0.25099906 1.8430001 -2.1959921e+38
0.48620099 0.25099906 1.8430001 -2.2092854e+38
0.48971146 0.25099906 1.8430001 -2.2358186e+38
0.49322194 0.25099906 1.8430001 -2.235871e+38
0.49942765 0.25236097 1.853 -2.2358716e+38
0.50295717 0.25236097 1.853 -2.2492683e+38
0.50648671 0.25236097 1.853 -2.2759054e+38
0.5100162 0.25236097 1.853 -2.2894579e+38
0.51354575 0.25236097 1.853 -2.3163029e+38
0.5170753 0.25236097 1.853 -2.3564402e+38
0.52341431 0.25372288 1.863 -2.4097663e+38
0.52696288 0.25372288 1.863 -2.4895731e+38
0.52766383 0.25236097 1.853 -2.5696345e+38
0.53406006 0.25372288 1.863 -2.1550776e+38
0.53760862 0.25372288 1.863 -1.7420478e+38
0.54115719 0.25372288 1.863 -3.3722907e+38
0.54470575 0.25372288 1.863 nan
0.54825431 0.25372288 1.863 nan
0.55180287 0.25372288 1.863 nan
0.55535144 0.25372288 1.863 nan
0.56969243 0.22566764 1.6570001 nan
0.57284862 0.22566764 1.6570001 -2.6079577e+38
0.5760048 0.22566764 1.6570001 -2.7692365e+38
0.57636482 0.22457811 1.649 -2.9301462e+38
0.57950574 0.22457811 1.649 -2.9435946e+38
0.57982004 0.22348858 1.641 -2.9570423e+38
0.58294576 0.22348858 1.641 -2.890217e+38
0.58357149 0.22253525 1.6340001 -2.8235986e+38
0.58381146 0.22144572 1.626 -2.743688e+38
0.58690864 0.22144572 1.626 -2.6773809e+38
0.59000576 0.22144572 1.626 -2.6104508e+38
0.59310287 0.22144572 1.626 -2.5441441e+38
0.59326673 0.22035621 1.618 -2.5034874e+38
0.59634858 0.22035621 1.618 -2.4633504e+38
0.59683716 0.21940286 1.6110001 -2.4097131e+38
0.59990573 0.21940286 1.6110001 -2.3694716e+38
0.6029743 0.21940286 1.6110001 -2.3029049e+38
0.60303336 0.21831335 1.603 -2.2230979e+38
0.60608673 0.21831335 1.603 -2.1963043e+38
0.60914004 0.21831335 1.603 -2.1697191e+38
0.61219335 0.21831335 1.603 -2.1828029e+38
0.61256003 0.21736002 1.5960001 -2.2093874e+38
0.61560005 0.21736002 1.5960001 -2.1693546e+38
0.61864007 0.21736002 1.5960001 -2.1426662e+38
0.6244067 0.21831335 1.603 -2.0628606e+38
0.62746006 0.21831335 1.603 -1.9831077e+38
0.63051337 0.21831335 1.603 -1.9697124e+38
0.63356674 0.21831335 1.603 -1.9562646e+38
0.63384002 0.21736002 1.5960001 -1.9829011e+38
0.63688004 0.21736002 1.5960001 -2.0095379e+38
0.64272672 0.21831335 1.603 -2.0360708e+38
0.64296007 0.21736002 1.5960001 -2.0761046e+38
0.64883339 0.21831335 1.603 -2.1694114e+38
0.6518867 0.21831335 1.603 -2.2628226e+38
0.65494007 0.21831335 1.603 -2.3428376e+38
0.66127717 0.21940286 1.6110001 -2.4363508e+38
0.66104668 0.21831335 1.603 -2.1432976e+38
0.66741431 0.21940286 1.6110001 -1.8635411e+38
0.67048287 0.21940286 1.6110001 -2.2637159e+38
0.6735515 0.21940286 1.6110001 -2.653772e+38
0.67662007 0.21940286 1.6110001 nan
0.68264192 0.22035621 1.618 nan
0.6827572 0.21940286 1.6110001 nan
0.68880576 0.22035621 1.618 nan
0.68889433 0.21940286 1.6110001 nan
0.43450004 0.26583335 1.9250001 -3.3498758e+38
0.4358905 0.2644524 1.9150001 -1.7289998e+38
0.43701336 0.26293334 1.904 -2.1303156e+38
0.43832573 0.26155239 1.8940001 -2.5158439e+38
0.4393667 0.26003334 1.8830001 -2.4361423e+38
0.44060099 0.25865239 1.8730001 -2.3429404e+38
0.4441686 0.25865239 1.8730001 -2.3029595e+38
0.44773623 0.25865239 1.8730001 -2.2629786e+38
0.45130384 0.25865239 1.8730001 -2.2760111e+38
0.45244288 0.25727144 1.863 -2.275906e+38
0.45599145 0.25727144 1.863 -2.2757492e+38
0.45954004 0.25727144 1.863 -2.2757482e+38
0.4630886 0.25727144 1.863 -2.2756951e+38
0.4641324 0.25589049 1.853 -2.2756949e+38
0.46766195 0.25589049 1.853 -2.2624543e+38
0.46864861 0.25450954 1.8430001 -2.2358694e+38
0.47215909 0.25450954 1.8430001 -2.2358687e+38
0.47566956 0.25450954 1.8430001 -2.2358687e+38
0.47918004 0.25450954 1.8430001 -2.2226282e+38
