# .PCD v0.7 - Point Cloud Data file format
VERSION 0.7
FIELDS x y z rgb
SIZE 4 4 4 4
TYPE F F F F
COUNT 1 1 1 1
WIDTH 1074
HEIGHT 1
VIEWPOINT 0 0 0 1 0 0 0
POINTS 1074
DATA ascii
-0.13168953 -0.72008955 2.9420002 -2.462722e+38
-0.12608573 -0.72008955 2.9420002 -2.3687398e+38
-0.11749239 -0.70222193 2.8690002 -2.3023285e+38
-0.1058581 -0.66354954 2.7110002 -2.2354588e+38
-0.09991429 -0.6584096 2.6900001 -2.5967979e+38
-0.094050482 -0.65326959 2.6690001 -2.9570891e+38
-0.088966675 -0.65326959 2.6690001 -2.6098259e+38
-0.083882861 -0.65326959 2.6690001 -2.2631348e+38
-0.078799054 -0.65326959 2.6690001 -2.3291275e+38
-0.073162861 -0.64837432 2.6490002 -2.3955359e+38
-0.068117149 -0.64837432 2.6490002 -2.3421581e+38
-0.062595241 -0.64347911 2.6290002 -2.3020726e+38
-0.057587624 -0.64347911 2.6290002 -2.2754351e+38
-0.052580003 -0.64347911 2.6290002 -2.248798e+38
-0.047572386 -0.64347911 2.6290002 -2.2355049e+38
-0.042240955 -0.63858384 2.6090002 -2.2221603e+38
-0.037271433 -0.63858384 2.6090002 -2.2088674e+38
-0.032301906 -0.63858384 2.6090002 -2.1955749e+38
-0.027332382 -0.63858384 2.6090002 -2.1822824e+38
-0.022362858 -0.63858384 2.6090002 -2.1690421e+38
-0.017393334 -0.63858384 2.6090002 -2.1822822e+38
-0.012423811 -0.63858384 2.6090002 -2.1955234e+38
-0.0073971432 -0.63368863 2.5890002 -2.195524e+38
-0.0024657145 -0.63368863 2.5890002 -2.2087639e+38
0.0024847621 -0.63858384 2.6090002 -2.1821788e+38
0.0073971432 -0.63368863 2.5890002 -2.1688867e+38
0.012328573 -0.63368863 2.5890002 -2.1688867e+38
0.017133335 -0.62903816 2.5700002 -2.1688867e+38
0.022028573 -0.62903816 2.5700002 -2.1554906e+38
0.026923811 -0.62903816 2.5700002 -2.1553867e+38
0.031819049 -0.62903816 2.5700002 -2.1552827e+38
0.036714289 -0.62903816 2.5700002 -2.168575e+38
0.041301906 -0.62438768 2.5510001 -2.1552825e+38
0.046160955 -0.62438768 2.5510001 -2.1553342e+38
0.051020004 -0.62438768 2.5510001 -2.155334e+38
0.055879053 -0.62438768 2.5510001 -2.1419898e+38
0.061190479 -0.62903816 2.5700002 -2.1287494e+38
0.065597147 -0.62438768 2.5510001 -2.1154567e+38
0.070456192 -0.62438768 2.5510001 -2.1154042e+38
0.075315244 -0.62438768 2.5510001 -2.1021119e+38
0.08017429 -0.62438768 2.5510001 -2.0754235e+38
0.085666671 -0.62903816 2.5700002 -2.0488388e+38
0.089892387 -0.62438768 2.5510001 -2.0355982e+38
0.094751433 -0.62438768 2.5510001 -2.0223059e+38
0.099610485 -0.62438768 2.5510001 -2.0223057e+38
0.10524762 -0.62903816 2.5700002 -2.0355461e+38
0.11014286 -0.62903816 2.5700002 -2.0355459e+38
0.1150381 -0.62903816 2.5700002 -2.0354942e+38
0.11993334 -0.62903816 2.5700002 -2.0488384e+38
0.12482858 -0.62903816 2.5700002 -2.0620266e+38
0.13068287 -0.63368863 2.5890002 -2.088559e+38
0.13561429 -0.63368863 2.5890002 -2.1150917e+38
0.14054573 -0.63368863 2.5890002 -2.1017475e+38
0.14547715 -0.63368863 2.5890002 -2.1015919e+38
0.15040858 -0.63368863 2.5890002 -2.1017479e+38
0.15420002 -0.62903816 2.5700002 -2.0885594e+38
0.15909524 -0.62903816 2.5700002 -2.0886633e+38
0.16399048 -0.62903816 2.5700002 -2.1020602e+38
0.16888572 -0.62903816 2.5700002 -2.1021129e+38
0.17378096 -0.62903816 2.5700002 -2.1021138e+38
0.17735524 -0.62438768 2.5510001 -2.1154066e+38
0.1822143 -0.62438768 2.5510001 -2.1287513e+38
0.18707335 -0.62438768 2.5510001 -2.1421476e+38
0.1919324 -0.62438768 2.5510001 -2.155596e+38
0.19679144 -0.62438768 2.5510001 -2.195525e+38
0.20014858 -0.61973721 2.5320001 -2.2355065e+38
0.20497145 -0.61973721 2.5320001 -2.2621436e+38
0.21136859 -0.62438768 2.5510001 -2.2888324e+38
0.21461716 -0.61973721 2.5320001 -2.3288135e+38
0.21944001 -0.61973721 2.5320001 -2.3689506e+38
0.22426288 -0.61973721 2.5320001 -2.382399e+38
0.22908573 -0.61973721 2.5320001 -2.3958471e+38
0.23390859 -0.61973721 2.5320001 -2.3958469e+38
0.23873144 -0.61973721 2.5320001 -2.3955868e+38
0.24355431 -0.61973721 2.5320001 -2.329125e+38
0.24837716 -0.61973721 2.5320001 -2.2490596e+38
0.25320002 -0.61973721 2.5320001 -2.2894036e+38
0.25802287 -0.61973721 2.5320001 -2.3289695e+38
0.26284572 -0.61973721 2.5320001 -2.0889302e+38
0.26967716 -0.62438768 2.5510001 -1.8499961e+38
0.27249146 -0.61973721 2.5320001 -3.3324123e+38
0.27731431 -0.61973721 2.5320001 nan
0.28425431 -0.62438768 2.5510001 nan
0.28911334 -0.62438768 2.5510001 nan
0.29178289 -0.61973721 2.5320001 nan
0.29238859 -0.61092573 2.4960001 nan
0.29500002 -0.60652006 2.4780002 nan
0.31720477 -0.56221813 2.2970002 nan
0.32158002 -0.56221813 2.2970002 nan
0.32595527 -0.56221813 2.2970002 nan
0.33033049 -0.56221813 2.2970002 nan
0.33470574 -0.56221813 2.2970002 nan
0.33908099 -0.56221813 2.2970002 nan
0.34345621 -0.56221813 2.2970002 nan
0.34783146 -0.56221813 2.2970002 nan
0.34975335 -0.55830193 2.2810001 nan
0.35409811 -0.55830193 2.2810001 nan
0.35844287 -0.55830193 2.2810001 nan
0.36278763 -0.55830193 2.2810001 nan
0.36471811 -0.55463052 2.266 nan
0.36675432 -0.55120385 2.2520001 nan
0.37104383 -0.55120385 2.2520001 nan
0.37283337 -0.54753244 2.237 nan
0.3770943 -0.54753244 2.237 nan
0.3789686 -0.54410577 2.223 nan
0.38320288 -0.54410577 2.223 nan
0.38743716 -0.54410577 2.223 nan
0.39167145 -0.54410577 2.223 nan
0.39590573 -0.54410577 2.223 nan
0.40014002 -0.54410577 2.223 nan
0.4043743 -0.54410577 2.223 nan
0.41118193 -0.54753244 2.237 nan
0.41284287 -0.54410577 2.223 nan
0.41970384 -0.54753244 2.237 nan
-0.17582001 -0.75990003 3.1290002 nan
-0.16682 -0.74630004 3.0730002 nan
-0.1595524 -0.73974293 3.0460002 nan
-0.15238763 -0.73318577 3.0190001 nan
-0.1453743 -0.72687149 2.993 -2.9116594e+38
-0.13846001 -0.72055721 2.9670002 -1.7307185e+38
-0.13280858 -0.72055721 2.9670002 -2.1174359e+38
-0.12608573 -0.71448576 2.9420002 -2.5022877e+38
-0.12048192 -0.71448576 2.9420002 -2.4355655e+38
-0.1058581 -0.65838575 2.7110002 -2.3694219e+38
-0.09991429 -0.65328574 2.6900001 -2.6372467e+38
-0.094790481 -0.65328574 2.6900001 -2.8896925e+38
-0.088966675 -0.64818573 2.6690001 -2.4491742e+38
-0.083882861 -0.64818573 2.6690001 -1.9971841e+38
-0.078799054 -0.64818573 2.6690001 -2.1696714e+38
-0.07371524 -0.64818573 2.6690001 -2.3423143e+38
-0.068117149 -0.64332861 2.6490002 -2.302177e+38
-0.06307143 -0.64332861 2.6490002 -2.248955e+38
-0.057587624 -0.63847148 2.6290002 -2.2223175e+38
-0.052580003 -0.63847148 2.6290002 -2.1956804e+38
-0.047572386 -0.63847148 2.6290002 -2.195628e+38
-0.042240955 -0.6336143 2.6090002 -2.1822834e+38
-0.037271433 -0.6336143 2.6090002 -2.182283e+38
-0.032301906 -0.6336143 2.6090002 -2.1689386e+38
-0.027332382 -0.6336143 2.6090002 -2.1689382e+38
-0.022362858 -0.6336143 2.6090002 -2.1689899e+38
-0.017393334 -0.6336143 2.6090002 -2.1955226e+38
-0.012423811 -0.6336143 2.6090002 -2.2088151e+38
-0.0073971432 -0.62875718 2.5890002 -2.2087635e+38
-0.0024657145 -0.62875718 2.5890002 -2.2087633e+38
0.0024847621 -0.6336143 2.6090002 -2.1822305e+38
0.0073971432 -0.62875718 2.5890002 -2.1555938e+38
0.012328573 -0.62875718 2.5890002 -2.1423015e+38
0.017260002 -0.62875718 2.5890002 -2.1289575e+38
0.022028573 -0.62414289 2.5700002 -2.142146e+38
0.026923811 -0.62414289 2.5700002 -2.1553344e+38
0.031819049 -0.62414289 2.5700002 -2.1551786e+38
0.036714289 -0.62414289 2.5700002 -2.1552305e+38
0.041609526 -0.62414289 2.5700002 -2.1552305e+38
0.046504766 -0.62414289 2.5700002 -2.1419898e+38
0.051400002 -0.62414289 2.5700002 -2.1552817e+38
0.056295242 -0.62414289 2.5700002 -2.1552817e+38
0.061190479 -0.62414289 2.5700002 -2.1552817e+38
0.066085719 -0.62414289 2.5700002 -2.141937e+38
0.070980959 -0.62414289 2.5700002 -2.141833e+38
0.075876199 -0.62414289 2.5700002 -2.1285405e+38
0.080771431 -0.62414289 2.5700002 -2.1151444e+38
0.085666671 -0.62414289 2.5700002 -2.0886635e+38
0.090561911 -0.62414289 2.5700002 -2.0886633e+38
0.094751433 -0.61952859 2.5510001 -2.0753708e+38
0.099610485 -0.61952859 2.5510001 -2.0753708e+38
0.10524762 -0.62414289 2.5700002 -2.0753706e+38
0.11014286 -0.62414289 2.5700002 -2.0886627e+38
0.1150381 -0.62414289 2.5700002 -2.1020588e+38
0.11993334 -0.62414289 2.5700002 -2.1020588e+38
0.12482858 -0.62414289 2.5700002 -2.101903e+38
0.13068287 -0.62875718 2.5890002 -2.1150917e+38
0.13461906 -0.62414289 2.5700002 -2.1150395e+38
0.14054573 -0.62875718 2.5890002 -2.1149876e+38
0.14440954 -0.62414289 2.5700002 -2.1016949e+38
0.15040858 -0.62875718 2.5890002 -2.0884024e+38
0.15534002 -0.62875718 2.5890002 -2.0619743e+38
0.15909524 -0.62414289 2.5700002 -2.0620266e+38
0.16399048 -0.62414289 2.5700002 -2.0620793e+38
0.16888572 -0.62414289 2.5700002 -2.0622361e+38
0.17378096 -0.62414289 2.5700002 -2.0621846e+38
0.17735524 -0.61952859 2.5510001 -2.0753734e+38
0.1822143 -0.61952859 2.5510001 -2.0888217e+38
0.18707335 -0.61952859 2.5510001 -2.1154064e+38
0.1919324 -0.61952859 2.5510001 -2.1289068e+38
0.19679144 -0.61952859 2.5510001 -2.1688358e+38
0.20014858 -0.6149143 2.5320001 -2.2087654e+38
0.20497145 -0.6149143 2.5320001 -2.248643e+38
0.21136859 -0.61952859 2.5510001 -2.2753318e+38
0.21461716 -0.6149143 2.5320001 -2.301917e+38
0.21944001 -0.6149143 2.5320001 -2.3288139e+38
0.22426288 -0.6149143 2.5320001 -2.3555548e+38
0.22908573 -0.6149143 2.5320001 -2.3824513e+38
0.23390859 -0.6149143 2.5320001 -2.3960034e+38
0.23873144 -0.6149143 2.5320001 -2.395899e+38
0.24355431 -0.6149143 2.5320001 -2.4092426e+38
0.24837716 -0.6149143 2.5320001 -2.4090349e+38
0.25320002 -0.6149143 2.5320001 -2.4222752e+38
0.25802287 -0.6149143 2.5320001 -2.4215469e+38
0.26284572 -0.6149143 2.5320001 -2.1141096e+38
0.26967716 -0.61952859 2.5510001 -1.8111545e+38
0.27453622 -0.61952859 2.5510001 -3.2003691e+38
0.27939525 -0.61952859 2.5510001 nan
0.28425431 -0.61952859 2.5510001 nan
0.28911334 -0.61952859 2.5510001 nan
0.29178289 -0.6149143 2.5320001 nan
0.31282955 -0.55784291 2.2970002 nan
0.31720477 -0.55784291 2.2970002 nan
0.32158002 -0.55784291 2.2970002 nan
0.32595527 -0.55784291 2.2970002 nan
0.33033049 -0.55784291 2.2970002 nan
0.33470574 -0.55784291 2.2970002 nan
0.33908099 -0.55784291 2.2970002 nan
0.34345621 -0.55784291 2.2970002 nan
0.34540859 -0.55395716 2.2810001 nan
0.34975335 -0.55395716 2.2810001 nan
0.35409811 -0.55395716 2.2810001 nan
0.35844287 -0.55395716 2.2810001 nan
0.36040193 -0.55031431 2.266 nan
0.36246479 -0.54691434 2.2520001 nan
0.36431146 -0.54327148 2.237 nan
0.36857241 -0.54327148 2.237 nan
0.37283337 -0.54327148 2.237 nan
0.37473431 -0.53987145 2.223 nan
0.3789686 -0.53987145 2.223 nan
0.38320288 -0.53987145 2.223 nan
0.38743716 -0.53987145 2.223 nan
0.39167145 -0.53987145 2.223 nan
0.39590573 -0.53987145 2.223 nan
0.40014002 -0.53987145 2.223 nan
0.40692097 -0.54327148 2.237 nan
0.41118193 -0.54327148 2.237 nan
0.41284287 -0.53987145 2.223 nan
0.41707718 -0.53987145 2.223 nan
-0.18178001 -0.75394005 3.1290002 nan
-0.17582001 -0.75394005 3.1290002 nan
-0.16834001 -0.7471934 3.1010001 nan
-0.16096668 -0.74044669 3.0730002 nan
-0.15375048 -0.73394102 3.0460002 -3.0271884e+38
-0.14663716 -0.72743529 3.0190001 -2.5016083e+38
-0.13967334 -0.72117054 2.993 -1.9673246e+38
-0.13280858 -0.71490574 2.9670002 -2.2225815e+38
-0.12608573 -0.70888197 2.9420002 -2.4893092e+38
-0.12048192 -0.70888197 2.9420002 -2.4488604e+38
-0.1058581 -0.65322196 2.7110002 -2.4219177e+38
-0.09991429 -0.64816195 2.6900001 -2.5436823e+38
-0.094790481 -0.64816195 2.6900001 -2.6644501e+38
-0.088966675 -0.64310193 2.6690001 -2.39673e+38
-0.083882861 -0.64310193 2.6690001 -2.1302094e+38
-0.078799054 -0.64310193 2.6690001 -2.2095996e+38
-0.07371524 -0.64310193 2.6690001 -2.2758525e+38
-0.068117149 -0.6382829 2.6490002 -2.2623515e+38
-0.06307143 -0.6382829 2.6490002 -2.2356623e+38
-0.057587624 -0.63346386 2.6290002 -2.2090248e+38
-0.052580003 -0.63346386 2.6290002 -2.1956802e+38
-0.047572386 -0.63346386 2.6290002 -2.1823356e+38
-0.042240955 -0.62864482 2.6090002 -2.1822834e+38
-0.037271433 -0.62864482 2.6090002 -2.1689909e+38
-0.032301906 -0.62864482 2.6090002 -2.1688867e+38
-0.027332382 -0.62864482 2.6090002 -2.1689901e+38
-0.022362858 -0.62864482 2.6090002 -2.168938e+38
-0.017393334 -0.62864482 2.6090002 -2.1955224e+38
-0.012423811 -0.62864482 2.6090002 -2.222055e+38
-0.0073971432 -0.62382573 2.5890002 -2.2087627e+38
-0.0024657145 -0.62382573 2.5890002 -2.1954185e+38
0.0024847621 -0.62864482 2.6090002 -2.1688859e+38
0.0073971432 -0.62382573 2.5890002 -2.1555934e+38
0.012328573 -0.62382573 2.5890002 -2.142249e+38
0.017133335 -0.61924767 2.5700002 -2.1289569e+38
0.022028573 -0.61924767 2.5700002 -2.1420936e+38
0.026923811 -0.61924767 2.5700002 -2.1552301e+38
0.031819049 -0.61924767 2.5700002 -2.1552301e+38
0.036714289 -0.61924767 2.5700002 -2.1419381e+38
0.041609526 -0.61924767 2.5700002 -2.1419381e+38
0.046504766 -0.61924767 2.5700002 -2.1285933e+38
0.051400002 -0.61924767 2.5700002 -2.1286965e+38
0.056295242 -0.61924767 2.5700002 -2.1287486e+38
0.061190479 -0.61924767 2.5700002 -2.1153525e+38
0.066085719 -0.61924767 2.5700002 -2.1020081e+38
0.070980959 -0.61924767 2.5700002 -2.101956e+38
0.075876199 -0.61924767 2.5700002 -2.1151963e+38
0.080771431 -0.61924767 2.5700002 -2.0753193e+38
0.085666671 -0.61924767 2.5700002 -2.0488384e+38
0.090561911 -0.61924767 2.5700002 -2.0354937e+38
0.094751433 -0.61466956 2.5510001 -2.0354418e+38
0.10035238 -0.61924767 2.5700002 -2.0354935e+38
0.10524762 -0.61924767 2.5700002 -2.0487856e+38
0.11014286 -0.61924767 2.5700002 -2.0488893e+38
0.1150381 -0.61924767 2.5700002 -2.0489931e+38
0.11993334 -0.61924767 2.5700002 -2.0754217e+38
0.12482858 -0.61924767 2.5700002 -2.1151951e+38
0.13068287 -0.62382573 2.5890002 -2.088455e+38
0.13461906 -0.61924767 2.5700002 -2.0751625e+38
0.14054573 -0.62382573 2.5890002 -2.0884546e+38
0.14547715 -0.62382573 2.5890002 -2.088402e+38
0.15040858 -0.62382573 2.5890002 -2.0751089e+38
0.15534002 -0.62382573 2.5890002 -2.0619734e+38
0.16027144 -0.62382573 2.5890002 -2.0486822e+38
0.16399048 -0.61924767 2.5700002 -2.035339e+38
0.16888572 -0.61924767 2.5700002 -2.0354956e+38
0.17378096 -0.61924767 2.5700002 -2.0354958e+38
0.1786762 -0.61924767 2.5700002 -2.0621323e+38
0.1822143 -0.61466956 2.5510001 -2.0888728e+38
0.18707335 -0.61466956 2.5510001 -2.1022172e+38
0.1919324 -0.61466956 2.5510001 -2.128906e+38
0.19679144 -0.61466956 2.5510001 -2.1554908e+38
0.20165049 -0.61466956 2.5510001 -2.1821281e+38
0.20497145 -0.61009145 2.5320001 -2.2087654e+38
0.2097943 -0.61009145 2.5320001 -2.2352988e+38
0.21461716 -0.61009145 2.5320001 -2.2620397e+38
0.21944001 -0.61009145 2.5320001 -2.3021772e+38
0.22426288 -0.61009145 2.5320001 -2.3155222e+38
0.22908573 -0.61009145 2.5320001 -2.3424191e+38
0.23390859 -0.61009145 2.5320001 -2.3558159e+38
0.23873144 -0.61009145 2.5320001 -2.369367e+38
0.24355431 -0.61009145 2.5320001 -2.3960026e+38
0.24837716 -0.61009145 2.5320001 -2.409399e+38
0.25320002 -0.61009145 2.5320001 -2.4357758e+38
0.25802287 -0.61009145 2.5320001 -2.4487012e+38
0.26284572 -0.61009145 2.5320001 -2.1150407e+38
0.26766858 -0.61009145 2.5320001 -1.7816071e+38
0.27249146 -0.61009145 2.5320001 -2.931353e+38
0.27731431 -0.61009145 2.5320001 nan
0.28425431 -0.61466956 2.5510001 nan
0.28911334 -0.61466956 2.5510001 nan
0.29178289 -0.61009145 2.5320001 nan
0.3084543 -0.55346763 2.2970002 nan
0.31282955 -0.55346763 2.2970002 nan
0.31720477 -0.55346763 2.2970002 nan
0.32158002 -0.55346763 2.2970002 nan
0.32595527 -0.55346763 2.2970002 nan
0.33033049 -0.55346763 2.2970002 nan
0.33470574 -0.55346763 2.2970002 nan
0.33908099 -0.55346763 2.2970002 nan
0.34106383 -0.5496124 2.2810001 nan
0.34540859 -0.5496124 2.2810001 nan
0.34975335 -0.5496124 2.2810001 nan
0.35409811 -0.5496124 2.2810001 nan
0.35608575 -0.54599816 2.266 nan
0.35817525 -0.54262477 2.2520001 nan
0.36246479 -0.54262477 2.2520001 nan
0.36431146 -0.53901052 2.237 nan
0.36857241 -0.53901052 2.237 nan
0.37283337 -0.53901052 2.237 nan
0.3770943 -0.53901052 2.237 nan
0.3789686 -0.5356372 2.223 nan
0.38320288 -0.5356372 2.223 nan
0.38743716 -0.5356372 2.223 nan
0.39413813 -0.53901052 2.237 nan
0.39839908 -0.53901052 2.237 nan
0.40266001 -0.53901052 2.237 nan
0.40692097 -0.53901052 2.237 nan
0.41118193 -0.53901052 2.237 nan
0.41284287 -0.5356372 2.223 nan
-0.17582001 -0.74798006 3.1290002 nan
-0.16682 -0.73459339 3.0730002 nan
-0.16096668 -0.73459339 3.0730002 nan
-0.15375048 -0.7281391 3.0460002 -1.958451e+38
-0.14663716 -0.72168481 3.0190001 -2.0870003e+38
-0.13967334 -0.7154696 2.993 -2.2081413e+38
-0.13280858 -0.70925432 2.9670002 -2.3428341e+38
-0.12608573 -0.70327812 2.9420002 -2.4623602e+38
-0.11102191 -0.64805812 2.7110002 -2.4751847e+38
-0.1058581 -0.64805812 2.7110002 -2.4758131e+38
-0.09991429 -0.64303815 2.6900001 -2.4510511e+38
-0.094790481 -0.64303815 2.6900001 -2.423995e+38
-0.089666672 -0.64303815 2.6900001 -2.3431469e+38
-0.083882861 -0.63801813 2.6690001 -2.263081e+38
-0.078799054 -0.63801813 2.6690001 -2.2361324e+38
-0.07371524 -0.63801813 2.6690001 -2.2092872e+38
-0.068117149 -0.63323718 2.6490002 -2.2223191e+38
-0.06307143 -0.63323718 2.6490002 -2.2223183e+38
-0.057587624 -0.62845623 2.6290002 -2.2090254e+38
-0.052580003 -0.62845623 2.6290002 -2.1823881e+38
-0.047572386 -0.62845623 2.6290002 -2.1822836e+38
-0.042564765 -0.62845623 2.6290002 -2.1822832e+38
-0.037271433 -0.62367529 2.6090002 -2.1690427e+38
-0.032301906 -0.62367529 2.6090002 -2.15575e+38
-0.027332382 -0.62367529 2.6090002 -2.1558017e+38
-0.022362858 -0.62367529 2.6090002 -2.1556977e+38
-0.017393334 -0.62367529 2.6090002 -2.1954704e+38
-0.012423811 -0.62367529 2.6090002 -2.2220029e+38
-0.0073971432 -0.61889434 2.5890002 -2.2087106e+38
-0.0024657145 -0.61889434 2.5890002 -2.182178e+38
0.0024847621 -0.62367529 2.6090002 -2.1688859e+38
0.0073971432 -0.61889434 2.5890002 -2.1422492e+38
0.012328573 -0.61889434 2.5890002 -2.1289048e+38
0.017260002 -0.61889434 2.5890002 -2.1155606e+38
0.02219143 -0.61889434 2.5890002 -2.1420413e+38
0.026923811 -0.61435241 2.5700002 -2.1552817e+38
0.032054286 -0.61889434 2.5890002 -2.1419892e+38
0.036714289 -0.61435241 2.5700002 -2.1286452e+38
0.041609526 -0.61435241 2.5700002 -2.1286452e+38
0.046504766 -0.61435241 2.5700002 -2.1153527e+38
0.051400002 -0.61435241 2.5700002 -2.1153527e+38
0.056295242 -0.61435241 2.5700002 -2.1020604e+38
0.061190479 -0.61435241 2.5700002 -2.0754239e+38
0.066085719 -0.61435241 2.5700002 -2.0487872e+38
0.070980959 -0.61435241 2.5700002 -2.0753197e+38
0.075876199 -0.61435241 2.5700002 -2.0886116e+38
0.080771431 -0.61435241 2.5700002 -2.0486826e+38
0.085666671 -0.61435241 2.5700002 -2.0088573e+38
0.090561911 -0.61435241 2.5700002 -1.9955648e+38
0.095457152 -0.61435241 2.5700002 -1.9823242e+38
0.10035238 -0.61435241 2.5700002 -1.9957203e+38
0.10524762 -0.61435241 2.5700002 -2.0090126e+38
0.11014286 -0.61435241 2.5700002 -1.9958244e+38
0.1150381 -0.61435241 2.5700002 -1.9824281e+38
0.11993334 -0.61435241 2.5700002 -2.0487335e+38
0.12482858 -0.61435241 2.5700002 -2.1150913e+38
0.12972382 -0.61435241 2.5700002 -2.0750071e+38
0.13461906 -0.61435241 2.5700002 -2.0351818e+38
0.14054573 -0.61889434 2.5890002 -2.06187e+38
0.14547715 -0.61889434 2.5890002 -2.0750576e+38
0.15040858 -0.61889434 2.5890002 -2.0617128e+38
0.15534002 -0.61889434 2.5890002 -2.0485254e+38
0.15909524 -0.61435241 2.5700002 -2.0220455e+38
0.16399048 -0.61435241 2.5700002 -1.9955137e+38
0.16888572 -0.61435241 2.5700002 -2.0088589e+38
0.17378096 -0.61435241 2.5700002 -2.0089108e+38
0.1786762 -0.61435241 2.5700002 -2.0488396e+38
0.1822143 -0.60981053 2.5510001 -2.0755282e+38
0.18707335 -0.60981053 2.5510001 -2.1021651e+38
0.1919324 -0.60981053 2.5510001 -2.1155097e+38
0.19679144 -0.60981053 2.5510001 -2.1420946e+38
0.20165049 -0.60981053 2.5510001 -2.1555435e+38
0.20497145 -0.6052686 2.5320001 -2.1821808e+38
0.2097943 -0.6052686 2.5320001 -2.1955254e+38
0.21461716 -0.6052686 2.5320001 -2.2354029e+38
0.21944001 -0.6052686 2.5320001 -2.2620919e+38
0.22426288 -0.6052686 2.5320001 -2.2885734e+38
0.22908573 -0.6052686 2.5320001 -2.3021782e+38
0.23390859 -0.6052686 2.5320001 -2.3288157e+38
0.23873144 -0.6052686 2.5320001 -2.3425228e+38
0.24355431 -0.6052686 2.5320001 -2.3826069e+38
0.24837716 -0.6052686 2.5320001 -2.4093992e+38
0.25320002 -0.6052686 2.5320001 -2.4494839e+38
0.25802287 -0.6052686 2.5320001 -2.4755474e+38
0.26284572 -0.6052686 2.5320001 -2.1157713e+38
0.26766858 -0.6052686 2.5320001 -1.7568909e+38
0.27249146 -0.6052686 2.5320001 -2.6647235e+38
0.27731431 -0.6052686 2.5320001 nan
0.28213716 -0.6052686 2.5320001 nan
0.28696001 -0.6052686 2.5320001 nan
0.29178289 -0.6052686 2.5320001 nan
0.3084543 -0.54909241 2.2970002 nan
0.31282955 -0.54909241 2.2970002 nan
0.31720477 -0.54909241 2.2970002 nan
0.32158002 -0.54909241 2.2970002 nan
0.32595527 -0.54909241 2.2970002 nan
0.32802954 -0.54526764 2.2810001 nan
0.3323743 -0.54526764 2.2810001 nan
0.33671907 -0.54526764 2.2810001 nan
0.34106383 -0.54526764 2.2810001 nan
0.34540859 -0.54526764 2.2810001 nan
0.34745336 -0.54168195 2.266 nan
0.35176954 -0.54168195 2.266 nan
0.35388574 -0.53833526 2.2520001 nan
0.35817525 -0.53833526 2.2520001 nan
0.3600505 -0.53474957 2.237 nan
0.36431146 -0.53474957 2.237 nan
0.36857241 -0.53474957 2.237 nan
0.37283337 -0.53474957 2.237 nan
0.3770943 -0.53474957 2.237 nan
0.3789686 -0.53140289 2.223 nan
0.38561621 -0.53474957 2.237 nan
0.38987717 -0.53474957 2.237 nan
0.39413813 -0.53474957 2.237 nan
0.39839908 -0.53474957 2.237 nan
0.40266001 -0.53474957 2.237 nan
0.40692097 -0.53474957 2.237 nan
0.41118193 -0.53474957 2.237 nan
0.41284287 -0.53140289 2.223 nan
-0.16682 -0.72874004 3.0730002 nan
-0.16096668 -0.72874004 3.0730002 -3.3832181e+38
-0.15375048 -0.72233719 3.0460002 -1.8609326e+38
-0.14794858 -0.72233719 3.0460002 -2.1143607e+38
-0.13967334 -0.70976859 2.993 -2.3689447e+38
-0.13280858 -0.70360291 2.9670002 -2.4223789e+38
-0.11995715 -0.66376293 2.799 -2.4623594e+38
-0.11192287 -0.64811146 2.733 -2.4354109e+38
-0.1058581 -0.64289433 2.7110002 -2.4221241e+38
-0.09991429 -0.6379143 2.6900001 -2.3836026e+38
-0.094790481 -0.6379143 2.6900001 -2.3437225e+38
-0.089666672 -0.6379143 2.6900001 -2.3164597e+38
-0.083882861 -0.63293433 2.6690001 -2.2763739e+38
-0.078799054 -0.63293433 2.6690001 -2.2626651e+38
-0.07371524 -0.63293433 2.6690001 -2.2357681e+38
-0.068117149 -0.62819147 2.6490002 -2.2223712e+38
-0.06307143 -0.62819147 2.6490002 -2.2222667e+38
-0.057587624 -0.62344861 2.6290002 -2.1956816e+38
-0.052580003 -0.62344861 2.6290002 -2.1823366e+38
-0.047572386 -0.62344861 2.6290002 -2.1822836e+38
-0.042240955 -0.61870575 2.6090002 -2.1822832e+38
-0.037271433 -0.61870575 2.6090002 -2.1689903e+38
-0.032301906 -0.61870575 2.6090002 -2.1690423e+38
-0.027332382 -0.61870575 2.6090002 -2.1689901e+38
-0.022362858 -0.61870575 2.6090002 -2.1822303e+38
-0.017393334 -0.61870575 2.6090002 -2.1821782e+38
-0.012423811 -0.61870575 2.6090002 -2.1820741e+38
-0.0073971432 -0.61396289 2.5890002 -2.1555411e+38
-0.0024657145 -0.61396289 2.5890002 -2.1157166e+38
0.0024847621 -0.61870575 2.6090002 -2.1156648e+38
0.0074542863 -0.61870575 2.6090002 -2.1289569e+38
0.012328573 -0.61396289 2.5890002 -2.1289048e+38
0.017260002 -0.61396289 2.5890002 -2.1288527e+38
0.02219143 -0.61396289 2.5890002 -2.1420928e+38
0.027122859 -0.61396289 2.5890002 -2.155333e+38
0.032054286 -0.61396289 2.5890002 -2.1419886e+38
0.036714289 -0.60945719 2.5700002 -2.1285926e+38
0.041609526 -0.60945719 2.5700002 -2.1286446e+38
0.046504766 -0.60945719 2.5700002 -2.1153527e+38
0.051400002 -0.60945719 2.5700002 -2.115249e+38
0.056295242 -0.60945719 2.5700002 -2.1019048e+38
0.061190479 -0.60945719 2.5700002 -2.062028e+38
0.066085719 -0.60945719 2.5700002 -2.0353913e+38
0.070980959 -0.60945719 2.5700002 -2.035443e+38
0.075876199 -0.60945719 2.5700002 -2.0487347e+38
0.080771431 -0.60945719 2.5700002 -2.0221495e+38
0.085666671 -0.60945719 2.5700002 -1.9955648e+38
0.090561911 -0.60945719 2.5700002 -1.9690317e+38
0.095457152 -0.60945719 2.5700002 -1.9557914e+38
0.10035238 -0.60945719 2.5700002 -1.9558431e+38
0.10524762 -0.60945719 2.5700002 -1.9691877e+38
0.11014286 -0.60945719 2.5700002 -1.9691881e+38
0.1150381 -0.60945719 2.5700002 -1.9823244e+38
0.11993334 -0.60945719 2.5700002 -2.0220972e+38
0.12482858 -0.60945719 2.5700002 -2.0619223e+38
0.13068287 -0.61396289 2.5890002 -2.0484226e+38
0.13461906 -0.60945719 2.5700002 -2.0217338e+38
0.14054573 -0.61396289 2.5890002 -2.0350776e+38
0.14547715 -0.61396289 2.5890002 -2.0616096e+38
0.15040858 -0.61396289 2.5890002 -2.0483686e+38
0.15534002 -0.61396289 2.5890002 -2.0349733e+38
0.16027144 -0.61396289 2.5890002 -2.0219934e+38
0.16520287 -0.61396289 2.5890002 -2.022098e+38
0.17013429 -0.61396289 2.5890002 -2.0221508e+38
0.17378096 -0.60945719 2.5700002 -2.035443e+38
0.1786762 -0.60945719 2.5700002 -2.0753716e+38
0.18357144 -0.60945719 2.5700002 -2.1020604e+38
0.18707335 -0.60495144 2.5510001 -2.115405e+38
0.1919324 -0.60495144 2.5510001 -2.1286979e+38
0.19679144 -0.60495144 2.5510001 -2.1288543e+38
0.20165049 -0.60495144 2.5510001 -2.1423551e+38
0.20497145 -0.60044575 2.5320001 -2.1423559e+38
0.2097943 -0.60044575 2.5320001 -2.1557003e+38
0.21461716 -0.60044575 2.5320001 -2.1822331e+38
0.21944001 -0.60044575 2.5320001 -2.2088183e+38
0.22426288 -0.60044575 2.5320001 -2.2222148e+38
0.22908573 -0.60044575 2.5320001 -2.2356643e+38
0.23390859 -0.60044575 2.5320001 -2.2623541e+38
0.23873144 -0.60044575 2.5320001 -2.3024904e+38
0.24355431 -0.60044575 2.5320001 -2.3425226e+38
0.24837716 -0.60044575 2.5320001 -2.3827112e+38
0.25320002 -0.60044575 2.5320001 -2.4093998e+38
0.25802287 -0.60044575 2.5320001 -2.4494841e+38
0.26284572 -0.60044575 2.5320001 -2.1956325e+38
0.26766858 -0.60044575 2.5320001 -1.9541457e+38
0.27249146 -0.60044575 2.5320001 -2.3837111e+38
0.27731431 -0.60044575 2.5320001 -2.8271424e+38
0.28213716 -0.60044575 2.5320001 nan
0.28492001 -0.59617716 2.5140002 nan
0.30606478 -0.54827434 2.312 nan
0.31046858 -0.54827434 2.312 nan
0.31282955 -0.54471719 2.2970002 nan
0.31720477 -0.54471719 2.2970002 nan
0.32158002 -0.54471719 2.2970002 nan
0.32595527 -0.54471719 2.2970002 nan
0.32802954 -0.54092288 2.2810001 nan
0.3323743 -0.54092288 2.2810001 nan
0.33671907 -0.54092288 2.2810001 nan
0.34106383 -0.54092288 2.2810001 nan
0.34540859 -0.54092288 2.2810001 nan
0.34745336 -0.53736573 2.266 nan
0.35176954 -0.53736573 2.266 nan
0.35388574 -0.53404576 2.2520001 nan
0.35578954 -0.53048861 2.237 nan
0.3600505 -0.53048861 2.237 nan
0.36431146 -0.53048861 2.237 nan
0.36857241 -0.53048861 2.237 nan
0.37283337 -0.53048861 2.237 nan
0.3770943 -0.53048861 2.237 nan
0.3789686 -0.52716863 2.223 nan
0.38561621 -0.53048861 2.237 nan
0.38743716 -0.52716863 2.223 nan
0.39413813 -0.53048861 2.237 nan
0.39590573 -0.52716863 2.223 nan
0.40014002 -0.52716863 2.223 nan
0.4043743 -0.52716863 2.223 nan
0.40860859 -0.52716863 2.223 nan
0.41284287 -0.52716863 2.223 nan
-0.16682 -0.72288674 3.0730002 nan
-0.16096668 -0.72288674 3.0730002 -3.3571566e+38
-0.15375048 -0.71653527 3.0460002 -1.7567761e+38
-0.14794858 -0.71653527 3.0460002 -2.1404759e+38
-0.14088668 -0.71018386 3.0190001 -2.5277758e+38
-0.13397239 -0.70406765 2.993 -2.5019764e+38
-0.11901429 -0.65325624 2.7770002 -2.4619438e+38
-0.11192287 -0.64290577 2.733 -2.4085152e+38
-0.1058581 -0.63773054 2.7110002 -2.356284e+38
-0.09991429 -0.63279051 2.6900001 -2.3173969e+38
-0.094790481 -0.63279051 2.6900001 -2.2634467e+38
-0.089666672 -0.63279051 2.6900001 -2.2759062e+38
-0.083882861 -0.62785053 2.6690001 -2.2891973e+38
-0.078799054 -0.62785053 2.6690001 -2.2756963e+38
-0.07371524 -0.62785053 2.6690001 -2.2622992e+38
-0.068631433 -0.62785053 2.6690001 -2.2356099e+38
-0.06307143 -0.62314576 2.6490002 -2.209025e+38
-0.057587624 -0.61844099 2.6290002 -2.1956804e+38
-0.052580003 -0.61844099 2.6290002 -2.1822836e+38
-0.047210481 -0.61373621 2.6090002 -2.182283e+38
-0.042240955 -0.61373621 2.6090002 -2.1689901e+38
-0.037271433 -0.61373621 2.6090002 -2.1689376e+38
-0.032301906 -0.61373621 2.6090002 -2.1689378e+38
-0.027332382 -0.61373621 2.6090002 -2.1822303e+38
-0.022362858 -0.61373621 2.6090002 -2.1955224e+38
-0.017393334 -0.61373621 2.6090002 -2.1688857e+38
-0.012423811 -0.61373621 2.6090002 -2.1422492e+38
-0.0073971432 -0.60903144 2.5890002 -2.1023204e+38
-0.0024657145 -0.60903144 2.5890002 -2.0491513e+38
0.0024847621 -0.61373621 2.6090002 -2.075684e+38
0.0074542863 -0.61373621 2.6090002 -2.10232e+38
0.012423811 -0.61373621 2.6090002 -2.1288525e+38
0.017260002 -0.60903144 2.5890002 -2.1420924e+38
0.02219143 -0.60903144 2.5890002 -2.1420401e+38
0.027122859 -0.60903144 2.5890002 -2.141988e+38
0.032054286 -0.60903144 2.5890002 -2.1419358e+38
0.036985718 -0.60903144 2.5890002 -2.1286436e+38
0.041609526 -0.60456192 2.5700002 -2.1285918e+38
0.046504766 -0.60456192 2.5700002 -2.115248e+38
0.051400002 -0.60456192 2.5700002 -2.1150929e+38
0.056295242 -0.60456192 2.5700002 -2.1018004e+38
0.061190479 -0.60456192 2.5700002 -2.0618716e+38
0.065597147 -0.60009241 2.5510001 -2.0088066e+38
0.070980959 -0.60456192 2.5700002 -2.0088585e+38
0.075315244 -0.60009241 2.5510001 -2.0088581e+38
0.080771431 -0.60456192 2.5700002 -1.9955654e+38
0.085666671 -0.60456192 2.5700002 -1.9690323e+38
0.090561911 -0.60456192 2.5700002 -1.9424476e+38
0.095457152 -0.60456192 2.5700002 -1.9159669e+38
0.10035238 -0.60456192 2.5700002 -1.9160188e+38
0.10524762 -0.60456192 2.5700002 -1.916019e+38
0.11014286 -0.60456192 2.5700002 -1.942604e+38
0.1150381 -0.60456192 2.5700002 -1.9690326e+38
0.11993334 -0.60456192 2.5700002 -1.9954613e+38
0.12482858 -0.60456192 2.5700002 -2.0086496e+38
0.13068287 -0.60903144 2.5890002 -2.0084419e+38
0.13561429 -0.60903144 2.5890002 -2.0084932e+38
0.14054573 -0.60903144 2.5890002 -2.0217331e+38
0.14547715 -0.60903144 2.5890002 -2.0351289e+38
0.15040858 -0.60903144 2.5890002 -2.0352325e+38
0.15654001 -0.61373621 2.6090002 -2.021941e+38
0.16027144 -0.60903144 2.5890002 -2.035338e+38
0.16520287 -0.60903144 2.5890002 -2.0353903e+38
0.17013429 -0.60903144 2.5890002 -2.0487349e+38
0.17378096 -0.60456192 2.5700002 -2.0620272e+38
0.1786762 -0.60456192 2.5700002 -2.101904e+38
0.1822143 -0.60009241 2.5510001 -2.1285928e+38
0.18707335 -0.60009241 2.5510001 -2.128593e+38
0.1919324 -0.60009241 2.5510001 -2.1287494e+38
0.19679144 -0.60009241 2.5510001 -2.128906e+38
0.20165049 -0.60009241 2.5510001 -2.1289585e+38
0.20497145 -0.5956229 2.5320001 -2.115719e+38
0.2097943 -0.5956229 2.5320001 -2.1024267e+38
0.21461716 -0.5956229 2.5320001 -2.1290113e+38
0.21944001 -0.5956229 2.5320001 -2.1423559e+38
0.22426288 -0.5956229 2.5320001 -2.1557007e+38
0.22908573 -0.5956229 2.5320001 -2.1690976e+38
0.23390859 -0.5956229 2.5320001 -2.2090272e+38
0.23873144 -0.5956229 2.5320001 -2.2490604e+38
0.24355431 -0.5956229 2.5320001 -2.3022299e+38
0.24837716 -0.5956229 2.5320001 -2.3424711e+38
0.25320002 -0.5956229 2.5320001 -2.3825564e+38
0.2561886 -0.59138858 2.5140002 -2.4092973e+38
0.26097715 -0.59138858 2.5140002 -2.2897194e+38
0.26766858 -0.5956229 2.5320001 -2.1556551e+38
0.2705543 -0.59138858 2.5140002 -2.1154156e+38
0.27731431 -0.5956229 2.5320001 -2.067037e+38
0.28213716 -0.5956229 2.5320001 nan
0.28288001 -0.58715433 2.4960001 nan
0.28763431 -0.58715433 2.4960001 nan
0.30330002 -0.55492669 2.3590002 nan
0.30570573 -0.5511629 2.3430002 nan
0.30805048 -0.5473991 2.3270001 nan
0.31046858 -0.54387051 2.312 nan
0.31487241 -0.54387051 2.312 nan
0.31927621 -0.54387051 2.312 nan
0.32158002 -0.54034191 2.2970002 nan
0.32595527 -0.54034191 2.2970002 nan
0.32802954 -0.53657812 2.2810001 nan
0.3323743 -0.53657812 2.2810001 nan
0.33671907 -0.53657812 2.2810001 nan
0.34106383 -0.53657812 2.2810001 nan
0.34540859 -0.53657812 2.2810001 nan
0.34745336 -0.53304958 2.266 nan
0.3495962 -0.52975625 2.2520001 nan
0.35388574 -0.52975625 2.2520001 nan
0.35578954 -0.52622765 2.237 nan
0.3600505 -0.52622765 2.237 nan
0.36431146 -0.52622765 2.237 nan
0.36857241 -0.52622765 2.237 nan
0.37050003 -0.52293432 2.223 nan
0.37473431 -0.52293432 2.223 nan
0.3789686 -0.52293432 2.223 nan
0.38320288 -0.52293432 2.223 nan
0.38743716 -0.52293432 2.223 nan
0.39167145 -0.52293432 2.223 nan
0.39590573 -0.52293432 2.223 nan
0.40266001 -0.52622765 2.237 nan
0.40692097 -0.52622765 2.237 nan
0.41118193 -0.52622765 2.237 nan
-0.16682 -0.71703339 3.0730002 nan
-0.1595524 -0.71073335 3.0460002 -3.356797e+38
-0.15375048 -0.71073335 3.0460002 -1.7287385e+38
-0.14663716 -0.70443338 3.0190001 -2.0612394e+38
-0.13967334 -0.6983667 2.993 -2.3818191e+38
-0.13280858 -0.69230002 2.9670002 -2.381982e+38
-0.11901429 -0.64796668 2.7770002 -2.3819305e+38
-0.11278287 -0.64260006 2.7540002 -2.3558656e+38
-0.1058581 -0.63256669 2.7110002 -2.3302168e+38
-0.09991429 -0.62766671 2.6900001 -2.3033737e+38
-0.094790481 -0.62766671 2.6900001 -2.2894575e+38
-0.089666672 -0.62766671 2.6900001 -2.2891969e+38
-0.084542863 -0.62766671 2.6900001 -2.2889882e+38
-0.078799054 -0.62276673 2.6690001 -2.2755908e+38
-0.07371524 -0.62276673 2.6690001 -2.275434e+38
-0.068631433 -0.62276673 2.6690001 -2.2489004e+38
-0.06307143 -0.61810005 2.6490002 -2.2356081e+38
-0.058025718 -0.61810005 2.6490002 -2.2089195e+38
-0.052580003 -0.61343336 2.6290002 -2.1821788e+38
-0.047210481 -0.60876673 2.6090002 -2.1822303e+38
-0.042240955 -0.60876673 2.6090002 -2.1689374e+38
-0.037271433 -0.60876673 2.6090002 -2.1689368e+38
-0.032301906 -0.60876673 2.6090002 -2.1821776e+38
-0.027332382 -0.60876673 2.6090002 -2.182178e+38
-0.022362858 -0.60876673 2.6090002 -2.182178e+38
-0.017393334 -0.60876673 2.6090002 -2.1688336e+38
-0.012423811 -0.60876673 2.6090002 -2.1554896e+38
-0.0073971432 -0.60410005 2.5890002 -2.1023206e+38
-0.0024657145 -0.60410005 2.5890002 -2.0624436e+38
0.0024847621 -0.60876673 2.6090002 -2.0890277e+38
0.0074542863 -0.60876673 2.6090002 -2.115664e+38
0.012423811 -0.60876673 2.6090002 -2.1288521e+38
0.017260002 -0.60410005 2.5890002 -2.1553322e+38
0.02219143 -0.60410005 2.5890002 -2.1419871e+38
0.027122859 -0.60410005 2.5890002 -2.1419869e+38
0.032054286 -0.60410005 2.5890002 -2.1419867e+38
0.036985718 -0.60410005 2.5890002 -2.1419869e+38
0.041609526 -0.59966671 2.5700002 -2.1286429e+38
0.046504766 -0.59966671 2.5700002 -2.1152993e+38
0.051400002 -0.59966671 2.5700002 -2.1151442e+38
0.056295242 -0.59966671 2.5700002 -2.1149365e+38
0.061190479 -0.59966671 2.5700002 -2.0884556e+38
0.065597147 -0.59523338 2.5510001 -2.0619233e+38
0.070980959 -0.59966671 2.5700002 -2.0486834e+38
0.075315244 -0.59523338 2.5510001 -2.0486313e+38
0.080771431 -0.59966671 2.5700002 -2.0354426e+38
0.085666671 -0.59966671 2.5700002 -2.0354942e+38
0.090561911 -0.59966671 2.5700002 -1.9823246e+38
0.095457152 -0.59966671 2.5700002 -1.9425518e+38
0.10035238 -0.59966671 2.5700002 -1.9558441e+38
0.10524762 -0.59966671 2.5700002 -1.9690847e+38
0.11014286 -0.59966671 2.5700002 -1.9823252e+38
0.1150381 -0.59966671 2.5700002 -2.0088579e+38
0.11993334 -0.59966671 2.5700002 -2.0220463e+38
0.12575144 -0.60410005 2.5890002 -2.0352345e+38
0.13068287 -0.60410005 2.5890002 -2.0351822e+38
0.13561429 -0.60410005 2.5890002 -2.0352335e+38
0.14054573 -0.60410005 2.5890002 -2.0351808e+38
0.14660096 -0.60876673 2.6090002 -2.048525e+38
0.15157048 -0.60876673 2.6090002 -2.0219924e+38
0.15654001 -0.60876673 2.6090002 -2.0087011e+38
0.16027144 -0.60410005 2.5890002 -2.0087538e+38
0.16520287 -0.60410005 2.5890002 -2.0220461e+38
0.17013429 -0.60410005 2.5890002 -2.0353901e+38
0.17378096 -0.59966671 2.5700002 -2.0487345e+38
0.1786762 -0.59966671 2.5700002 -2.0753193e+38
0.1822143 -0.59523338 2.5510001 -2.101956e+38
0.18707335 -0.59523338 2.5510001 -2.1153523e+38
0.1919324 -0.59523338 2.5510001 -2.1286973e+38
0.19679144 -0.59523338 2.5510001 -2.1155095e+38
0.20165049 -0.59523338 2.5510001 -2.1156141e+38
0.20650953 -0.59523338 2.5510001 -2.1156147e+38
0.2097943 -0.59080005 2.5320001 -2.1289587e+38
0.21461716 -0.59080005 2.5320001 -2.1289585e+38
0.21944001 -0.59080005 2.5320001 -2.1423551e+38
0.22426288 -0.59080005 2.5320001 -2.1556997e+38
0.22908573 -0.59080005 2.5320001 -2.1690962e+38
0.23390859 -0.59080005 2.5320001 -2.2089733e+38
0.23873144 -0.59080005 2.5320001 -2.2489554e+38
0.24355431 -0.59080005 2.5320001 -2.2889373e+38
0.24837716 -0.59080005 2.5320001 -2.3290232e+38
0.25320002 -0.59080005 2.5320001 -2.3557128e+38
0.2561886 -0.58660007 2.5140002 -2.3825586e+38
0.26097715 -0.58660007 2.5140002 -2.3826639e+38
0.26576573 -0.58660007 2.5140002 -2.3830223e+38
0.2705543 -0.58660007 2.5140002 -2.1690944e+38
0.27534288 -0.58660007 2.5140002 -1.9707665e+38
0.28013146 -0.58660007 2.5140002 nan
0.28288001 -0.58240002 2.4960001 nan
0.28763431 -0.58240002 2.4960001 nan
0.30055144 -0.56210005 2.4090002 nan
0.2988067 -0.5504334 2.3590002 nan
0.30330002 -0.5504334 2.3590002 nan
0.30570573 -0.54670006 2.3430002 nan
0.30805048 -0.54296672 2.3270001 nan
0.31248286 -0.54296672 2.3270001 nan
0.31487241 -0.53946668 2.312 nan
0.31927621 -0.53946668 2.312 nan
0.32158002 -0.53596669 2.2970002 nan
0.32595527 -0.53596669 2.2970002 nan
0.32802954 -0.53223336 2.2810001 nan
0.3323743 -0.53223336 2.2810001 nan
0.33671907 -0.53223336 2.2810001 nan
0.34106383 -0.53223336 2.2810001 nan
0.34313717 -0.52873337 2.266 nan
0.34745336 -0.52873337 2.266 nan
0.3495962 -0.52546668 2.2520001 nan
0.35388574 -0.52546668 2.2520001 nan
0.35578954 -0.5219667 2.237 nan
0.3600505 -0.5219667 2.237 nan
0.36431146 -0.5219667 2.237 nan
0.36857241 -0.5219667 2.237 nan
0.37050003 -0.51870006 2.223 nan
0.37473431 -0.51870006 2.223 nan
0.3789686 -0.51870006 2.223 nan
0.38320288 -0.51870006 2.223 nan
0.38987717 -0.5219667 2.237 nan
0.39413813 -0.5219667 2.237 nan
0.39839908 -0.5219667 2.237 nan
0.40266001 -0.5219667 2.237 nan
0.40692097 -0.5219667 2.237 nan
-0.17267334 -0.71118003 3.0730002 nan
-0.16682 -0.71118003 3.0730002 nan
-0.1595524 -0.7049315 3.0460002 -3.3570031e+38
-0.15375048 -0.7049315 3.0460002 -1.7035559e+38
-0.14794858 -0.7049315 3.0460002 -1.9673643e+38
-0.14088668 -0.6986829 3.0190001 -2.2348775e+38
-0.13397239 -0.69266576 2.993 -2.2755395e+38
-0.12827143 -0.69266576 2.993 -2.3023322e+38
-0.11278287 -0.63735431 2.7540002 -2.302748e+38
-0.1058581 -0.6274029 2.7110002 -2.2898202e+38
-0.09991429 -0.62254292 2.6900001 -2.3029058e+38
-0.094790481 -0.62254292 2.6900001 -2.3027492e+38
-0.089666672 -0.62254292 2.6900001 -2.2891965e+38
-0.084542863 -0.62254292 2.6900001 -2.2757474e+38
-0.078799054 -0.61768287 2.6690001 -2.2755906e+38
-0.07371524 -0.61768287 2.6690001 -2.2754856e+38
-0.068631433 -0.61768287 2.6690001 -2.2754326e+38
-0.06307143 -0.61305434 2.6490002 -2.2620884e+38
-0.058025718 -0.61305434 2.6490002 -2.2221597e+38
-0.052580003 -0.60842574 2.6290002 -2.1822303e+38
-0.047210481 -0.6037972 2.6090002 -2.1822299e+38
-0.042240955 -0.6037972 2.6090002 -2.1689374e+38
-0.037271433 -0.6037972 2.6090002 -2.1822297e+38
-0.032301906 -0.6037972 2.6090002 -2.1822299e+38
-0.027332382 -0.6037972 2.6090002 -2.1821782e+38
-0.022362858 -0.6037972 2.6090002 -2.1688342e+38
-0.017393334 -0.6037972 2.6090002 -2.1688344e+38
-0.012423811 -0.6037972 2.6090002 -2.1555421e+38
-0.0073971432 -0.5991686 2.5890002 -2.1155616e+38
-0.0024657145 -0.5991686 2.5890002 -2.0757361e+38
0.0024847621 -0.6037972 2.6090002 -2.1023202e+38
0.0074542863 -0.6037972 2.6090002 -2.1155602e+38
0.012423811 -0.6037972 2.6090002 -2.1420405e+38
0.017260002 -0.5991686 2.5890002 -2.1552283e+38
0.02219143 -0.5991686 2.5890002 -2.1551239e+38
0.027122859 -0.5991686 2.5890002 -2.1419352e+38
0.032054286 -0.5991686 2.5890002 -2.1419869e+38
0.036985718 -0.5991686 2.5890002 -2.1419352e+38
0.041917145 -0.5991686 2.5890002 -2.128591e+38
0.046504766 -0.59477144 2.5700002 -2.1152472e+38
0.051400002 -0.59477144 2.5700002 -2.1152476e+38
0.056295242 -0.59477144 2.5700002 -2.1151438e+38
0.061190479 -0.59477144 2.5700002 -2.115144e+38
0.066085719 -0.59477144 2.5700002 -2.115144e+38
0.070980959 -0.59477144 2.5700002 -2.1018519e+38
0.075876199 -0.59477144 2.5700002 -2.0752673e+38
0.080771431 -0.59477144 2.5700002 -2.0886633e+38
0.085666671 -0.59477144 2.5700002 -2.0886111e+38
0.090561911 -0.59477144 2.5700002 -2.0354418e+38
0.095457152 -0.59477144 2.5700002 -1.9690326e+38
0.10109429 -0.5991686 2.5890002 -1.9956173e+38
0.10524762 -0.59477144 2.5700002 -2.0221499e+38
0.11014286 -0.59477144 2.5700002 -2.0353903e+38
0.1150381 -0.59477144 2.5700002 -2.0353903e+38
0.11993334 -0.59477144 2.5700002 -2.0486307e+38
0.12575144 -0.5991686 2.5890002 -2.0618708e+38
0.13068287 -0.5991686 2.5890002 -2.0618706e+38
0.13561429 -0.5991686 2.5890002 -2.0485777e+38
0.14054573 -0.5991686 2.5890002 -2.0485252e+38
0.14660096 -0.6037972 2.6090002 -2.0485254e+38
0.15157048 -0.6037972 2.6090002 -2.0219928e+38
0.15654001 -0.6037972 2.6090002 -1.9821163e+38
0.16150953 -0.6037972 2.6090002 -1.9954611e+38
0.16647905 -0.6037972 2.6090002 -1.9954613e+38
0.17013429 -0.5991686 2.5890002 -2.0220461e+38
0.17506573 -0.5991686 2.5890002 -2.0353905e+38
0.1786762 -0.59477144 2.5700002 -2.048683e+38
0.18357144 -0.59477144 2.5700002 -2.0620793e+38
0.18707335 -0.59037435 2.5510001 -2.0887679e+38
0.1919324 -0.59037435 2.5510001 -2.1154048e+38
0.19679144 -0.59037435 2.5510001 -2.1021131e+38
0.20165049 -0.59037435 2.5510001 -2.0888213e+38
0.20650953 -0.59037435 2.5510001 -2.1154062e+38
0.2097943 -0.5859772 2.5320001 -2.1420946e+38
0.21461716 -0.5859772 2.5320001 -2.1421468e+38
0.21944001 -0.5859772 2.5320001 -2.1423029e+38
0.22426288 -0.5859772 2.5320001 -2.1556995e+38
0.22908573 -0.5859772 2.5320001 -2.1556478e+38
0.23390859 -0.5859772 2.5320001 -2.2087652e+38
0.23873144 -0.5859772 2.5320001 -2.2487988e+38
0.24355431 -0.5859772 2.5320001 -2.2754363e+38
0.24661145 -0.58181149 2.5140002 -2.3021261e+38
0.25140002 -0.58181149 2.5140002 -2.328608e+38
0.2561886 -0.58181149 2.5140002 -2.3422654e+38
0.2591086 -0.57764578 2.4960001 -2.4753975e+38
0.26386288 -0.57764578 2.4960001 -2.5947112e+38
0.26861715 -0.57764578 2.4960001 -2.2336855e+38
0.27337146 -0.57764578 2.4960001 -1.8786022e+38
0.27612001 -0.57348001 2.4780002 nan
0.27880001 -0.5693143 2.46 nan
0.28152668 -0.56538004 2.4430001 nan
0.28618002 -0.56538004 2.4430001 nan
0.28285715 -0.54987431 2.3760002 nan
0.28532669 -0.54594004 2.3590002 nan
0.29596287 -0.55751145 2.4090002 nan
0.2984305 -0.55357718 2.3920002 nan
0.30096003 -0.54987431 2.3760002 nan
0.30330002 -0.54594004 2.3590002 nan
0.30570573 -0.54223716 2.3430002 nan
0.31016859 -0.54223716 2.3430002 nan
0.31248286 -0.53853434 2.3270001 nan
0.31691527 -0.53853434 2.3270001 nan
0.32134765 -0.53853434 2.3270001 nan
0.32368001 -0.53506291 2.312 nan
0.32595527 -0.53159148 2.2970002 nan
0.32802954 -0.5278886 2.2810001 nan
0.3323743 -0.5278886 2.2810001 nan
0.33671907 -0.5278886 2.2810001 nan
0.34106383 -0.5278886 2.2810001 nan
0.34313717 -0.52441716 2.266 nan
0.34745336 -0.52441716 2.266 nan
0.35176954 -0.52441716 2.266 nan
0.35388574 -0.52117717 2.2520001 nan
0.35578954 -0.51770574 2.237 nan
0.3600505 -0.51770574 2.237 nan
0.36431146 -0.51770574 2.237 nan
0.36626574 -0.51446575 2.223 nan
0.37050003 -0.51446575 2.223 nan
0.37473431 -0.51446575 2.223 nan
0.3789686 -0.51446575 2.223 nan
0.38561621 -0.51770574 2.237 nan
0.38987717 -0.51770574 2.237 nan
0.39413813 -0.51770574 2.237 nan
0.39839908 -0.51770574 2.237 nan
0.40536001 -0.52117717 2.2520001 nan
-0.1653543 -0.69912958 3.0460002 nan
-0.1595524 -0.69912958 3.0460002 nan
-0.15238763 -0.69293243 3.0190001 -2.5523924e+38
-0.14794858 -0.69912958 3.0460002 -2.2602632e+38
-0.14088668 -0.69293243 3.0190001 -1.9823768e+38
-0.13397239 -0.68696481 2.993 -2.1691489e+38
-0.12827143 -0.68696481 2.993 -2.3422086e+38
-0.11278287 -0.63210863 2.7540002 -2.3558645e+38
-0.10671715 -0.62728864 2.733 -2.3828136e+38
-0.09991429 -0.61741906 2.6900001 -2.3560741e+38
-0.094790481 -0.61741906 2.6900001 -2.3293331e+38
-0.089666672 -0.61741906 2.6900001 -2.3025403e+38
-0.084542863 -0.61741906 2.6900001 -2.2624547e+38
-0.078799054 -0.61259907 2.6690001 -2.2622979e+38
-0.07371524 -0.61259907 2.6690001 -2.2489527e+38
-0.068631433 -0.61259907 2.6690001 -2.2488477e+38
-0.06307143 -0.60800862 2.6490002 -2.2487438e+38
-0.058025718 -0.60800862 2.6490002 -2.2221593e+38
-0.052180003 -0.59882766 2.6090002 -2.182282e+38
-0.047210481 -0.59882766 2.6090002 -2.1689372e+38
-0.042240955 -0.59882766 2.6090002 -2.1689376e+38
-0.037271433 -0.59882766 2.6090002 -2.1689378e+38
-0.032301906 -0.59882766 2.6090002 -2.1689378e+38
-0.027332382 -0.59882766 2.6090002 -2.168834e+38
-0.022362858 -0.59882766 2.6090002 -2.1554384e+38
-0.017393334 -0.59882766 2.6090002 -2.1555427e+38
-0.012423811 -0.59882766 2.6090002 -2.1423023e+38
-0.0073971432 -0.59423721 2.5890002 -2.1156659e+38
-0.0024657145 -0.59423721 2.5890002 -2.0890288e+38
0.0024847621 -0.59882766 2.6090002 -2.1155087e+38
0.0074542863 -0.59882766 2.6090002 -2.141989e+38
0.012423811 -0.59882766 2.6090002 -2.1552289e+38
0.017393334 -0.59882766 2.6090002 -2.168417e+38
0.022362858 -0.59882766 2.6090002 -2.155176e+38
0.027122859 -0.59423721 2.5890002 -2.1418835e+38
0.032054286 -0.59423721 2.5890002 -2.1419352e+38
0.036985718 -0.59423721 2.5890002 -2.1418833e+38
0.041917145 -0.59423721 2.5890002 -2.1285391e+38
0.046848573 -0.59423721 2.5890002 -2.1151432e+38
0.051780004 -0.59423721 2.5890002 -2.1151953e+38
0.056295242 -0.58987623 2.5700002 -2.1019032e+38
0.061190479 -0.58987623 2.5700002 -2.0885592e+38
0.066085719 -0.58987623 2.5700002 -2.0885073e+38
0.070980959 -0.58987623 2.5700002 -2.088559e+38
0.075876199 -0.58987623 2.5700002 -2.088559e+38
0.080771431 -0.58987623 2.5700002 -2.0753187e+38
0.085666671 -0.58987623 2.5700002 -2.0752667e+38
0.090561911 -0.58987623 2.5700002 -2.0353897e+38
0.095457152 -0.58987623 2.5700002 -2.0087536e+38
0.10109429 -0.59423721 2.5890002 -2.0088059e+38
0.10524762 -0.58987623 2.5700002 -2.022098e+38
0.11095715 -0.59423721 2.5890002 -2.0353901e+38
0.11588858 -0.59423721 2.5890002 -2.0486305e+38
0.12082001 -0.59423721 2.5890002 -2.0486305e+38
0.12575144 -0.59423721 2.5890002 -2.0486305e+38
0.13068287 -0.59423721 2.5890002 -2.0618706e+38
0.13561429 -0.59423721 2.5890002 -2.0752144e+38
0.14054573 -0.59423721 2.5890002 -2.0618177e+38
0.14660096 -0.59882766 2.6090002 -2.0484737e+38
0.15157048 -0.59882766 2.6090002 -2.0219412e+38
0.15654001 -0.59882766 2.6090002 -1.9953048e+38
0.16150953 -0.59882766 2.6090002 -1.9954086e+38
0.16647905 -0.59882766 2.6090002 -1.9954611e+38
0.17144859 -0.59882766 2.6090002 -2.0087538e+38
0.17506573 -0.59423721 2.5890002 -2.0220984e+38
0.1786762 -0.58987623 2.5700002 -2.0220986e+38
0.18357144 -0.58987623 2.5700002 -2.0222027e+38
0.18707335 -0.58551526 2.5510001 -2.0488913e+38
0.1919324 -0.58551526 2.5510001 -2.075528e+38
0.19679144 -0.58551526 2.5510001 -2.0887166e+38
0.20165049 -0.58551526 2.5510001 -2.1019572e+38
0.20497145 -0.58115435 2.5320001 -2.1153535e+38
0.2097943 -0.58115435 2.5320001 -2.1286981e+38
0.21461716 -0.58115435 2.5320001 -2.1420944e+38
0.21944001 -0.58115435 2.5320001 -2.1554912e+38
0.22426288 -0.58115435 2.5320001 -2.1554916e+38
0.22908573 -0.58115435 2.5320001 -2.1554399e+38
0.23390859 -0.58115435 2.5320001 -2.1821283e+38
0.23703431 -0.57702291 2.5140002 -2.2087656e+38
0.24182287 -0.57702291 2.5140002 -2.2354546e+38
0.24661145 -0.57702291 2.5140002 -2.2621444e+38
0.25140002 -0.57702291 2.5140002 -2.2754898e+38
0.2561886 -0.57702291 2.5140002 -2.3021281e+38
0.2591086 -0.57289147 2.4960001 -2.3955911e+38
0.26386288 -0.57289147 2.4960001 -2.4892027e+38
0.26668003 -0.56876004 2.4780002 -2.1680537e+38
0.2714 -0.56876004 2.4780002 -1.8491087e+38
0.27612001 -0.56876004 2.4780002 -3.3589946e+38
0.27880001 -0.5646286 2.46 nan
0.27956763 -0.5568248 2.4260001 nan
0.28219715 -0.5529229 2.4090002 nan
0.28476194 -0.54902101 2.3920002 nan
0.28738287 -0.54534858 2.3760002 nan
0.29387429 -0.54902101 2.3920002 nan
0.2984305 -0.54902101 2.3920002 nan
0.2988067 -0.54144669 2.3590002 nan
0.30330002 -0.54144669 2.3590002 nan
0.30570573 -0.53777432 2.3430002 nan
0.31016859 -0.53777432 2.3430002 nan
0.31463146 -0.53777432 2.3430002 nan
0.31691527 -0.53410196 2.3270001 nan
0.32134765 -0.53410196 2.3270001 nan
0.32368001 -0.53065908 2.312 nan
0.32595527 -0.5272162 2.2970002 nan
0.33033049 -0.5272162 2.2970002 nan
0.3323743 -0.52354383 2.2810001 nan
0.33671907 -0.52354383 2.2810001 nan
0.33882096 -0.52010101 2.266 nan
0.34313717 -0.52010101 2.266 nan
0.34745336 -0.52010101 2.266 nan
0.3495962 -0.51688766 2.2520001 nan
0.35388574 -0.51688766 2.2520001 nan
0.35578954 -0.51344478 2.237 nan
0.3600505 -0.51344478 2.237 nan
0.36431146 -0.51344478 2.237 nan
0.36626574 -0.51023144 2.223 nan
0.37050003 -0.51023144 2.223 nan
0.37473431 -0.51023144 2.223 nan
