# .PCD v0.7 - Point Cloud Data file format
VERSION 0.7
FIELDS x y z rgb
SIZE 4 4 4 4
TYPE F F F F
COUNT 1 1 1 1
WIDTH 1338
HEIGHT 1
VIEWPOINT 0 0 0 1 0 0 0
POINTS 1338
DATA ascii
0.33379912 0.54929107 2.0087171 nan
0.36074662 0.54454225 2.0019026 nan
0.36265016 0.54996866 2.0019026 nan
0.36455369 0.55539495 2.0019026 nan
0.36645722 0.56082124 2.0019026 nan
0.34340191 0.5766651 2.0087171 nan
0.34532237 0.58214003 2.0087171 nan
0.34724283 0.58761483 2.0087171 nan
0.37407112 0.58252639 2.0019026 nan
0.35108399 0.59856445 2.0087171 nan
0.40183043 0.58311349 1.9953407 nan
0.40371752 0.58849305 1.9953407 nan
0.4056046 0.59387261 1.9953407 nan
0.43139482 0.58884674 1.9887788 nan
0.40937901 0.60463184 1.9953407 nan
0.43513632 0.5995124 1.9887788 nan
0.43700695 0.60484523 1.9887788 nan
0.43887782 0.61017805 1.9887788 nan
0.44074845 0.61551088 1.9887788 nan
0.44261909 0.62084371 1.9887788 nan
0.44448996 0.62617654 1.9887788 nan
0.44636059 0.63150936 1.9887788 nan
0.44823122 0.63684219 1.9887788 nan
0.45010209 0.64217502 1.9887788 nan
0.45197272 0.64750785 1.9887788 nan
0.45384336 0.65284067 1.9887788 nan
0.45571423 0.6581735 1.9887788 nan
0.45758486 0.66350633 1.9887788 nan
0.45945549 0.66883916 1.9887788 nan
0.46132636 0.67417198 1.9887788 nan
0.46319699 0.67950481 1.9887788 nan
0.46506786 0.68483764 1.9887788 nan
0.4669385 0.69017047 1.9887788 nan
0.46880913 0.69550341 1.9887788 nan
0.47068 0.70083612 1.9887788 nan
0.47255063 0.70616907 1.9887788 nan
0.47442126 0.71150178 1.9887788 nan
0.47629213 0.71683472 1.9887788 nan
0.47816277 0.72216743 1.9887788 nan
0.50260735 0.71632653 1.9824693 nan
0.48190427 0.73283309 1.9887788 nan
0.50631714 0.72690243 1.9824693 nan
0.50817227 0.73219031 1.9824693 nan
0.51002717 0.7374782 1.9824693 nan
0.51188207 0.74276608 1.9824693 nan
0.51373696 0.74805397 1.9824693 nan
0.5155921 0.75334185 1.9824693 nan
0.51744699 0.75862974 1.9824693 nan
0.51930189 0.76391762 1.9824693 nan
0.52115679 0.76920551 1.9824693 nan
0.50061131 0.78616148 1.9887788 nan
0.50248194 0.79149431 1.9887788 nan
0.50435281 0.79682714 1.9887788 nan
0.50622344 0.80215997 1.9887788 nan
0.1436789 0.43025631 2.0379817 nan
0.14568782 0.43598264 2.0379817 nan
0.1476965 0.44170922 2.0379817 nan
0.14970541 0.44743556 2.0379817 nan
0.17908859 0.44358855 2.0307178 nan
0.18107891 0.44926292 2.0307178 nan
0.20946431 0.4455933 2.0237045 nan
0.23781466 0.44182307 2.0166912 nan
0.21341014 0.45684141 2.0237045 nan
0.21538281 0.46246535 2.0237045 nan
0.21735573 0.4680894 2.0237045 nan
0.21932864 0.47371334 2.0237045 nan
0.22130156 0.47933739 2.0237045 nan
0.22327423 0.48496133 2.0237045 nan
0.25150108 0.48083872 2.0166912 nan
0.27969241 0.47661561 2.0096779 nan
0.28163004 0.48213893 2.0096779 nan
0.28356743 0.48766226 2.0096779 nan
0.28550506 0.4931857 2.0096779 nan
0.28744268 0.49870902 2.0096779 nan
0.31459403 0.49454278 2.0029149 nan
0.31651449 0.50001758 2.0029149 nan
0.31843495 0.50549251 2.0029149 nan
0.32035542 0.51096731 2.0029149 nan
0.32227612 0.51644212 2.0029149 nan
0.32419658 0.52191693 2.0029149 nan
0.35122919 0.51741081 1.9961522 nan
0.35313272 0.5228371 1.9961522 nan
0.35503626 0.52826339 1.9961522 nan
0.33187866 0.54381627 2.0029149 nan
0.35884309 0.53911597 1.9961522 nan
0.36074662 0.54454225 1.9961522 nan
0.36265016 0.54996866 1.9961522 nan
0.36455369 0.55539495 1.9961522 nan
0.36645722 0.56082124 1.9961522 nan
0.34340191 0.5766651 2.0029149 nan
0.34532237 0.58214003 2.0029149 nan
0.34724283 0.58761483 2.0029149 nan
0.34916329 0.59308964 2.0029149 nan
0.35108399 0.59856445 2.0029149 nan
0.35300446 0.60403925 2.0029149 nan
0.37978172 0.59880525 1.9961522 nan
0.4056046 0.59387261 1.9896398 nan
0.40749168 0.59925216 1.9896398 nan
0.43326569 0.59417957 1.9831274 nan
0.43513632 0.5995124 1.9831274 nan
0.43700695 0.60484523 1.9831274 nan
0.43887782 0.61017805 1.9831274 nan
0.44074845 0.61551088 1.9831274 nan
0.44261909 0.62084371 1.9831274 nan
0.44448996 0.62617654 1.9831274 nan
0.44636059 0.63150936 1.9831274 nan
0.44823122 0.63684219 1.9831274 nan
0.45010209 0.64217502 1.9831274 nan
0.45197272 0.64750785 1.9831274 nan
0.45384336 0.65284067 1.9831274 nan
0.45571423 0.6581735 1.9831274 nan
0.45758486 0.66350633 1.9831274 nan
0.45945549 0.66883916 1.9831274 nan
0.46132636 0.67417198 1.9831274 nan
0.46319699 0.67950481 1.9831274 nan
0.46506786 0.68483764 1.9831274 nan
0.48962259 0.67931134 1.9768655 nan
0.46880913 0.69550341 1.9831274 nan
0.47068 0.70083612 1.9831274 nan
0.47255063 0.70616907 1.9831274 nan
0.47442126 0.71150178 1.9831274 nan
0.47629213 0.71683472 1.9831274 nan
0.47816277 0.72216743 1.9831274 nan
0.50260735 0.71632653 1.9768655 nan
0.48190427 0.73283309 1.9831274 nan
0.50631714 0.72690243 1.9768655 nan
0.50817227 0.73219031 1.9768655 nan
0.51002717 0.7374782 1.9768655 nan
0.51188207 0.74276608 1.9768655 nan
0.51373696 0.74805397 1.9768655 nan
0.5155921 0.75334185 1.9768655 nan
0.51744699 0.75862974 1.9768655 nan
0.51930189 0.76391762 1.9768655 nan
0.52115679 0.76920551 1.9768655 nan
0.50061131 0.78616148 1.9831274 nan
0.50248194 0.79149431 1.9831274 nan
0.50435281 0.79682714 1.9831274 nan
0.50622344 0.80215997 1.9831274 nan
0.1436789 0.43025631 2.031913 nan
0.14568782 0.43598264 2.031913 nan
0.1476965 0.44170922 2.031913 nan
0.14970541 0.44743556 2.031913 nan
0.17908859 0.44358855 2.0247045 nan
0.2074914 0.43996936 2.0177445 nan
0.20946431 0.4455933 2.0177445 nan
0.23781466 0.44182307 2.0107846 nan
0.2397697 0.4473967 2.0107846 nan
0.24172497 0.45297033 2.0107846 nan
0.24368024 0.45854408 2.0107846 nan
0.21932864 0.47371334 2.0177445 nan
0.22130156 0.47933739 2.0177445 nan
0.22327423 0.48496133 2.0177445 nan
0.27775478 0.47109228 2.0038245 nan
0.27969241 0.47661561 2.0038245 nan
0.28163004 0.48213893 2.0038245 nan
0.28356743 0.48766226 2.0038245 nan
0.28550506 0.4931857 2.0038245 nan
0.28744268 0.49870902 2.0038245 nan
0.31459403 0.49454278 1.9971131 nan
0.31651449 0.50001758 1.9971131 nan
0.31843495 0.50549251 1.9971131 nan
0.32035542 0.51096731 1.9971131 nan
0.32227612 0.51644212 1.9971131 nan
0.32419658 0.52191693 1.9971131 nan
0.35122919 0.51741081 1.9904017 nan
0.3280375 0.53286654 1.9971131 nan
0.35503626 0.52826339 1.9904017 nan
0.33187866 0.54381627 1.9971131 nan
0.33379912 0.54929107 1.9971131 nan
0.36074662 0.54454225 1.9904017 nan
0.36265016 0.54996866 1.9904017 nan
0.33956075 0.56571549 1.9971131 nan
0.36645722 0.56082124 1.9904017 nan
0.34340191 0.5766651 1.9971131 nan
0.37026429 0.57167381 1.9904017 nan
0.34724283 0.58761483 1.9971131 nan
0.34916329 0.59308964 1.9971131 nan
0.35108399 0.59856445 1.9971131 nan
0.37787819 0.59337896 1.9904017 nan
0.40371752 0.58849305 1.9839388 nan
0.4056046 0.59387261 1.9839388 nan
0.43139482 0.58884674 1.9774759 nan
0.43326569 0.59417957 1.9774759 nan
0.43513632 0.5995124 1.9774759 nan
0.43700695 0.60484523 1.9774759 nan
0.43887782 0.61017805 1.9774759 nan
0.44074845 0.61551088 1.9774759 nan
0.44261909 0.62084371 1.9774759 nan
0.44448996 0.62617654 1.9774759 nan
0.44636059 0.63150936 1.9774759 nan
0.44823122 0.63684219 1.9774759 nan
0.45010209 0.64217502 1.9774759 nan
0.45197272 0.64750785 1.9774759 nan
0.45384336 0.65284067 1.9774759 nan
0.45571423 0.6581735 1.9774759 nan
0.45758486 0.66350633 1.9774759 nan
0.45945549 0.66883916 1.9774759 nan
0.46132636 0.67417198 1.9774759 nan
0.46319699 0.67950481 1.9774759 nan
0.46506786 0.68483764 1.9774759 nan
0.4669385 0.69017047 1.9774759 nan
0.46880913 0.69550341 1.9774759 nan
0.47068 0.70083612 1.9774759 nan
0.47255063 0.70616907 1.9774759 nan
0.47442126 0.71150178 1.9774759 nan
0.47629213 0.71683472 1.9774759 nan
0.47816277 0.72216743 1.9774759 nan
0.50260735 0.71632653 1.9712617 nan
0.48190427 0.73283309 1.9774759 nan
0.50631714 0.72690243 1.9712617 nan
0.50817227 0.73219031 1.9712617 nan
0.51002717 0.7374782 1.9712617 nan
0.51188207 0.74276608 1.9712617 nan
0.51373696 0.74805397 1.9712617 nan
0.5155921 0.75334185 1.9712617 nan
0.51744699 0.75862974 1.9712617 nan
0.51930189 0.76391762 1.9712617 nan
0.52115679 0.76920551 1.9712617 nan
0.52301168 0.7744934 1.9712617 nan
0.50248194 0.79149431 1.9774759 nan
0.50435281 0.79682714 1.9774759 nan
0.50622344 0.80215997 1.9774759 nan
0.1436789 0.43025631 2.0258446 nan
0.14568782 0.43598264 2.0258446 nan
0.1476965 0.44170922 2.0258446 nan
0.14970541 0.44743556 2.0258446 nan
0.17908859 0.44358855 2.0186911 nan
0.2074914 0.43996936 2.0117846 nan
0.20946431 0.4455933 2.0117846 nan
0.23781466 0.44182307 2.0048778 nan
0.2397697 0.4473967 2.0048778 nan
0.24172497 0.45297033 2.0048778 nan
0.24368024 0.45854408 2.0048778 nan
0.21932864 0.47371334 2.0117846 nan
0.22130156 0.47933739 2.0117846 nan
0.24954581 0.47526509 2.0048778 nan
0.27775478 0.47109228 1.9979712 nan
0.27969241 0.47661561 1.9979712 nan
0.28163004 0.48213893 1.9979712 nan
0.28356743 0.48766226 1.9979712 nan
0.28550506 0.4931857 1.9979712 nan
0.28744268 0.49870902 1.9979712 nan
0.31459403 0.49454278 1.9913112 nan
0.31651449 0.50001758 1.9913112 nan
0.31843495 0.50549251 1.9913112 nan
0.32035542 0.51096731 1.9913112 nan
0.32227612 0.51644212 1.9913112 nan
0.32419658 0.52191693 1.9913112 nan
0.35122919 0.51741081 1.9846512 nan
0.35313272 0.5228371 1.9846512 nan
0.35503626 0.52826339 1.9846512 nan
0.33187866 0.54381627 1.9913112 nan
0.35884309 0.53911597 1.9846512 nan
0.36074662 0.54454225 1.9846512 nan
0.36265016 0.54996866 1.9846512 nan
0.36455369 0.55539495 1.9846512 nan
0.36645722 0.56082124 1.9846512 nan
0.34340191 0.5766651 1.9913112 nan
0.37026429 0.57167381 1.9846512 nan
0.34724283 0.58761483 1.9913112 nan
0.37407112 0.58252639 1.9846512 nan
0.37597466 0.58795267 1.9846512 nan
0.37787819 0.59337896 1.9846512 nan
0.40371752 0.58849305 1.9782379 nan
0.4056046 0.59387261 1.9782379 nan
0.40749168 0.59925216 1.9782379 nan
0.43326569 0.59417957 1.9718245 nan
0.43513632 0.5995124 1.9718245 nan
0.41315317 0.61539096 1.9782379 nan
0.43887782 0.61017805 1.9718245 nan
0.44074845 0.61551088 1.9718245 nan
0.44261909 0.62084371 1.9718245 nan
0.44448996 0.62617654 1.9718245 nan
0.44636059 0.63150936 1.9718245 nan
0.44823122 0.63684219 1.9718245 nan
0.45010209 0.64217502 1.9718245 nan
0.45197272 0.64750785 1.9718245 nan
0.43013716 0.66380697 1.9782379 nan
0.43202424 0.66918653 1.9782379 nan
0.45758486 0.66350633 1.9718245 nan
0.45945549 0.66883916 1.9718245 nan
0.46132636 0.67417198 1.9718245 nan
0.46319699 0.67950481 1.9718245 nan
0.46506786 0.68483764 1.9718245 nan
0.48962259 0.67931134 1.9656579 nan
0.49147773 0.68459922 1.9656579 nan
0.49333262 0.68988711 1.9656579 nan
0.49518752 0.69517499 1.9656579 nan
0.49704242 0.70046288 1.9656579 nan
0.49889731 0.70575076 1.9656579 nan
0.50075245 0.71103865 1.9656579 nan
0.50260735 0.71632653 1.9656579 nan
0.50446224 0.72161454 1.9656579 nan
0.50631714 0.72690243 1.9656579 nan
0.50817227 0.73219031 1.9656579 nan
0.51002717 0.7374782 1.9656579 nan
0.51188207 0.74276608 1.9656579 nan
0.51373696 0.74805397 1.9656579 nan
0.5155921 0.75334185 1.9656579 nan
0.51744699 0.75862974 1.9656579 nan
0.51930189 0.76391762 1.9656579 nan
0.52115679 0.76920551 1.9656579 nan
0.52301168 0.7744934 1.9656579 nan
0.52486682 0.77978128 1.9656579 nan
0.52672172 0.78506917 1.9656579 nan
0.52857661 0.79035717 1.9656579 nan
0.1436789 0.43025631 2.0197759 nan
0.14568782 0.43598264 2.0197759 nan
0.17510748 0.43223995 2.0126779 nan
0.14970541 0.44743556 2.0197759 nan
0.20551872 0.4343453 2.0058246 nan
0.2074914 0.43996936 2.0058246 nan
0.20946431 0.4455933 2.0058246 nan
0.23781466 0.44182307 1.9989712 nan
0.2397697 0.4473967 1.9989712 nan
0.24172497 0.45297033 1.9989712 nan
0.24368024 0.45854408 1.9989712 nan
0.21932864 0.47371334 2.0058246 nan
0.27387977 0.46004552 1.9921179 nan
0.27581739 0.46556896 1.9921179 nan
0.27775478 0.47109228 1.9921179 nan
0.27969241 0.47661561 1.9921179 nan
0.28163004 0.48213893 1.9921179 nan
0.28356743 0.48766226 1.9921179 nan
0.28550506 0.4931857 1.9921179 nan
0.28744268 0.49870902 1.9921179 nan
0.31459403 0.49454278 1.9855093 nan
0.31651449 0.50001758 1.9855093 nan
0.31843495 0.50549251 1.9855093 nan
0.32035542 0.51096731 1.9855093 nan
0.32227612 0.51644212 1.9855093 nan
0.32419658 0.52191693 1.9855093 nan
0.32611704 0.52739173 1.9855093 nan
0.3280375 0.53286654 1.9855093 nan
0.3299582 0.53834146 1.9855093 nan
0.33187866 0.54381627 1.9855093 nan
0.33379912 0.54929107 1.9855093 nan
0.33571959 0.55476588 1.9855093 nan
0.33764029 0.56024069 1.9855093 nan
0.33956075 0.56571549 1.9855093 nan
0.34148121 0.5711903 1.9855093 nan
0.34340191 0.5766651 1.9855093 nan
0.34532237 0.58214003 1.9855093 nan
0.34724283 0.58761483 1.9855093 nan
0.34916329 0.59308964 1.9855093 nan
0.35108399 0.59856445 1.9855093 nan
0.37787819 0.59337896 1.9789007 nan
0.37978172 0.59880525 1.9789007 nan
0.4056046 0.59387261 1.9725369 nan
0.40749168 0.59925216 1.9725369 nan
0.43326569 0.59417957 1.9661732 nan
0.43513632 0.5995124 1.9661732 nan
0.41315317 0.61539096 1.9725369 nan
0.43887782 0.61017805 1.9661732 nan
0.44074845 0.61551088 1.9661732 nan
0.44261909 0.62084371 1.9661732 nan
0.44448996 0.62617654 1.9661732 nan
0.44636059 0.63150936 1.9661732 nan
0.44823122 0.63684219 1.9661732 nan
0.45010209 0.64217502 1.9661732 nan
0.42825007 0.65842742 1.9725369 nan
0.43013716 0.66380697 1.9725369 nan
0.43202424 0.66918653 1.9725369 nan
0.43391132 0.67456609 1.9725369 nan
0.45945549 0.66883916 1.9661732 nan
0.46132636 0.67417198 1.9661732 nan
0.46319699 0.67950481 1.9661732 nan
0.46506786 0.68483764 1.9661732 nan
0.48962259 0.67931134 1.960054 nan
0.49147773 0.68459922 1.960054 nan
0.49333262 0.68988711 1.960054 nan
0.49518752 0.69517499 1.960054 nan
0.49704242 0.70046288 1.960054 nan
0.49889731 0.70575076 1.960054 nan
0.50075245 0.71103865 1.960054 nan
0.50260735 0.71632653 1.960054 nan
0.50446224 0.72161454 1.960054 nan
0.50631714 0.72690243 1.960054 nan
0.50817227 0.73219031 1.960054 nan
0.51002717 0.7374782 1.960054 nan
0.51188207 0.74276608 1.960054 nan
0.51373696 0.74805397 1.960054 nan
0.5155921 0.75334185 1.960054 nan
0.51744699 0.75862974 1.960054 nan
0.51930189 0.76391762 1.960054 nan
0.52115679 0.76920551 1.960054 nan
0.52301168 0.7744934 1.960054 nan
0.52486682 0.77978128 1.960054 nan
0.50435281 0.79682714 1.9661732 nan
0.50622344 0.80215997 1.9661732 nan
0.17112637 0.42089123 2.0066645 nan
0.17311692 0.42656559 2.0066645 nan
0.17510748 0.43223995 2.0066645 nan
0.14970541 0.44743556 2.0137074 nan
0.17908859 0.44358855 2.0066645 nan
0.2074914 0.43996936 1.9998646 nan
0.20946431 0.4455933 1.9998646 nan
0.23781466 0.44182307 1.9930645 nan
0.26612949 0.4379521 1.9862645 nan
0.24172497 0.45297033 1.9930645 nan
0.27000475 0.44899887 1.9862645 nan
0.24563551 0.46411771 1.9930645 nan
0.27387977 0.46004552 1.9862645 nan
0.24954581 0.47526509 1.9930645 nan
0.27775478 0.47109228 1.9862645 nan
0.27969241 0.47661561 1.9862645 nan
0.28163004 0.48213893 1.9862645 nan
0.28356743 0.48766226 1.9862645 nan
0.28550506 0.4931857 1.9862645 nan
0.31267333 0.48906797 1.9797075 nan
0.31459403 0.49454278 1.9797075 nan
0.2913177 0.50975567 1.9862645 nan
0.29325533 0.51527911 1.9862645 nan
0.32035542 0.51096731 1.9797075 nan
0.32227612 0.51644212 1.9797075 nan
0.32419658 0.52191693 1.9797075 nan
0.32611704 0.52739173 1.9797075 nan
0.3280375 0.53286654 1.9797075 nan
0.3299582 0.53834146 1.9797075 nan
0.33187866 0.54381627 1.9797075 nan
0.33379912 0.54929107 1.9797075 nan
0.36074662 0.54454225 1.9731503 nan
0.33764029 0.56024069 1.9797075 nan
0.33956075 0.56571549 1.9797075 nan
0.34148121 0.5711903 1.9797075 nan
0.34340191 0.5766651 1.9797075 nan
0.34532237 0.58214003 1.9797075 nan
0.34724283 0.58761483 1.9797075 nan
0.34916329 0.59308964 1.9797075 nan
0.37597466 0.58795267 1.9731503 nan
0.37787819 0.59337896 1.9731503 nan
0.37978172 0.59880525 1.9731503 nan
0.38168526 0.60423154 1.9731503 nan
0.40749168 0.59925216 1.966836 nan
0.43326569 0.59417957 1.9605217 nan
0.43513632 0.5995124 1.9605217 nan
0.41315317 0.61539096 1.966836 nan
0.43887782 0.61017805 1.9605217 nan
0.44074845 0.61551088 1.9605217 nan
0.44261909 0.62084371 1.9605217 nan
0.44448996 0.62617654 1.9605217 nan
0.44636059 0.63150936 1.9605217 nan
0.44823122 0.63684219 1.9605217 nan
0.45010209 0.64217502 1.9605217 nan
0.45197272 0.64750785 1.9605217 nan
0.43013716 0.66380697 1.966836 nan
0.43202424 0.66918653 1.966836 nan
0.43391132 0.67456609 1.966836 nan
0.43579841 0.67994565 1.966836 nan
0.43768549 0.68532521 1.966836 nan
0.46319699 0.67950481 1.9605217 nan
0.46506786 0.68483764 1.9605217 nan
0.48962259 0.67931134 1.9544502 nan
0.49147773 0.68459922 1.9544502 nan
0.49333262 0.68988711 1.9544502 nan
0.49518752 0.69517499 1.9544502 nan
0.49704242 0.70046288 1.9544502 nan
0.49889731 0.70575076 1.9544502 nan
0.50075245 0.71103865 1.9544502 nan
0.50260735 0.71632653 1.9544502 nan
0.50446224 0.72161454 1.9544502 nan
0.50631714 0.72690243 1.9544502 nan
0.50817227 0.73219031 1.9544502 nan
0.51002717 0.7374782 1.9544502 nan
0.51188207 0.74276608 1.9544502 nan
0.51373696 0.74805397 1.9544502 nan
0.5155921 0.75334185 1.9544502 nan
0.51744699 0.75862974 1.9544502 nan
0.51930189 0.76391762 1.9544502 nan
0.52115679 0.76920551 1.9544502 nan
0.52301168 0.7744934 1.9544502 nan
0.52486682 0.77978128 1.9544502 nan
0.50435281 0.79682714 1.9605217 nan
0.50622344 0.80215997 1.9605217 nan
0.1436789 0.43025631 2.0076389 nan
0.14568782 0.43598264 2.0076389 nan
0.1476965 0.44170922 2.0076389 nan
0.14970541 0.44743556 2.0076389 nan
0.17908859 0.44358855 2.0006511 nan
0.2074914 0.43996936 1.9939046 nan
0.20946431 0.4455933 1.9939046 nan
0.23781466 0.44182307 1.9871578 nan
0.2397697 0.4473967 1.9871578 nan
0.24172497 0.45297033 1.9871578 nan
0.27000475 0.44899887 1.9804112 nan
0.27194214 0.45452219 1.9804112 nan
0.27387977 0.46004552 1.9804112 nan
0.27581739 0.46556896 1.9804112 nan
0.27775478 0.47109228 1.9804112 nan
0.27969241 0.47661561 1.9804112 nan
0.28163004 0.48213893 1.9804112 nan
0.28356743 0.48766226 1.9804112 nan
0.28550506 0.4931857 1.9804112 nan
0.28744268 0.49870902 1.9804112 nan
0.28938007 0.50423235 1.9804112 nan
0.2913177 0.50975567 1.9804112 nan
0.29325533 0.51527911 1.9804112 nan
0.32035542 0.51096731 1.9739056 nan
0.32227612 0.51644212 1.9739056 nan
0.32419658 0.52191693 1.9739056 nan
0.32611704 0.52739173 1.9739056 nan
0.3280375 0.53286654 1.9739056 nan
0.3299582 0.53834146 1.9739056 nan
0.33187866 0.54381627 1.9739056 nan
0.33379912 0.54929107 1.9739056 nan
0.36074662 0.54454225 1.9673998 nan
0.33764029 0.56024069 1.9739056 nan
0.33956075 0.56571549 1.9739056 nan
0.34148121 0.5711903 1.9739056 nan
0.34340191 0.5766651 1.9739056 nan
0.34532237 0.58214003 1.9739056 nan
0.34724283 0.58761483 1.9739056 nan
0.34916329 0.59308964 1.9739056 nan
0.37597466 0.58795267 1.9673998 nan
0.37787819 0.59337896 1.9673998 nan
0.37978172 0.59880525 1.9673998 nan
0.4056046 0.59387261 1.961135 nan
0.40749168 0.59925216 1.961135 nan
0.43326569 0.59417957 1.9548702 nan
0.43513632 0.5995124 1.9548702 nan
0.43700695 0.60484523 1.9548702 nan
0.43887782 0.61017805 1.9548702 nan
0.44074845 0.61551088 1.9548702 nan
0.44261909 0.62084371 1.9548702 nan
0.44448996 0.62617654 1.9548702 nan
0.44636059 0.63150936 1.9548702 nan
0.44823122 0.63684219 1.9548702 nan
0.45010209 0.64217502 1.9548702 nan
0.42825007 0.65842742 1.961135 nan
0.43013716 0.66380697 1.961135 nan
0.43202424 0.66918653 1.961135 nan
0.43391132 0.67456609 1.961135 nan
0.43579841 0.67994565 1.961135 nan
0.43768549 0.68532521 1.961135 nan
0.46319699 0.67950481 1.9548702 nan
0.46506786 0.68483764 1.9548702 nan
0.48962259 0.67931134 1.9488465 nan
0.49147773 0.68459922 1.9488465 nan
0.49333262 0.68988711 1.9488465 nan
0.49518752 0.69517499 1.9488465 nan
0.49704242 0.70046288 1.9488465 nan
0.49889731 0.70575076 1.9488465 nan
0.50075245 0.71103865 1.9488465 nan
0.50260735 0.71632653 1.9488465 nan
0.50446224 0.72161454 1.9488465 nan
0.50631714 0.72690243 1.9488465 nan
0.50817227 0.73219031 1.9488465 nan
0.51002717 0.7374782 1.9488465 nan
0.53437734 0.73136765 1.9428227 nan
0.51373696 0.74805397 1.9488465 nan
0.5155921 0.75334185 1.9488465 nan
0.51744699 0.75862974 1.9488465 nan
0.51930189 0.76391762 1.9488465 nan
0.52115679 0.76920551 1.9488465 nan
0.52301168 0.7744934 1.9488465 nan
0.52486682 0.77978128 1.9488465 nan
0.50435281 0.79682714 1.9548702 nan
0.50622344 0.80215997 1.9548702 nan
0.1436789 0.43025631 2.0015702 nan
0.14568782 0.43598264 2.0015702 nan
0.17510748 0.43223995 1.9946378 nan
0.14970541 0.44743556 2.0015702 nan
0.20551872 0.4343453 1.9879446 nan
0.2074914 0.43996936 1.9879446 nan
0.20946431 0.4455933 1.9879446 nan
0.23781466 0.44182307 1.9812512 nan
0.26612949 0.4379521 1.9745579 nan
0.24172497 0.45297033 1.9812512 nan
0.27000475 0.44899887 1.9745579 nan
0.24563551 0.46411771 1.9812512 nan
0.27387977 0.46004552 1.9745579 nan
0.27581739 0.46556896 1.9745579 nan
0.27775478 0.47109228 1.9745579 nan
0.27969241 0.47661561 1.9745579 nan
0.28163004 0.48213893 1.9745579 nan
0.28356743 0.48766226 1.9745579 nan
0.28550506 0.4931857 1.9745579 nan
0.28744268 0.49870902 1.9745579 nan
0.28938007 0.50423235 1.9745579 nan
0.2913177 0.50975567 1.9745579 nan
0.29325533 0.51527911 1.9745579 nan
0.32035542 0.51096731 1.9681036 nan
0.32227612 0.51644212 1.9681036 nan
0.32419658 0.52191693 1.9681036 nan
0.32611704 0.52739173 1.9681036 nan
0.3280375 0.53286654 1.9681036 nan
0.3299582 0.53834146 1.9681036 nan
0.33187866 0.54381627 1.9681036 nan
0.33379912 0.54929107 1.9681036 nan
0.33571959 0.55476588 1.9681036 nan
0.36265016 0.54996866 1.9616493 nan
0.33956075 0.56571549 1.9681036 nan
0.34148121 0.5711903 1.9681036 nan
0.34340191 0.5766651 1.9681036 nan
0.37026429 0.57167381 1.9616493 nan
0.34724283 0.58761483 1.9681036 nan
0.37407112 0.58252639 1.9616493 nan
0.37597466 0.58795267 1.9616493 nan
0.37787819 0.59337896 1.9616493 nan
0.37978172 0.59880525 1.9616493 nan
0.4056046 0.59387261 1.9554341 nan
0.43139482 0.58884674 1.9492188 nan
0.43326569 0.59417957 1.9492188 nan
0.43513632 0.5995124 1.9492188 nan
0.43700695 0.60484523 1.9492188 nan
0.43887782 0.61017805 1.9492188 nan
0.44074845 0.61551088 1.9492188 nan
0.44261909 0.62084371 1.9492188 nan
0.44448996 0.62617654 1.9492188 nan
0.44636059 0.63150936 1.9492188 nan
0.44823122 0.63684219 1.9492188 nan
0.45010209 0.64217502 1.9492188 nan
0.45197272 0.64750785 1.9492188 nan
0.43013716 0.66380697 1.9554341 nan
0.43202424 0.66918653 1.9554341 nan
0.43391132 0.67456609 1.9554341 nan
0.45945549 0.66883916 1.9492188 nan
0.46132636 0.67417198 1.9492188 nan
0.46319699 0.67950481 1.9492188 nan
0.46506786 0.68483764 1.9492188 nan
0.48962259 0.67931134 1.9432425 nan
0.49147773 0.68459922 1.9432425 nan
0.49333262 0.68988711 1.9432425 nan
0.49518752 0.69517499 1.9432425 nan
0.49704242 0.70046288 1.9432425 nan
0.49889731 0.70575076 1.9432425 nan
0.50075245 0.71103865 1.9432425 nan
0.50260735 0.71632653 1.9432425 nan
0.50446224 0.72161454 1.9432425 nan
0.50631714 0.72690243 1.9432425 nan
0.50817227 0.73219031 1.9432425 nan
0.51002717 0.7374782 1.9432425 nan
0.53437734 0.73136765 1.9372663 nan
0.51373696 0.74805397 1.9432425 nan
0.5155921 0.75334185 1.9432425 nan
0.51744699 0.75862974 1.9432425 nan
0.51930189 0.76391762 1.9432425 nan
0.52115679 0.76920551 1.9432425 nan
0.52301168 0.7744934 1.9432425 nan
0.50248194 0.79149431 1.9492188 nan
0.50435281 0.79682714 1.9492188 nan
0.50622344 0.80215997 1.9492188 nan
0.1436789 0.43025631 1.9955018 nan
0.14568782 0.43598264 1.9955018 nan
0.1476965 0.44170922 1.9955018 nan
0.14970541 0.44743556 1.9955018 nan
0.20551872 0.4343453 1.9819846 nan
0.2074914 0.43996936 1.9819846 nan
0.20946431 0.4455933 1.9819846 nan
0.2641921 0.43242878 1.9687045 nan
0.26612949 0.4379521 1.9687045 nan
0.26806712 0.44347554 1.9687045 nan
0.27000475 0.44899887 1.9687045 nan
0.27194214 0.45452219 1.9687045 nan
0.27387977 0.46004552 1.9687045 nan
0.27581739 0.46556896 1.9687045 nan
0.27775478 0.47109228 1.9687045 nan
0.27969241 0.47661561 1.9687045 nan
0.28163004 0.48213893 1.9687045 nan
0.28356743 0.48766226 1.9687045 nan
0.28550506 0.4931857 1.9687045 nan
0.28744268 0.49870902 1.9687045 nan
0.28938007 0.50423235 1.9687045 nan
0.2913177 0.50975567 1.9687045 nan
0.29325533 0.51527911 1.9687045 nan
0.32035542 0.51096731 1.9623017 nan
0.32227612 0.51644212 1.9623017 nan
0.32419658 0.52191693 1.9623017 nan
0.32611704 0.52739173 1.9623017 nan
0.3280375 0.53286654 1.9623017 nan
0.3299582 0.53834146 1.9623017 nan
0.33187866 0.54381627 1.9623017 nan
0.33379912 0.54929107 1.9623017 nan
0.33571959 0.55476588 1.9623017 nan
0.33764029 0.56024069 1.9623017 nan
0.33956075 0.56571549 1.9623017 nan
0.34148121 0.5711903 1.9623017 nan
0.34340191 0.5766651 1.9623017 nan
0.37026429 0.57167381 1.9558988 nan
0.34724283 0.58761483 1.9623017 nan
0.37407112 0.58252639 1.9558988 nan
0.37597466 0.58795267 1.9558988 nan
0.37787819 0.59337896 1.9558988 nan
0.37978172 0.59880525 1.9558988 nan
0.4056046 0.59387261 1.949733 nan
0.43139482 0.58884674 1.9435674 nan
0.43326569 0.59417957 1.9435674 nan
0.43513632 0.5995124 1.9435674 nan
0.43700695 0.60484523 1.9435674 nan
0.43887782 0.61017805 1.9435674 nan
0.44074845 0.61551088 1.9435674 nan
0.44261909 0.62084371 1.9435674 nan
0.44448996 0.62617654 1.9435674 nan
0.44636059 0.63150936 1.9435674 nan
0.44823122 0.63684219 1.9435674 nan
0.45010209 0.64217502 1.9435674 nan
0.45197272 0.64750785 1.9435674 nan
0.43013716 0.66380697 1.949733 nan
0.43202424 0.66918653 1.949733 nan
0.45758486 0.66350633 1.9435674 nan
0.45945549 0.66883916 1.9435674 nan
0.46132636 0.67417198 1.9435674 nan
0.46319699 0.67950481 1.9435674 nan
0.46506786 0.68483764 1.9435674 nan
0.48962259 0.67931134 1.9376388 nan
0.49147773 0.68459922 1.9376388 nan
0.49333262 0.68988711 1.9376388 nan
0.49518752 0.69517499 1.9376388 nan
0.49704242 0.70046288 1.9376388 nan
0.49889731 0.70575076 1.9376388 nan
0.50075245 0.71103865 1.9376388 nan
0.50260735 0.71632653 1.9376388 nan
0.50446224 0.72161454 1.9376388 nan
0.50631714 0.72690243 1.9376388 nan
0.53069901 0.72088176 1.9317102 nan
0.51002717 0.7374782 1.9376388 nan
0.53437734 0.73136765 1.9317102 nan
0.51373696 0.74805397 1.9376388 nan
0.5155921 0.75334185 1.9376388 nan
0.51744699 0.75862974 1.9376388 nan
0.51930189 0.76391762 1.9376388 nan
0.52115679 0.76920551 1.9376388 nan
0.50061131 0.78616148 1.9435674 nan
0.50248194 0.79149431 1.9435674 nan
0.50435281 0.79682714 1.9435674 nan
0.50622344 0.80215997 1.9435674 nan
0.1436789 0.43025631 1.9894331 nan
0.14568782 0.43598264 1.9894331 nan
0.1476965 0.44170922 1.9894331 nan
0.14970541 0.44743556 1.9894331 nan
0.20551872 0.4343453 1.9760245 nan
0.2074914 0.43996936 1.9760245 nan
0.20946431 0.4455933 1.9760245 nan
0.2641921 0.43242878 1.9628513 nan
0.26612949 0.4379521 1.9628513 nan
0.26806712 0.44347554 1.9628513 nan
0.27000475 0.44899887 1.9628513 nan
0.27194214 0.45452219 1.9628513 nan
0.27387977 0.46004552 1.9628513 nan
0.27581739 0.46556896 1.9628513 nan
0.27775478 0.47109228 1.9628513 nan
0.27969241 0.47661561 1.9628513 nan
0.28163004 0.48213893 1.9628513 nan
0.28356743 0.48766226 1.9628513 nan
0.31075287 0.48359317 1.9564998 nan
0.28744268 0.49870902 1.9628513 nan
0.28938007 0.50423235 1.9628513 nan
0.2913177 0.50975567 1.9628513 nan
0.29325533 0.51527911 1.9628513 nan
0.32035542 0.51096731 1.9564998 nan
0.32227612 0.51644212 1.9564998 nan
0.32419658 0.52191693 1.9564998 nan
0.32611704 0.52739173 1.9564998 nan
0.3280375 0.53286654 1.9564998 nan
0.3299582 0.53834146 1.9564998 nan
0.33187866 0.54381627 1.9564998 nan
0.33379912 0.54929107 1.9564998 nan
0.33571959 0.55476588 1.9564998 nan
0.33764029 0.56024069 1.9564998 nan
0.33956075 0.56571549 1.9564998 nan
0.34148121 0.5711903 1.9564998 nan
0.34340191 0.5766651 1.9564998 nan
0.34532237 0.58214003 1.9564998 nan
0.34724283 0.58761483 1.9564998 nan
0.37407112 0.58252639 1.9501483 nan
0.37597466 0.58795267 1.9501483 nan
0.37787819 0.59337896 1.9501483 nan
0.40371752 0.58849305 1.9440322 nan
0.4056046 0.59387261 1.9440322 nan
0.40749168 0.59925216 1.9440322 nan
0.43326569 0.59417957 1.937916 nan
0.43513632 0.5995124 1.937916 nan
0.43700695 0.60484523 1.937916 nan
0.43887782 0.61017805 1.937916 nan
0.44074845 0.61551088 1.937916 nan
0.44261909 0.62084371 1.937916 nan
0.44448996 0.62617654 1.937916 nan
0.44636059 0.63150936 1.937916 nan
0.44823122 0.63684219 1.937916 nan
0.45010209 0.64217502 1.937916 nan
0.45197272 0.64750785 1.937916 nan
0.45384336 0.65284067 1.937916 nan
0.45571423 0.6581735 1.937916 nan
0.45758486 0.66350633 1.937916 nan
0.45945549 0.66883916 1.937916 nan
0.46132636 0.67417198 1.937916 nan
0.46319699 0.67950481 1.937916 nan
0.46506786 0.68483764 1.937916 nan
0.48962259 0.67931134 1.932035 nan
0.49147773 0.68459922 1.932035 nan
0.49333262 0.68988711 1.932035 nan
0.49518752 0.69517499 1.932035 nan
0.49704242 0.70046288 1.932035 nan
0.49889731 0.70575076 1.932035 nan
0.50075245 0.71103865 1.932035 nan
0.50260735 0.71632653 1.932035 nan
0.50446224 0.72161454 1.932035 nan
0.50631714 0.72690243 1.932035 nan
0.50817227 0.73219031 1.932035 nan
0.51002717 0.7374782 1.932035 nan
0.53437734 0.73136765 1.9261541 nan
0.51373696 0.74805397 1.932035 nan
0.5155921 0.75334185 1.932035 nan
0.51744699 0.75862974 1.932035 nan
0.51930189 0.76391762 1.932035 nan
0.49874067 0.78082865 1.937916 nan
0.50061131 0.78616148 1.937916 nan
0.50248194 0.79149431 1.937916 nan
0.50435281 0.79682714 1.937916 nan
0.50622344 0.80215997 1.937916 nan
0.1436789 0.43025631 1.9833646 nan
0.14568782 0.43598264 1.9833646 nan
0.1476965 0.44170922 1.9833646 nan
0.14970541 0.44743556 1.9833646 nan
0.17908859 0.44358855 1.9765978 nan
0.18107891 0.44926292 1.9765978 nan
0.20946431 0.4455933 1.9700645 nan
0.23781466 0.44182307 1.9635313 nan
0.2397697 0.4473967 1.9635313 nan
0.26806712 0.44347554 1.9569979 nan
0.27000475 0.44899887 1.9569979 nan
0.27194214 0.45452219 1.9569979 nan
0.27387977 0.46004552 1.9569979 nan
0.27581739 0.46556896 1.9569979 nan
0.27775478 0.47109228 1.9569979 nan
0.27969241 0.47661561 1.9569979 nan
0.28163004 0.48213893 1.9569979 nan
0.28356743 0.48766226 1.9569979 nan
0.28550506 0.4931857 1.9569979 nan
0.28744268 0.49870902 1.9569979 nan
0.28938007 0.50423235 1.9569979 nan
0.2913177 0.50975567 1.9569979 nan
0.29325533 0.51527911 1.9569979 nan
0.32035542 0.51096731 1.9506979 nan
0.32227612 0.51644212 1.9506979 nan
0.32419658 0.52191693 1.9506979 nan
0.32611704 0.52739173 1.9506979 nan
0.3280375 0.53286654 1.9506979 nan
0.3299582 0.53834146 1.9506979 nan
0.33187866 0.54381627 1.9506979 nan
0.33379912 0.54929107 1.9506979 nan
0.33571959 0.55476588 1.9506979 nan
0.33764029 0.56024069 1.9506979 nan
0.33956075 0.56571549 1.9506979 nan
0.34148121 0.5711903 1.9506979 nan
0.34340191 0.5766651 1.9506979 nan
0.34532237 0.58214003 1.9506979 nan
0.34724283 0.58761483 1.9506979 nan
0.37407112 0.58252639 1.9443979 nan
0.37597466 0.58795267 1.9443979 nan
0.37787819 0.59337896 1.9443979 nan
0.40371752 0.58849305 1.9383311 nan
0.4056046 0.59387261 1.9383311 nan
0.40749168 0.59925216 1.9383311 nan
0.40937901 0.60463184 1.9383311 nan
0.43513632 0.5995124 1.9322646 nan
0.43700695 0.60484523 1.9322646 nan
0.43887782 0.61017805 1.9322646 nan
0.44074845 0.61551088 1.9322646 nan
0.44261909 0.62084371 1.9322646 nan
0.44448996 0.62617654 1.9322646 nan
0.44636059 0.63150936 1.9322646 nan
0.44823122 0.63684219 1.9322646 nan
0.45010209 0.64217502 1.9322646 nan
0.45197272 0.64750785 1.9322646 nan
0.45384336 0.65284067 1.9322646 nan
0.45571423 0.6581735 1.9322646 nan
0.45758486 0.66350633 1.9322646 nan
0.45945549 0.66883916 1.9322646 nan
0.46132636 0.67417198 1.9322646 nan
0.46319699 0.67950481 1.9322646 nan
0.46506786 0.68483764 1.9322646 nan
0.4669385 0.69017047 1.9322646 nan
0.49147773 0.68459922 1.9264312 nan
0.49333262 0.68988711 1.9264312 nan
0.49518752 0.69517499 1.9264312 nan
0.49704242 0.70046288 1.9264312 nan
0.49889731 0.70575076 1.9264312 nan
0.50075245 0.71103865 1.9264312 nan
0.50260735 0.71632653 1.9264312 nan
0.50446224 0.72161454 1.9264312 nan
0.50631714 0.72690243 1.9264312 nan
0.53069901 0.72088176 1.9205978 nan
0.53253818 0.7261247 1.9205978 nan
0.53437734 0.73136765 1.9205978 nan
0.51373696 0.74805397 1.9264312 nan
0.5155921 0.75334185 1.9264312 nan
0.51744699 0.75862974 1.9264312 nan
0.51930189 0.76391762 1.9264312 nan
0.49874067 0.78082865 1.9322646 nan
0.50061131 0.78616148 1.9322646 nan
0.50248194 0.79149431 1.9322646 nan
0.50435281 0.79682714 1.9322646 nan
0.50622344 0.80215997 1.9322646 nan
0.1436789 0.43025631 1.9772959 nan
0.14568782 0.43598264 1.9772959 nan
0.1476965 0.44170922 1.9772959 nan
0.14970541 0.44743556 1.9772959 nan
0.17908859 0.44358855 1.9705845 nan
0.18107891 0.44926292 1.9705845 nan
0.18306947 0.45493728 1.9705845 nan
0.23781466 0.44182307 1.9576246 nan
0.2397697 0.4473967 1.9576246 nan
0.26806712 0.44347554 1.9511445 nan
0.27000475 0.44899887 1.9511445 nan
0.27194214 0.45452219 1.9511445 nan
0.27387977 0.46004552 1.9511445 nan
0.27581739 0.46556896 1.9511445 nan
0.27775478 0.47109228 1.9511445 nan
0.27969241 0.47661561 1.9511445 nan
0.28163004 0.48213893 1.9511445 nan
0.28356743 0.48766226 1.9511445 nan
0.28550506 0.4931857 1.9511445 nan
0.28744268 0.49870902 1.9511445 nan
0.28938007 0.50423235 1.9511445 nan
0.2913177 0.50975567 1.9511445 nan
0.29325533 0.51527911 1.9511445 nan
0.32035542 0.51096731 1.944896 nan
0.32227612 0.51644212 1.944896 nan
0.32419658 0.52191693 1.944896 nan
0.32611704 0.52739173 1.944896 nan
0.3280375 0.53286654 1.944896 nan
0.3299582 0.53834146 1.944896 nan
0.33187866 0.54381627 1.944896 nan
0.33379912 0.54929107 1.944896 nan
0.33571959 0.55476588 1.944896 nan
0.31263065 0.57051259 1.9511445 nan
0.33956075 0.56571549 1.944896 nan
0.34148121 0.5711903 1.944896 nan
0.34340191 0.5766651 1.944896 nan
0.37026429 0.57167381 1.9386474 nan
0.37216759 0.5771001 1.9386474 nan
0.37407112 0.58252639 1.9386474 nan
0.37597466 0.58795267 1.9386474 nan
0.40183043 0.58311349 1.9326303 nan
0.40371752 0.58849305 1.9326303 nan
0.4056046 0.59387261 1.9326303 nan
0.40749168 0.59925216 1.9326303 nan
0.40937901 0.60463184 1.9326303 nan
0.43513632 0.5995124 1.9266131 nan
0.43700695 0.60484523 1.9266131 nan
0.43887782 0.61017805 1.9266131 nan
0.44074845 0.61551088 1.9266131 nan
0.44261909 0.62084371 1.9266131 nan
0.44448996 0.62617654 1.9266131 nan
0.44636059 0.63150936 1.9266131 nan
0.44823122 0.63684219 1.9266131 nan
0.45010209 0.64217502 1.9266131 nan
0.45197272 0.64750785 1.9266131 nan
0.45384336 0.65284067 1.9266131 nan
0.45571423 0.6581735 1.9266131 nan
0.45758486 0.66350633 1.9266131 nan
0.45945549 0.66883916 1.9266131 nan
0.46132636 0.67417198 1.9266131 nan
0.46319699 0.67950481 1.9266131 nan
0.46506786 0.68483764 1.9266131 nan
0.48962259 0.67931134 1.9208274 nan
0.49147773 0.68459922 1.9208274 nan
0.49333262 0.68988711 1.9208274 nan
0.49518752 0.69517499 1.9208274 nan
0.49704242 0.70046288 1.9208274 nan
0.49889731 0.70575076 1.9208274 nan
0.50075245 0.71103865 1.9208274 nan
0.50260735 0.71632653 1.9208274 nan
0.50446224 0.72161454 1.9208274 nan
0.50631714 0.72690243 1.9208274 nan
0.53069901 0.72088176 1.9150417 nan
0.51002717 0.7374782 1.9208274 nan
0.51188207 0.74276608 1.9208274 nan
0.51373696 0.74805397 1.9208274 nan
0.5155921 0.75334185 1.9208274 nan
0.51744699 0.75862974 1.9208274 nan
0.51930189 0.76391762 1.9208274 nan
0.49874067 0.78082865 1.9266131 nan
0.50061131 0.78616148 1.9266131 nan
0.50248194 0.79149431 1.9266131 nan
0.50435281 0.79682714 1.9266131 nan
0.52857661 0.79035717 1.9208274 nan
0.1436789 0.43025631 1.9712274 nan
0.14568782 0.43598264 1.9712274 nan
0.1476965 0.44170922 1.9712274 nan
0.14970541 0.44743556 1.9712274 nan
0.17908859 0.44358855 1.9645712 nan
0.18107891 0.44926292 1.9645712 nan
0.20946431 0.4455933 1.9581445 nan
0.23781466 0.44182307 1.9517179 nan
0.2397697 0.4473967 1.9517179 nan
0.24172497 0.45297033 1.9517179 nan
0.27000475 0.44899887 1.9452913 nan
0.27194214 0.45452219 1.9452913 nan
0.27387977 0.46004552 1.9452913 nan
0.27581739 0.46556896 1.9452913 nan
0.27775478 0.47109228 1.9452913 nan
0.27969241 0.47661561 1.9452913 nan
0.28163004 0.48213893 1.9452913 nan
0.28356743 0.48766226 1.9452913 nan
0.28550506 0.4931857 1.9452913 nan
0.28744268 0.49870902 1.9452913 nan
0.28938007 0.50423235 1.9452913 nan
0.2913177 0.50975567 1.9452913 nan
0.29325533 0.51527911 1.9452913 nan
0.29519272 0.52080244 1.9452913 nan
0.32227612 0.51644212 1.9390941 nan
0.32419658 0.52191693 1.9390941 nan
0.32611704 0.52739173 1.9390941 nan
0.3280375 0.53286654 1.9390941 nan
0.3299582 0.53834146 1.9390941 nan
0.33187866 0.54381627 1.9390941 nan
0.33379912 0.54929107 1.9390941 nan
0.33571959 0.55476588 1.9390941 nan
0.33764029 0.56024069 1.9390941 nan
0.33956075 0.56571549 1.9390941 nan
0.34148121 0.5711903 1.9390941 nan
0.34340191 0.5766651 1.9390941 nan
0.34532237 0.58214003 1.9390941 nan
0.37216759 0.5771001 1.9328969 nan
0.37407112 0.58252639 1.9328969 nan
0.37597466 0.58795267 1.9328969 nan
0.40183043 0.58311349 1.9269292 nan
0.37978172 0.59880525 1.9328969 nan
0.38168526 0.60423154 1.9328969 nan
0.40749168 0.59925216 1.9269292 nan
0.40937901 0.60463184 1.9269292 nan
0.43513632 0.5995124 1.9209616 nan
0.43700695 0.60484523 1.9209616 nan
0.43887782 0.61017805 1.9209616 nan
0.44074845 0.61551088 1.9209616 nan
0.44261909 0.62084371 1.9209616 nan
0.44448996 0.62617654 1.9209616 nan
0.44636059 0.63150936 1.9209616 nan
0.44823122 0.63684219 1.9209616 nan
0.45010209 0.64217502 1.9209616 nan
0.45197272 0.64750785 1.9209616 nan
0.45384336 0.65284067 1.9209616 nan
0.45571423 0.6581735 1.9209616 nan
0.45758486 0.66350633 1.9209616 nan
0.45945549 0.66883916 1.9209616 nan
0.46132636 0.67417198 1.9209616 nan
0.4859128 0.66873556 1.9152236 nan
0.4877677 0.67402345 1.9152236 nan
0.48962259 0.67931134 1.9152236 nan
0.49147773 0.68459922 1.9152236 nan
0.49333262 0.68988711 1.9152236 nan
0.49518752 0.69517499 1.9152236 nan
0.49704242 0.70046288 1.9152236 nan
0.49889731 0.70575076 1.9152236 nan
0.50075245 0.71103865 1.9152236 nan
0.50260735 0.71632653 1.9152236 nan
0.50446224 0.72161454 1.9152236 nan
0.50631714 0.72690243 1.9152236 nan
0.53069901 0.72088176 1.9094855 nan
0.53253818 0.7261247 1.9094855 nan
0.53437734 0.73136765 1.9094855 nan
0.51373696 0.74805397 1.9152236 nan
0.5155921 0.75334185 1.9152236 nan
0.51744699 0.75862974 1.9152236 nan
0.51930189 0.76391762 1.9152236 nan
0.49874067 0.78082865 1.9209616 nan
0.50061131 0.78616148 1.9209616 nan
0.50248194 0.79149431 1.9209616 nan
0.50435281 0.79682714 1.9209616 nan
0.50622344 0.80215997 1.9209616 nan
0.1436789 0.43025631 1.9651588 nan
0.14568782 0.43598264 1.9651588 nan
0.1476965 0.44170922 1.9651588 nan
0.14970541 0.44743556 1.9651588 nan
0.17908859 0.44358855 1.9585578 nan
0.2074914 0.43996936 1.9521846 nan
0.20946431 0.4455933 1.9521846 nan
0.23781466 0.44182307 1.9458113 nan
0.26612949 0.4379521 1.9394379 nan
0.26806712 0.44347554 1.9394379 nan
0.27000475 0.44899887 1.9394379 nan
0.27194214 0.45452219 1.9394379 nan
0.27387977 0.46004552 1.9394379 nan
0.27581739 0.46556896 1.9394379 nan
0.27775478 0.47109228 1.9394379 nan
0.27969241 0.47661561 1.9394379 nan
0.28163004 0.48213893 1.9394379 nan
0.28356743 0.48766226 1.9394379 nan
0.28550506 0.4931857 1.9394379 nan
0.28744268 0.49870902 1.9394379 nan
0.28938007 0.50423235 1.9394379 nan
0.2913177 0.50975567 1.9394379 nan
0.29325533 0.51527911 1.9394379 nan
0.32035542 0.51096731 1.9332922 nan
0.32227612 0.51644212 1.9332922 nan
0.32419658 0.52191693 1.9332922 nan
0.32611704 0.52739173 1.9332922 nan
0.3280375 0.53286654 1.9332922 nan
0.3299582 0.53834146 1.9332922 nan
0.33187866 0.54381627 1.9332922 nan
0.33379912 0.54929107 1.9332922 nan
0.33571959 0.55476588 1.9332922 nan
0.33764029 0.56024069 1.9332922 nan
0.33956075 0.56571549 1.9332922 nan
0.34148121 0.5711903 1.9332922 nan
0.34340191 0.5766651 1.9332922 nan
0.34532237 0.58214003 1.9332922 nan
0.37216759 0.5771001 1.9271464 nan
0.37407112 0.58252639 1.9271464 nan
0.37597466 0.58795267 1.9271464 nan
0.40183043 0.58311349 1.9212284 nan
0.40371752 0.58849305 1.9212284 nan
0.4056046 0.59387261 1.9212284 nan
0.43139482 0.58884674 1.9153103 nan
0.43326569 0.59417957 1.9153103 nan
0.43513632 0.5995124 1.9153103 nan
0.43700695 0.60484523 1.9153103 nan
0.43887782 0.61017805 1.9153103 nan
0.44074845 0.61551088 1.9153103 nan
0.44261909 0.62084371 1.9153103 nan
0.44448996 0.62617654 1.9153103 nan
0.44636059 0.63150936 1.9153103 nan
0.44823122 0.63684219 1.9153103 nan
0.45010209 0.64217502 1.9153103 nan
0.45197272 0.64750785 1.9153103 nan
0.45384336 0.65284067 1.9153103 nan
0.45571423 0.6581735 1.9153103 nan
0.45758486 0.66350633 1.9153103 nan
0.45945549 0.66883916 1.9153103 nan
0.46132636 0.67417198 1.9153103 nan
0.4859128 0.66873556 1.9096198 nan
0.4877677 0.67402345 1.9096198 nan
0.48962259 0.67931134 1.9096198 nan
0.49147773 0.68459922 1.9096198 nan
0.49333262 0.68988711 1.9096198 nan
0.49518752 0.69517499 1.9096198 nan
0.49704242 0.70046288 1.9096198 nan
0.49889731 0.70575076 1.9096198 nan
0.50075245 0.71103865 1.9096198 nan
0.50260735 0.71632653 1.9096198 nan
0.50446224 0.72161454 1.9096198 nan
0.50631714 0.72690243 1.9096198 nan
0.53069901 0.72088176 1.9039292 nan
0.51002717 0.7374782 1.9096198 nan
0.51188207 0.74276608 1.9096198 nan
0.51373696 0.74805397 1.9096198 nan
0.5155921 0.75334185 1.9096198 nan
0.51744699 0.75862974 1.9096198 nan
0.4968698 0.77549583 1.9153103 nan
0.49874067 0.78082865 1.9153103 nan
0.47731471 0.79829603 1.9212284 nan
0.50248194 0.79149431 1.9153103 nan
0.50435281 0.79682714 1.9153103 nan
0.50622344 0.80215997 1.9153103 nan
0.1436789 0.43025631 1.9590902 nan
0.17311692 0.42656559 1.9525445 nan
0.17510748 0.43223995 1.9525445 nan
0.17709804 0.43791419 1.9525445 nan
0.20551872 0.4343453 1.9462245 nan
0.2074914 0.43996936 1.9462245 nan
0.20946431 0.4455933 1.9462245 nan
0.2641921 0.43242878 1.9335845 nan
0.26612949 0.4379521 1.9335845 nan
0.26806712 0.44347554 1.9335845 nan
0.27000475 0.44899887 1.9335845 nan
0.27194214 0.45452219 1.9335845 nan
0.27387977 0.46004552 1.9335845 nan
0.27581739 0.46556896 1.9335845 nan
0.27775478 0.47109228 1.9335845 nan
0.27969241 0.47661561 1.9335845 nan
0.28163004 0.48213893 1.9335845 nan
0.28356743 0.48766226 1.9335845 nan
0.28550506 0.4931857 1.9335845 nan
0.28744268 0.49870902 1.9335845 nan
0.28938007 0.50423235 1.9335845 nan
0.2913177 0.50975567 1.9335845 nan
0.29325533 0.51527911 1.9335845 nan
0.29519272 0.52080244 1.9335845 nan
0.29713035 0.52632576 1.9335845 nan
0.32419658 0.52191693 1.9274902 nan
0.32611704 0.52739173 1.9274902 nan
0.3280375 0.53286654 1.9274902 nan
0.3299582 0.53834146 1.9274902 nan
0.33187866 0.54381627 1.9274902 nan
0.33379912 0.54929107 1.9274902 nan
0.33571959 0.55476588 1.9274902 nan
0.33764029 0.56024069 1.9274902 nan
0.33956075 0.56571549 1.9274902 nan
0.34148121 0.5711903 1.9274902 nan
0.34340191 0.5766651 1.9274902 nan
0.37026429 0.57167381 1.921396 nan
0.37216759 0.5771001 1.921396 nan
0.37407112 0.58252639 1.921396 nan
0.37597466 0.58795267 1.921396 nan
0.40183043 0.58311349 1.9155273 nan
0.40371752 0.58849305 1.9155273 nan
0.4056046 0.59387261 1.9155273 nan
0.43139482 0.58884674 1.9096588 nan
0.43326569 0.59417957 1.9096588 nan
0.43513632 0.5995124 1.9096588 nan
0.43700695 0.60484523 1.9096588 nan
0.43887782 0.61017805 1.9096588 nan
0.44074845 0.61551088 1.9096588 nan
0.44261909 0.62084371 1.9096588 nan
0.44448996 0.62617654 1.9096588 nan
0.44636059 0.63150936 1.9096588 nan
0.44823122 0.63684219 1.9096588 nan
0.45010209 0.64217502 1.9096588 nan
0.45197272 0.64750785 1.9096588 nan
0.45384336 0.65284067 1.9096588 nan
0.45571423 0.6581735 1.9096588 nan
0.45758486 0.66350633 1.9096588 nan
0.45945549 0.66883916 1.9096588 nan
0.46132636 0.67417198 1.9096588 nan
0.46319699 0.67950481 1.9096588 nan
0.4877677 0.67402345 1.904016 nan
0.48962259 0.67931134 1.904016 nan
0.49147773 0.68459922 1.904016 nan
0.49333262 0.68988711 1.904016 nan
0.49518752 0.69517499 1.904016 nan
0.51966381 0.68942398 1.8983731 nan
0.52150297 0.69466692 1.8983731 nan
0.52334237 0.69990987 1.8983731 nan
0.50260735 0.71632653 1.904016 nan
0.50446224 0.72161454 1.904016 nan
0.50631714 0.72690243 1.904016 nan
0.50817227 0.73219031 1.904016 nan
0.51002717 0.7374782 1.904016 nan
0.51188207 0.74276608 1.904016 nan
0.51373696 0.74805397 1.904016 nan
0.5155921 0.75334185 1.904016 nan
0.51744699 0.75862974 1.904016 nan
0.4968698 0.77549583 1.9096588 nan
0.49874067 0.78082865 1.9096588 nan
0.47731471 0.79829603 1.9155273 nan
0.50248194 0.79149431 1.9096588 nan
0.50435281 0.79682714 1.9096588 nan
0.1436789 0.43025631 1.9530216 nan
0.17311692 0.42656559 1.9465312 nan
0.17510748 0.43223995 1.9465312 nan
0.17709804 0.43791419 1.9465312 nan
0.20551872 0.4343453 1.9402645 nan
0.2074914 0.43996936 1.9402645 nan
0.23585939 0.43624932 1.9339979 nan
0.2641921 0.43242878 1.9277313 nan
0.26612949 0.4379521 1.9277313 nan
0.26806712 0.44347554 1.9277313 nan
0.27000475 0.44899887 1.9277313 nan
0.27194214 0.45452219 1.9277313 nan
0.27387977 0.46004552 1.9277313 nan
0.27581739 0.46556896 1.9277313 nan
0.27775478 0.47109228 1.9277313 nan
0.27969241 0.47661561 1.9277313 nan
0.28163004 0.48213893 1.9277313 nan
0.28356743 0.48766226 1.9277313 nan
0.28550506 0.4931857 1.9277313 nan
0.28744268 0.49870902 1.9277313 nan
0.28938007 0.50423235 1.9277313 nan
0.2913177 0.50975567 1.9277313 nan
0.29325533 0.51527911 1.9277313 nan
0.29519272 0.52080244 1.9277313 nan
0.32227612 0.51644212 1.9216883 nan
0.32419658 0.52191693 1.9216883 nan
0.30100536 0.53737253 1.9277313 nan
0.30294299 0.54289585 1.9277313 nan
0.30488062 0.54841918 1.9277313 nan
0.33187866 0.54381627 1.9216883 nan
0.33379912 0.54929107 1.9216883 nan
0.33571959 0.55476588 1.9216883 nan
0.33764029 0.56024069 1.9216883 nan
0.33956075 0.56571549 1.9216883 nan
0.34148121 0.5711903 1.9216883 nan
0.34340191 0.5766651 1.9216883 nan
0.34532237 0.58214003 1.9216883 nan
0.37216759 0.5771001 1.9156455 nan
0.37407112 0.58252639 1.9156455 nan
0.37597466 0.58795267 1.9156455 nan
0.40183043 0.58311349 1.9098265 nan
0.40371752 0.58849305 1.9098265 nan
0.4056046 0.59387261 1.9098265 nan
0.43139482 0.58884674 1.9040074 nan
0.43326569 0.59417957 1.9040074 nan
0.43513632 0.5995124 1.9040074 nan
0.43700695 0.60484523 1.9040074 nan
0.43887782 0.61017805 1.9040074 nan
0.44074845 0.61551088 1.9040074 nan
0.44261909 0.62084371 1.9040074 nan
0.44448996 0.62617654 1.9040074 nan
0.44636059 0.63150936 1.9040074 nan
0.44823122 0.63684219 1.9040074 nan
0.45010209 0.64217502 1.9040074 nan
0.45197272 0.64750785 1.9040074 nan
0.45384336 0.65284067 1.9040074 nan
0.45571423 0.6581735 1.9040074 nan
0.45758486 0.66350633 1.9040074 nan
0.45945549 0.66883916 1.9040074 nan
0.46132636 0.67417198 1.9040074 nan
0.46319699 0.67950481 1.9040074 nan
0.46506786 0.68483764 1.9040074 nan
0.48962259 0.67931134 1.8984122 nan
0.49147773 0.68459922 1.8984122 nan
0.49333262 0.68988711 1.8984122 nan
0.49518752 0.69517499 1.8984122 nan
0.49704242 0.70046288 1.8984122 nan
0.52150297 0.69466692 1.8928169 nan
0.50075245 0.71103865 1.8984122 nan
0.50260735 0.71632653 1.8984122 nan
0.50446224 0.72161454 1.8984122 nan
0.50631714 0.72690243 1.8984122 nan
0.50817227 0.73219031 1.8984122 nan
0.51002717 0.7374782 1.8984122 nan
0.51188207 0.74276608 1.8984122 nan
0.49125767 0.75949734 1.9040074 nan
0.49312854 0.76483005 1.9040074 nan
0.49499917 0.770163 1.9040074 nan
0.47354054 0.78753692 1.9098265 nan
0.47542763 0.79291648 1.9098265 nan
0.45401812 0.81043071 1.9156455 nan
0.47920179 0.80367559 1.9098265 nan
0.17311692 0.42656559 1.9405179 nan
0.17510748 0.43223995 1.9405179 nan
0.20354581 0.42872137 1.9343045 nan
0.20551872 0.4343453 1.9343045 nan
0.2074914 0.43996936 1.9343045 nan
0.20946431 0.4455933 1.9343045 nan
0.2641921 0.43242878 1.9218779 nan
0.26612949 0.4379521 1.9218779 nan
0.26806712 0.44347554 1.9218779 nan
0.27000475 0.44899887 1.9218779 nan
0.27194214 0.45452219 1.9218779 nan
0.27387977 0.46004552 1.9218779 nan
0.27581739 0.46556896 1.9218779 nan
0.27775478 0.47109228 1.9218779 nan
0.27969241 0.47661561 1.9218779 nan
0.28163004 0.48213893 1.9218779 nan
0.28356743 0.48766226 1.9218779 nan
0.28550506 0.4931857 1.9218779 nan
0.28744268 0.49870902 1.9218779 nan
0.28938007 0.50423235 1.9218779 nan
0.2913177 0.50975567 1.9218779 nan
0.29325533 0.51527911 1.9218779 nan
0.29519272 0.52080244 1.9218779 nan
0.32227612 0.51644212 1.9158864 nan
0.32419658 0.52191693 1.9158864 nan
0.30100536 0.53737253 1.9218779 nan
0.30294299 0.54289585 1.9218779 nan
