# .PCD v0.7 - Point Cloud Data file format
VERSION 0.7
FIELDS x y z rgb
SIZE 4 4 4 4
TYPE F F F F
COUNT 1 1 1 1
WIDTH 1038
HEIGHT 1
VIEWPOINT 0 0 0 1 0 0 0
POINTS 1038
DATA ascii
1.7783958 -0.73518252 1.2687178 -2.5660597e+38
1.7783808 -0.73820913 1.2687178 -3.3036895e+38
1.7783657 -0.74123573 1.2687178 nan
1.7783507 -0.74426234 1.2687178 nan
1.785321 -0.75026369 1.2688445 nan
1.7783207 -0.75031567 1.2687178 nan
1.9858043 -0.45190182 1.2690264 -2.2899848e+38
1.9767969 -0.45339903 1.2688807 -2.7706404e+38
1.9767801 -0.45680088 1.2688807 -2.8512295e+38
1.9767631 -0.46020275 1.2688807 -2.9310303e+38
1.9677559 -0.46163139 1.2687349 -2.850389e+38
1.9677391 -0.46501613 1.2687349 -2.7834599e+38
1.9587321 -0.46639332 1.2685893 -2.7166345e+38
1.9497254 -0.46773627 1.2684436 -2.649549e+38
1.9407188 -0.46904489 1.2682978 -2.5962231e+38
1.9407023 -0.47237819 1.2682978 -2.5560858e+38
1.9406857 -0.47571149 1.2682978 -2.5026041e+38
1.9316794 -0.47695157 1.2681521 -2.4490705e+38
1.9316629 -0.48026773 1.2681521 -2.3957966e+38
1.9316465 -0.48358387 1.2681521 -2.3557112e+38
1.93163 -0.48690003 1.2681521 -2.3025411e+38
1.9226242 -0.48805436 1.2680064 -2.2625077e+38
1.9226079 -0.49135339 1.2680064 -2.2093377e+38
1.9225914 -0.49465239 1.2680064 -2.1694086e+38
1.9225751 -0.49795139 1.2680064 -2.1560637e+38
1.9225588 -0.50125039 1.2680064 -2.1560118e+38
1.9225423 -0.50454938 1.2680064 -2.169252e+38
1.922526 -0.50784838 1.2680064 -2.1824408e+38
1.9225097 -0.51114744 1.2680064 -2.1957852e+38
1.9224932 -0.51444638 1.2680064 -2.2223179e+38
1.9224769 -0.51774544 1.2680064 -2.2089215e+38
1.9224604 -0.52104449 1.2680064 -2.1955254e+38
1.9134556 -0.5219931 1.2678607 -2.1290121e+38
1.9134393 -0.52527499 1.2678607 -2.0624464e+38
1.9134231 -0.52855682 1.2678607 -2.0491535e+38
1.9134067 -0.53183866 1.2678607 -2.0490493e+38
1.9133904 -0.53512055 1.2678607 -2.0091199e+38
1.9133742 -0.53840244 1.2678607 -1.9824313e+38
1.9133579 -0.54168427 1.2678607 -1.9558463e+38
1.9133415 -0.54496616 1.2678607 -1.9425019e+38
1.9133253 -0.54824799 1.2678607 -1.9292095e+38
1.913309 -0.55152988 1.2678607 -1.9291058e+38
1.9132928 -0.55481172 1.2678607 -1.9291579e+38
1.9132764 -0.55809361 1.2678607 -1.9292101e+38
1.9132601 -0.5613755 1.2678607 -1.9691388e+38
1.9132439 -0.56465733 1.2678607 -2.0090678e+38
1.9222149 -0.57052958 1.2680064 -2.009068e+38
1.9221985 -0.57382858 1.2680064 -2.0093278e+38
1.9221821 -0.57712758 1.2680064 -2.0758933e+38
1.9311527 -0.58306837 1.2681521 -2.1424052e+38
1.9311363 -0.58638453 1.2681521 -2.1290595e+38
1.9311197 -0.5897007 1.2681521 -2.1157673e+38
1.9400901 -0.59571004 1.2682978 -1.9811829e+38
1.9400735 -0.59904337 1.2682978 -1.8476563e+38
1.9310703 -0.59964919 1.2681521 nan
1.9310539 -0.60296524 1.2681521 nan
1.9220511 -0.60351968 1.2680064 nan
1.8310798 -0.59747469 1.266533 -2.0495263e+38
1.8160882 -0.59576881 1.2662902 -2.3168286e+38
1.8160728 -0.59886599 1.2662902 -2.5829858e+38
1.8160574 -0.60196304 1.2662902 -2.5966413e+38
1.8160421 -0.6050601 1.2662902 -2.6234339e+38
1.8080397 -0.60551941 1.2661607 -2.6367784e+38
1.8010358 -0.60627997 1.2660474 -2.6500185e+38
1.7930337 -0.60668015 1.2659178 -2.6634664e+38
1.7860302 -0.6073854 1.2658045 -2.6901548e+38
1.7860152 -0.61042535 1.2658045 -2.7167391e+38
1.786 -0.61346543 1.2658045 -2.7433752e+38
1.7859849 -0.61650538 1.2658045 -2.7701151e+38
1.7789817 -0.61714399 1.2656912 -2.8101475e+38
1.7789667 -0.62017059 1.2656912 -2.7966991e+38
1.7709652 -0.62042224 1.2655616 -2.7834064e+38
1.7709503 -0.62343359 1.2655616 -2.7701137e+38
1.7709353 -0.62644506 1.2655616 -2.7567172e+38
1.7639326 -0.62698841 1.2654483 -2.7300801e+38
1.7569299 -0.62750506 1.265335 -2.7165807e+38
1.7569151 -0.63048983 1.265335 -2.6765487e+38
1.7569003 -0.63347447 1.265335 -2.649652e+38
1.7568855 -0.63645923 1.265335 -2.6096705e+38
1.7568706 -0.63944399 1.265335 -2.5829296e+38
1.7568558 -0.64242876 1.265335 -2.5695328e+38
1.7568411 -0.6454134 1.265335 -2.5694292e+38
1.7568262 -0.64839816 1.265335 -2.542741e+38
1.7568114 -0.65138292 1.265335 -2.5161045e+38
1.7567966 -0.65436757 1.265335 -2.4894678e+38
1.7567818 -0.65735233 1.265335 -2.476123e+38
1.7567669 -0.66033709 1.265335 -2.4361417e+38
1.7497653 -0.66068041 1.2652216 -2.3962117e+38
1.7567374 -0.6663065 1.265335 -2.329697e+38
1.7497357 -0.66662323 1.2652216 -2.276424e+38
1.7497209 -0.66959453 1.2652216 -2.2631317e+38
1.7497063 -0.67256594 1.2652216 -2.2629762e+38
1.7566781 -0.67824543 1.265335 -2.2628723e+38
1.7566632 -0.68123019 1.265335 -2.2628202e+38
1.7566484 -0.68421483 1.265335 -2.2361316e+38
1.7566336 -0.68719959 1.265335 -2.2227349e+38
1.7566187 -0.69018435 1.265335 -2.209442e+38
1.756604 -0.693169 1.265335 -2.209442e+38
1.7565892 -0.69615376 1.265335 -2.209442e+38
1.7565744 -0.69913852 1.265335 -2.2227357e+38
1.7565595 -0.70212317 1.265335 -2.2627178e+38
1.7565447 -0.70510793 1.265335 -2.2894082e+38
1.7635159 -0.71093404 1.2654483 -2.3426832e+38
1.770487 -0.71678674 1.2655616 -2.4091434e+38
1.7704719 -0.71979821 1.2655616 -2.3825057e+38
1.7784408 -0.72610259 1.2656912 -2.3691603e+38
1.7784258 -0.72912931 1.2656912 -2.0893979e+38
1.7853965 -0.73506379 1.2658045 -1.8229373e+38
1.7783958 -0.73518252 1.2656912 -2.5563572e+38
1.7783808 -0.73820913 1.2656912 -3.3051985e+38
1.7783657 -0.74123573 1.2656912 nan
1.7783507 -0.74426234 1.2656912 nan
1.785321 -0.75026369 1.2658045 nan
1.7783207 -0.75031567 1.2656912 nan
1.9768138 -0.44999716 1.2654787 -2.2109575e+38
1.9767969 -0.45339903 1.2654787 -2.6777494e+38
1.9767801 -0.45680088 1.2654787 -2.8121307e+38
1.9767631 -0.46020275 1.2654787 -2.9442706e+38
1.9677559 -0.46163139 1.2653502 -2.8632667e+38
1.9677391 -0.46501613 1.2653502 -2.7834084e+38
1.9587321 -0.46639332 1.2652216 -2.7165827e+38
1.9497254 -0.46773627 1.2650931 -2.649653e+38
1.9407188 -0.46904489 1.2649645 -2.5962235e+38
1.9407023 -0.47237819 1.2649645 -2.5294497e+38
1.9316958 -0.47363541 1.264836 -2.4893125e+38
1.9316794 -0.47695157 1.264836 -2.4358827e+38
1.9316629 -0.48026773 1.264836 -2.3958491e+38
1.9316465 -0.48358387 1.264836 -2.3425753e+38
1.93163 -0.48690003 1.264836 -2.315938e+38
1.9226242 -0.48805436 1.2647073 -2.2759046e+38
1.9226079 -0.49135339 1.2647073 -2.2226827e+38
1.9225914 -0.49465239 1.2647073 -2.1561688e+38
1.9225751 -0.49795139 1.2647073 -2.1826489e+38
1.9225588 -0.50125039 1.2647073 -2.195941e+38
1.9225423 -0.50454938 1.2647073 -2.1958889e+38
1.922526 -0.50784838 1.2647073 -2.1958887e+38
1.9225097 -0.51114744 1.2647073 -2.1958887e+38
1.9224932 -0.51444638 1.2647073 -2.1957325e+38
1.9224769 -0.51774544 1.2647073 -2.1955765e+38
1.9224604 -0.52104449 1.2647073 -2.1954727e+38
1.9134556 -0.5219931 1.2645788 -2.1289593e+38
1.9134393 -0.52527499 1.2645788 -2.0491535e+38
1.9134231 -0.52855682 1.2645788 -2.0491533e+38
1.9134067 -0.53183866 1.2645788 -2.0357568e+38
1.9133904 -0.53512055 1.2645788 -1.9958276e+38
1.9133742 -0.53840244 1.2645788 -1.9426062e+38
1.9133579 -0.54168427 1.2645788 -1.9159693e+38
1.9133415 -0.54496616 1.2645788 -1.8893845e+38
1.9133253 -0.54824799 1.2645788 -1.8894363e+38
1.913309 -0.55152988 1.2645788 -1.8760403e+38
1.9132928 -0.55481172 1.2645788 -1.8759369e+38
1.9132764 -0.55809361 1.2645788 -1.875989e+38
1.9132601 -0.5613755 1.2645788 -1.9292105e+38
1.9222312 -0.56723058 1.2647073 -1.9823279e+38
1.9222149 -0.57052958 1.2647073 -1.9955684e+38
1.9221985 -0.57382858 1.2647073 -2.0092765e+38
1.9221821 -0.57712758 1.2647073 -2.1024788e+38
1.9311527 -0.58306837 1.264836 -2.1823358e+38
1.9311363 -0.58638453 1.264836 -2.0758411e+38
1.9401066 -0.59237671 1.2649645 -1.9687249e+38
1.9400901 -0.59571004 1.2649645 -1.9806158e+38
1.9400735 -0.59904337 1.2649645 -1.9985988e+38
1.940057 -0.60237658 1.2649645 nan
1.9310539 -0.60296524 1.264836 nan
1.8310798 -0.59747469 1.2634073 -1.8778183e+38
1.8240755 -0.59834564 1.2633073 -2.2375948e+38
1.8160728 -0.59886599 1.263193 -2.5965381e+38
1.8160574 -0.60196304 1.263193 -2.6233301e+38
1.8160421 -0.6050601 1.263193 -2.6500706e+38
1.8080397 -0.60551941 1.2630788 -2.6635708e+38
1.7930489 -0.60362697 1.2628645 -2.6634666e+38
1.7930337 -0.60668015 1.2628645 -2.6899988e+38
1.7860302 -0.6073854 1.2627645 -2.7033949e+38
1.7860152 -0.61042535 1.2627645 -2.7299278e+38
1.786 -0.61346543 1.2627645 -2.7434279e+38
1.7859849 -0.61650538 1.2627645 -2.7701685e+38
1.7789817 -0.61714399 1.2626644 -2.7967005e+38
1.7789667 -0.62017059 1.2626644 -2.7965962e+38
1.7709652 -0.62042224 1.2625502 -2.7834587e+38
1.7709503 -0.62343359 1.2625502 -2.7702175e+38
1.7709353 -0.62644506 1.2625502 -2.7568212e+38
1.7639326 -0.62698841 1.2624502 -2.7434249e+38
1.7569299 -0.62750506 1.2623502 -2.7166328e+38
1.7569151 -0.63048983 1.2623502 -2.6898927e+38
1.7569003 -0.63347447 1.2623502 -2.6497037e+38
1.7568855 -0.63645923 1.2623502 -2.6097226e+38
1.7568706 -0.63944399 1.2623502 -2.5563971e+38
1.7568558 -0.64242876 1.2623502 -2.5562929e+38
1.7568411 -0.6454134 1.2623502 -2.5428448e+38
1.7568262 -0.64839816 1.2623502 -2.5294487e+38
1.7568114 -0.65138292 1.2623502 -2.5161045e+38
1.7567966 -0.65436757 1.2623502 -2.5027084e+38
1.7567818 -0.65735233 1.2623502 -2.4760711e+38
1.7567669 -0.66033709 1.2623502 -2.4493821e+38
1.7497653 -0.66068041 1.2622502 -2.4094525e+38
1.7567374 -0.6663065 1.2623502 -2.3429382e+38
1.7497357 -0.66662323 1.2622502 -2.2765285e+38
1.7497209 -0.66959453 1.2622502 -2.2765802e+38
1.7497063 -0.67256594 1.2622502 -2.2763202e+38
1.7566781 -0.67824543 1.2623502 -2.2762161e+38
1.7566632 -0.68123019 1.2623502 -2.27606e+38
1.7566484 -0.68421483 1.2623502 -2.2626115e+38
1.7566336 -0.68719959 1.2623502 -2.2359748e+38
1.7566187 -0.69018435 1.2623502 -2.2358708e+38
1.756604 -0.693169 1.2623502 -2.2226823e+38
1.7565892 -0.69615376 1.2623502 -2.2226306e+38
1.7565744 -0.69913852 1.2623502 -2.2227357e+38
1.7635458 -0.70493793 1.2624502 -2.2626657e+38
1.7635309 -0.70793593 1.2624502 -2.2893553e+38
1.7635159 -0.71093404 1.2624502 -2.3425258e+38
1.770487 -0.71678674 1.2625502 -2.3956941e+38
1.7704719 -0.71979821 1.2625502 -2.3822453e+38
1.7784408 -0.72610259 1.2626644 -2.3556072e+38
1.7784258 -0.72912931 1.2626644 -2.0758446e+38
1.7853965 -0.73506379 1.2627645 -1.7974415e+38
1.7853813 -0.73810387 1.2627645 -2.5578613e+38
1.7853663 -0.74114382 1.2627645 -3.3049882e+38
1.7853512 -0.74418378 1.2627645 nan
1.785336 -0.74722373 1.2627645 nan
1.785321 -0.75026369 1.2627645 nan
1.7783207 -0.75031567 1.2626644 nan
1.9858043 -0.45190182 1.2621883 -2.1969375e+38
1.9767969 -0.45339903 1.2620769 -2.6514237e+38
1.9767801 -0.45680088 1.2620769 -2.7187203e+38
1.9767631 -0.46020275 1.2620769 -2.7985227e+38
1.9677559 -0.46163139 1.2619654 -2.7841887e+38
1.9677391 -0.46501613 1.2619654 -2.75698e+38
1.9587321 -0.46639332 1.2618541 -2.7031347e+38
1.9497254 -0.46773627 1.2617426 -2.6495494e+38
1.9407188 -0.46904489 1.2616311 -2.5961718e+38
1.9407023 -0.47237819 1.2616311 -2.5426386e+38
1.9406857 -0.47571149 1.2616311 -2.4893129e+38
1.9316794 -0.47695157 1.2615197 -2.4492275e+38
1.9316629 -0.48026773 1.2615197 -2.3959016e+38
1.9316465 -0.48358387 1.2615197 -2.3558682e+38
1.93163 -0.48690003 1.2615197 -2.3026463e+38
1.9226242 -0.48805436 1.2614083 -2.2493208e+38
1.9136186 -0.48917446 1.2612969 -2.2094432e+38
1.9136022 -0.49245629 1.2612969 -2.1695138e+38
1.9225751 -0.49795139 1.2614083 -2.1694611e+38
1.9225588 -0.50125039 1.2614083 -2.182701e+38
1.9225423 -0.50454938 1.2614083 -2.1826487e+38
1.922526 -0.50784838 1.2614083 -2.1959406e+38
1.9225097 -0.51114744 1.2614083 -2.1957842e+38
1.9224932 -0.51444638 1.2614083 -2.1823358e+38
1.9224769 -0.51774544 1.2614083 -2.168939e+38
1.9224604 -0.52104449 1.2614083 -2.1687313e+38
1.9134556 -0.5219931 1.2612969 -2.1290103e+38
1.9134393 -0.52527499 1.2612969 -2.0890298e+38
1.9134231 -0.52855682 1.2612969 -2.0756858e+38
1.9134067 -0.53183866 1.2612969 -2.0622892e+38
1.9133904 -0.53512055 1.2612969 -1.9958274e+38
1.9133742 -0.53840244 1.2612969 -1.9293137e+38
1.9133579 -0.54168427 1.2612969 -1.9027287e+38
1.9133415 -0.54496616 1.2612969 -1.8628517e+38
1.9133253 -0.54824799 1.2612969 -1.8760919e+38
1.913309 -0.55152988 1.2612969 -1.8760403e+38
1.9132928 -0.55481172 1.2612969 -1.8759886e+38
1.9132764 -0.55809361 1.2612969 -1.8759892e+38
1.9132601 -0.5613755 1.2612969 -1.9424512e+38
1.9222312 -0.56723058 1.2614083 -2.008809e+38
1.9222149 -0.57052958 1.2614083 -2.0224128e+38
1.9221985 -0.57382858 1.2614083 -2.0492578e+38
1.9311692 -0.57975221 1.2615197 -2.1159277e+38
1.9311527 -0.58306837 1.2615197 -2.1825972e+38
1.9401232 -0.5890435 1.2616311 -2.0357073e+38
1.9401066 -0.59237671 1.2616311 -1.8887667e+38
1.9400901 -0.59571004 1.2616311 -2.3690556e+38
1.9400735 -0.59904337 1.2616311 -2.8638977e+38
1.940057 -0.60237658 1.2616311 nan
1.9310539 -0.60296524 1.2615197 nan
1.8310798 -0.59747469 1.2602817 -2.1167171e+38
1.8240755 -0.59834564 1.260195 -2.369999e+38
1.8160728 -0.59886599 1.260096 -2.623123e+38
1.8160574 -0.60196304 1.260096 -2.6366226e+38
1.8160421 -0.6050601 1.260096 -2.663415e+38
1.8080397 -0.60551941 1.2599969 -2.6635189e+38
1.7930489 -0.60362697 1.2598112 -2.6635704e+38
1.7930337 -0.60668015 1.2598112 -2.6768621e+38
1.7860302 -0.6073854 1.2597245 -2.6902584e+38
1.7860152 -0.61042535 1.2597245 -2.7167912e+38
1.786 -0.61346543 1.2597245 -2.7434807e+38
1.7859849 -0.61650538 1.2597245 -2.770118e+38
1.7789817 -0.61714399 1.2596378 -2.7966498e+38
1.7789667 -0.62017059 1.2596378 -2.810097e+38
1.7709652 -0.62042224 1.2595388 -2.8102516e+38
1.7709503 -0.62343359 1.2595388 -2.7835098e+38
1.7709353 -0.62644506 1.2595388 -2.7701656e+38
1.7639326 -0.62698841 1.2594521 -2.7434253e+38
1.7569299 -0.62750506 1.2593654 -2.7298732e+38
1.7569151 -0.63048983 1.2593654 -2.7030807e+38
1.7569003 -0.63347447 1.2593654 -2.6761844e+38
1.7568855 -0.63645923 1.2593654 -2.6229111e+38
1.7568706 -0.63944399 1.2593654 -2.5829302e+38
1.7568558 -0.64242876 1.2593654 -2.5695856e+38
1.7568411 -0.6454134 1.2593654 -2.5694296e+38
1.7568262 -0.64839816 1.2593654 -2.5427408e+38
1.7568114 -0.65138292 1.2593654 -2.5161045e+38
1.7567966 -0.65436757 1.2593654 -2.5027084e+38
1.7567818 -0.65735233 1.2593654 -2.4893116e+38
1.7567669 -0.66033709 1.2593654 -2.4626744e+38
1.7497653 -0.66068041 1.2592788 -2.4227452e+38
1.7567374 -0.6663065 1.2593654 -2.3696274e+38
1.7497357 -0.66662323 1.2592788 -2.3032694e+38
1.7497209 -0.66959453 1.2592788 -2.3030092e+38
1.7566929 -0.67526066 1.2593654 -2.302749e+38
1.7566781 -0.67824543 1.2593654 -2.289404e+38
1.7496767 -0.67850876 1.2592788 -2.2759555e+38
1.7566484 -0.68421483 1.2593654 -2.2493184e+38
1.7566336 -0.68719959 1.2593654 -2.2358706e+38
1.7566187 -0.69018435 1.2593654 -2.2093901e+38
1.756604 -0.693169 1.2593654 -2.1961499e+38
1.7565892 -0.69615376 1.2593654 -2.1961499e+38
1.7635605 -0.70193982 1.2594521 -2.2095472e+38
1.7635458 -0.70493793 1.2594521 -2.2627174e+38
1.7635309 -0.70793593 1.2594521 -2.3158871e+38
1.7635159 -0.71093404 1.2594521 -2.3557644e+38
1.770487 -0.71678674 1.2595388 -2.3955889e+38
1.7704719 -0.71979821 1.2595388 -2.3691077e+38
1.770457 -0.72280955 1.2595388 -2.3559694e+38
1.7784258 -0.72912931 1.2596378 -2.1957331e+38
1.7853965 -0.73506379 1.2597245 -2.0489548e+38
1.7853813 -0.73810387 1.2597245 -2.4510022e+38
1.7853663 -0.74114382 1.2597245 -2.8528406e+38
1.7853512 -0.74418378 1.2597245 -3.0253871e+38
1.785336 -0.74722373 1.2597245 -3.2138176e+38
1.785321 -0.75026369 1.2597245 -3.3457559e+38
1.9858043 -0.45190182 1.2587693 -2.1835923e+38
1.9767969 -0.45339903 1.258675 -2.6109751e+38
1.9767801 -0.45680088 1.258675 -2.6393301e+38
1.9767631 -0.46020275 1.258675 -2.6521518e+38
1.9677559 -0.46163139 1.2585807 -2.6913504e+38
1.9677391 -0.46501613 1.2585807 -2.7304472e+38
1.9587321 -0.46639332 1.2584864 -2.6893749e+38
1.9497254 -0.46773627 1.2583921 -2.6496011e+38
1.9407188 -0.46904489 1.2582978 -2.6095679e+38
1.9407023 -0.47237819 1.2582978 -2.5560345e+38
1.9316958 -0.47363541 1.2582035 -2.5026571e+38
1.9316794 -0.47695157 1.2582035 -2.4492794e+38
1.9316629 -0.48026773 1.2582035 -2.409246e+38
1.9316465 -0.48358387 1.2582035 -2.3559722e+38
1.93163 -0.48690003 1.2582035 -2.2894064e+38
1.9226242 -0.48805436 1.2581092 -2.2228925e+38
1.9226079 -0.49135339 1.2581092 -2.1963073e+38
1.9225914 -0.49465239 1.2581092 -2.1695664e+38
1.9225751 -0.49795139 1.2581092 -2.1695138e+38
1.9225588 -0.50125039 1.2581092 -2.1561173e+38
1.9225423 -0.50454938 1.2581092 -2.1827017e+38
1.922526 -0.50784838 1.2581092 -2.1958374e+38
1.9314983 -0.51342922 1.2582035 -2.1823887e+38
1.9224932 -0.51444638 1.2581092 -2.1689918e+38
1.9224769 -0.51774544 1.2581092 -2.1555948e+38
1.9224604 -0.52104449 1.2581092 -2.1290622e+38
1.9224441 -0.52434343 1.2581092 -2.1292182e+38
1.9224278 -0.52764249 1.2581092 -2.1290103e+38
1.9134231 -0.52855682 1.2580149 -2.1022699e+38
1.9134067 -0.53183866 1.2580149 -2.0755813e+38
1.9133904 -0.53512055 1.2580149 -1.9957755e+38
1.9133742 -0.53840244 1.2580149 -1.9160214e+38
1.9133579 -0.54168427 1.2580149 -1.8761444e+38
1.9133415 -0.54496616 1.2580149 -1.8362156e+38
1.9133253 -0.54824799 1.2580149 -1.8627481e+38
1.913309 -0.55152988 1.2580149 -1.8760405e+38
1.9132928 -0.55481172 1.2580149 -1.8759888e+38
1.9132764 -0.55809361 1.2580149 -1.8759892e+38
1.9132601 -0.5613755 1.2580149 -1.9556916e+38
1.9222312 -0.56723058 1.2581092 -2.0223611e+38
1.9222149 -0.57052958 1.2581092 -2.062498e+38
1.9221985 -0.57382858 1.2581092 -2.0892389e+38
1.9311692 -0.57975221 1.2582035 -2.1425644e+38
1.9311527 -0.58306837 1.2582035 -2.1823368e+38
1.9401232 -0.5890435 1.2582978 -1.9955692e+38
1.9401066 -0.59237671 1.2582978 -1.8103148e+38
1.9400901 -0.59571004 1.2582978 -2.7695985e+38
1.9400735 -0.59904337 1.2582978 nan
1.940057 -0.60237658 1.2582978 nan
1.9310539 -0.60296524 1.2582035 nan
1.8310798 -0.59747469 1.2571559 -2.3422155e+38
1.8160882 -0.59576881 1.2569988 -2.5026068e+38
1.8160728 -0.59886599 1.2569988 -2.6496019e+38
1.8080703 -0.59935582 1.256915 -2.6632591e+38
1.808055 -0.60243762 1.256915 -2.6634668e+38
1.8080397 -0.60551941 1.256915 -2.6635708e+38
1.7930489 -0.60362697 1.2567579 -2.6635704e+38
1.7930337 -0.60668015 1.2567579 -2.6768623e+38
1.7860302 -0.6073854 1.2566845 -2.6769142e+38
1.7860152 -0.61042535 1.2566845 -2.716843e+38
1.786 -0.61346543 1.2566845 -2.7434805e+38
1.7859849 -0.61650538 1.2566845 -2.7701699e+38
1.7789817 -0.61714399 1.2566111 -2.7967534e+38
1.7789667 -0.62017059 1.2566111 -2.8234929e+38
1.7709652 -0.62042224 1.2565273 -2.8367325e+38
1.7709503 -0.62343359 1.2565273 -2.8100433e+38
1.7709353 -0.62644506 1.2565273 -2.7701143e+38
1.7639326 -0.62698841 1.256454 -2.756718e+38
1.7639177 -0.62998641 1.256454 -2.7432176e+38
1.7569151 -0.63048983 1.2563807 -2.716373e+38
1.7569003 -0.63347447 1.2563807 -2.6894765e+38
1.7568855 -0.63645923 1.2563807 -2.6494433e+38
1.7568706 -0.63944399 1.2563807 -2.5962221e+38
1.7568558 -0.64242876 1.2563807 -2.5961697e+38
1.7568411 -0.6454134 1.2563807 -2.5827215e+38
1.7568262 -0.64839816 1.2563807 -2.5559811e+38
1.7568114 -0.65138292 1.2563807 -2.5161043e+38
1.7567966 -0.65436757 1.2563807 -2.5160005e+38
1.7567818 -0.65735233 1.2563807 -2.5026037e+38
1.7567669 -0.66033709 1.2563807 -2.4759668e+38
1.7497653 -0.66068041 1.2563074 -2.4360896e+38
1.7567374 -0.6663065 1.2563807 -2.382972e+38
1.7497357 -0.66662323 1.2563074 -2.3296465e+38
1.7497209 -0.66959453 1.2563074 -2.3293865e+38
1.7566929 -0.67526066 1.2563807 -2.3160415e+38
1.7566781 -0.67824543 1.2563807 -2.2893524e+38
1.7496767 -0.67850876 1.2563074 -2.2627154e+38
1.7566484 -0.68421483 1.2563807 -2.2493705e+38
1.7566336 -0.68719959 1.2563807 -2.2226821e+38
1.7566187 -0.69018435 1.2563807 -2.1961497e+38
1.756604 -0.693169 1.2563807 -2.1562731e+38
1.7635754 -0.69894183 1.256454 -2.1828578e+38
1.7635605 -0.70193982 1.256454 -2.1962028e+38
1.7635458 -0.70493793 1.256454 -2.2759573e+38
1.7635309 -0.70793593 1.256454 -2.3424191e+38
1.7635159 -0.71093404 1.256454 -2.3689522e+38
1.770487 -0.71678674 1.2565273 -2.3824522e+38
1.7704719 -0.71979821 1.2565273 -2.3692637e+38
1.770457 -0.72280955 1.2565273 -2.3557623e+38
1.7784258 -0.72912931 1.2566111 -2.3286569e+38
1.7784108 -0.73215592 1.2566111 -2.2889425e+38
1.7853813 -0.73810387 1.2566845 -2.3442991e+38
1.7853663 -0.74114382 1.2566845 -2.3974175e+38
1.7853512 -0.74418378 1.2566845 -2.115633e+38
1.785336 -0.74722373 1.2566845 -1.8255962e+38
1.9857874 -0.45532084 1.2553502 -2.4644481e+38
1.9767801 -0.45680088 1.2552731 -2.6254664e+38
1.9767631 -0.46020275 1.2552731 -2.7984707e+38
1.9767462 -0.46360463 1.2552731 -2.7579157e+38
1.9677391 -0.46501613 1.2551959 -2.7308626e+38
1.9587321 -0.46639332 1.2551187 -2.6902574e+38
1.9587154 -0.46976092 1.2551187 -2.6631011e+38
1.9497087 -0.47108668 1.2550416 -2.6096196e+38
1.9407023 -0.47237819 1.2549645 -2.5693268e+38
1.9406857 -0.47571149 1.2549645 -2.5027088e+38
1.9406692 -0.4790448 1.2549645 -2.4492794e+38
1.9406526 -0.4823781 1.2549645 -2.4092979e+38
1.940636 -0.48571137 1.2549645 -2.3693169e+38
1.93163 -0.48690003 1.2548873 -2.3028029e+38
1.9316136 -0.49021617 1.2548873 -2.2362371e+38
1.9226079 -0.49135339 1.2548102 -2.2095481e+38
1.9225914 -0.49465239 1.2548102 -2.1828592e+38
1.9225751 -0.49795139 1.2548102 -2.1828067e+38
1.9225588 -0.50125039 1.2548102 -2.1826507e+38
1.9225423 -0.50454938 1.2548102 -2.1825986e+38
1.922526 -0.50784838 1.2548102 -2.1957343e+38
1.9314983 -0.51342922 1.2548873 -2.1690449e+38
1.9314818 -0.51674533 1.2548873 -2.1423555e+38
1.9224769 -0.51774544 1.2548102 -2.1025295e+38
1.9224604 -0.52104449 1.2548102 -2.0627048e+38
1.9224441 -0.52434343 1.2548102 -2.0758933e+38
1.9224278 -0.52764249 1.2548102 -2.0890815e+38
1.9134231 -0.52855682 1.2547331 -2.0755811e+38
1.9134067 -0.53183866 1.2547331 -2.0754253e+38
1.9133904 -0.53512055 1.2547331 -1.9957234e+38
1.9133742 -0.53840244 1.2547331 -1.9292101e+38
1.9133579 -0.54168427 1.2547331 -1.8893849e+38
1.9223294 -0.54743648 1.2548102 -1.8495081e+38
1.9223131 -0.55073547 1.2548102 -1.8495081e+38
1.9222968 -0.55403453 1.2548102 -1.84956e+38
1.9222803 -0.55733353 1.2548102 -1.8628004e+38
1.922264 -0.56063253 1.2548102 -1.8893336e+38
1.9222476 -0.56393158 1.2548102 -1.9558993e+38
1.9222312 -0.56723058 1.2548102 -2.0225171e+38
1.9222149 -0.57052958 1.2548102 -2.0758945e+38
1.9311856 -0.57643604 1.2548873 -2.1425642e+38
1.9311692 -0.57975221 1.2548873 -2.1824934e+38
1.9401397 -0.58571017 1.2549645 -2.2358168e+38
1.9401232 -0.5890435 1.2549645 -2.0225156e+38
1.9401066 -0.59237671 1.2549645 -1.8234032e+38
1.9490768 -0.59840322 1.2550416 -2.8374708e+38
1.9400735 -0.59904337 1.2549645 nan
1.940057 -0.60237658 1.2549645 nan
1.9400405 -0.60570991 1.2549645 nan
1.8160882 -0.59576881 1.2539016 -2.5552532e+38
1.8160728 -0.59886599 1.2539016 -2.5568139e+38
1.8080703 -0.59935582 1.2538331 -2.6101936e+38
1.808055 -0.60243762 1.2538331 -2.6635706e+38
1.8080397 -0.60551941 1.2538331 -2.6901034e+38
1.7930489 -0.60362697 1.2537044 -2.7033953e+38
1.7930337 -0.60668015 1.2537044 -2.7300314e+38
1.7860302 -0.6073854 1.2536445 -2.7433756e+38
1.7860152 -0.61042535 1.2536445 -2.7567196e+38
1.786 -0.61346543 1.2536445 -2.7833052e+38
1.7859849 -0.61650538 1.2536445 -2.7967023e+38
1.7789817 -0.61714399 1.2535845 -2.823338e+38
1.7789667 -0.62017059 1.2535845 -2.8367331e+38
1.7789516 -0.6231972 1.2535845 -2.850025e+38
1.7789366 -0.6262238 1.2535845 -2.8100439e+38
1.7789216 -0.62925041 1.2535845 -2.7833551e+38
1.7709204 -0.6294564 1.253516 -2.7567701e+38
1.7639177 -0.62998641 1.2534559 -2.7432178e+38
1.7639029 -0.63298452 1.2534559 -2.716373e+38
1.763888 -0.63598251 1.2534559 -2.6893725e+38
1.7638731 -0.63898063 1.2534559 -2.6627352e+38
1.7638582 -0.64197874 1.2534559 -2.6227024e+38
1.7568558 -0.64242876 1.2533959 -2.6093058e+38
1.7568411 -0.6454134 1.2533959 -2.5959097e+38
1.7568262 -0.64839816 1.2533959 -2.5693251e+38
1.7568114 -0.65138292 1.2533959 -2.5426887e+38
1.7567966 -0.65436757 1.2533959 -2.5160003e+38
1.7567818 -0.65735233 1.2533959 -2.5024999e+38
1.7567669 -0.66033709 1.2533959 -2.4626746e+38
1.7567521 -0.66332173 1.2533959 -2.4360379e+38
1.7567374 -0.6663065 1.2533959 -2.3828164e+38
1.7567225 -0.66929126 1.2533959 -2.3294911e+38
1.7567077 -0.6722759 1.2533959 -2.3161463e+38
1.7566929 -0.67526066 1.2533959 -2.3027496e+38
1.7566781 -0.67824543 1.2533959 -2.2894048e+38
1.7496767 -0.67850876 1.253336 -2.2760078e+38
1.7566484 -0.68421483 1.2533959 -2.2493186e+38
1.7566336 -0.68719959 1.2533959 -2.2359227e+38
1.7566187 -0.69018435 1.2533959 -2.1960978e+38
1.756604 -0.693169 1.2533959 -2.1695134e+38
1.7635754 -0.69894183 1.2534559 -2.1828578e+38
1.7635605 -0.70193982 1.2534559 -2.1962026e+38
1.7635458 -0.70493793 1.2534559 -2.2626646e+38
1.7705168 -0.71076393 1.253516 -2.3291262e+38
1.7705019 -0.7137754 1.253516 -2.3558149e+38
1.770487 -0.71678674 1.253516 -2.3826596e+38
1.7704719 -0.71979821 1.253516 -2.3825043e+38
1.7784408 -0.72610259 1.2535845 -2.3824513e+38
1.7784258 -0.72912931 1.2535845 -2.3152618e+38
1.7784108 -0.73215592 1.2535845 -2.2477674e+38
1.7853813 -0.73810387 1.2536445 -2.6228642e+38
1.7853663 -0.74114382 1.2536445 -2.9945769e+38
1.7923366 -0.74713182 1.2537044 -3.1022613e+38
1.9857874 -0.45532084 1.2519312 -2.3048886e+38
1.9767801 -0.45680088 1.2518711 -2.6262455e+38
1.9767631 -0.46020275 1.2518711 -2.9310824e+38
1.9767462 -0.46360463 1.2518711 -2.8376182e+38
1.9767294 -0.46700647 1.2518711 -2.7309151e+38
1.9677223 -0.46840087 1.2518111 -2.7041736e+38
1.9587154 -0.46976092 1.2517512 -2.6634649e+38
1.9497087 -0.47108668 1.2516911 -2.6231198e+38
1.9407023 -0.47237819 1.2516311 -2.5695345e+38
1.9406857 -0.47571149 1.2516311 -2.5161568e+38
1.9406692 -0.4790448 1.2516311 -2.449435e+38
1.9406526 -0.4823781 1.2516311 -2.4093499e+38
1.940636 -0.48571137 1.2516311 -2.3693686e+38
1.93163 -0.48690003 1.2515712 -2.3161471e+38
1.9316136 -0.49021617 1.2515712 -2.2495291e+38
1.9226079 -0.49135339 1.2515111 -2.2228399e+38
1.9315807 -0.49684846 1.2515712 -2.1961511e+38
1.9315642 -0.50016463 1.2515712 -2.2093911e+38
1.9225588 -0.50125039 1.2515111 -2.2092351e+38
1.9315313 -0.50679696 1.2515712 -2.1958388e+38
1.9315147 -0.51011306 1.2515712 -2.1823897e+38
1.9314983 -0.51342922 1.2515712 -2.1556486e+38
1.9314818 -0.51674533 1.2515712 -2.1158226e+38
1.9314654 -0.52006149 1.2515712 -2.0626527e+38
1.9314489 -0.52337766 1.2515712 -1.9961394e+38
1.9224441 -0.52434343 1.2515111 -2.0225682e+38
1.9224278 -0.52764249 1.2515111 -2.0491004e+38
1.9224113 -0.53094149 1.2515111 -2.0621848e+38
1.9134067 -0.53183866 1.2514511 -2.0621848e+38
1.9223787 -0.53753948 1.2515111 -2.0089637e+38
1.9223622 -0.54083848 1.2515111 -1.9425543e+38
1.9223459 -0.54413748 1.2515111 -1.9026253e+38
1.9223294 -0.54743648 1.2515111 -1.8495079e+38
1.9223131 -0.55073547 1.2515111 -1.8362675e+38
1.9222968 -0.55403453 1.2515111 -1.8096832e+38
1.9222803 -0.55733353 1.2515111 -1.8629046e+38
1.922264 -0.56063253 1.2515111 -1.9027304e+38
1.9222476 -0.56393158 1.2515111 -1.9692447e+38
1.9312185 -0.56980371 1.2515712 -2.0226217e+38
1.9312021 -0.57311988 1.2515712 -2.1025316e+38
1.9311856 -0.57643604 1.2515712 -2.1824416e+38
1.9401562 -0.58237684 1.2516311 -2.2356633e+38
1.9401397 -0.58571017 1.2516311 -2.2887273e+38
1.9401232 -0.5890435 1.2516311 -2.0618225e+38
1.9401066 -0.59237671 1.2516311 -1.8239214e+38
1.9490768 -0.59840322 1.2516911 -2.9184154e+38
1.9400735 -0.59904337 1.2516311 nan
1.940057 -0.60237658 1.2516311 nan
1.9400405 -0.60570991 1.2516311 nan
1.8160882 -0.59576881 1.2508045 -2.6225442e+38
1.8160728 -0.59886599 1.2508045 -2.4635597e+38
1.8080703 -0.59935582 1.2507511 -2.570421e+38
1.808055 -0.60243762 1.2507511 -2.6634672e+38
1.8080397 -0.60551941 1.2507511 -2.7032923e+38
1.7930489 -0.60362697 1.2506511 -2.7432724e+38
1.7930337 -0.60668015 1.2506511 -2.7831488e+38
1.7860302 -0.6073854 1.2506045 -2.8098374e+38
1.7860152 -0.61042535 1.2506045 -2.8098895e+38
1.786 -0.61346543 1.2506045 -2.8099421e+38
1.7859849 -0.61650538 1.2506045 -2.8365792e+38
1.7789817 -0.61714399 1.2505578 -2.8500264e+38
1.7789667 -0.62017059 1.2505578 -2.8501296e+38
1.7789516 -0.6231972 1.2505578 -2.8500254e+38
1.7789366 -0.6262238 1.2505578 -2.8233885e+38
1.7789216 -0.62925041 1.2505578 -2.783511e+38
1.7709204 -0.6294564 1.2505045 -2.756978e+38
1.7639177 -0.62998641 1.2504578 -2.7299774e+38
1.7639029 -0.63298452 1.2504578 -2.7164249e+38
1.763888 -0.63598251 1.2504578 -2.689528e+38
1.7638731 -0.63898063 1.2504578 -2.676079e+38
1.7638582 -0.64197874 1.2504578 -2.6492344e+38
1.7568558 -0.64242876 1.2504112 -2.6224415e+38
1.7568411 -0.6454134 1.2504112 -2.595961e+38
1.7568262 -0.64839816 1.2504112 -2.5827728e+38
1.7568114 -0.65138292 1.2504112 -2.5559803e+38
1.7567966 -0.65436757 1.2504112 -2.5293439e+38
1.7567818 -0.65735233 1.2504112 -2.5026033e+38
1.7567669 -0.66033709 1.2504112 -2.4626742e+38
1.7567521 -0.66332173 1.2504112 -2.4227454e+38
1.7567374 -0.6663065 1.2504112 -2.3828166e+38
1.7567225 -0.66929126 1.2504112 -2.3295428e+38
1.7567077 -0.6722759 1.2504112 -2.3029056e+38
1.7566929 -0.67526066 1.2504112 -2.2762169e+38
1.7566781 -0.67824543 1.2504112 -2.2761127e+38
1.7496767 -0.67850876 1.2503645 -2.2759563e+38
1.7566484 -0.68421483 1.2504112 -2.2625594e+38
1.7566336 -0.68719959 1.2504112 -2.2492671e+38
1.7566187 -0.69018435 1.2504112 -2.2093901e+38
1.756604 -0.693169 1.2504112 -2.1695136e+38
1.7635754 -0.69894183 1.2504578 -2.182858e+38
1.7635605 -0.70193982 1.2504578 -2.1828586e+38
1.7635458 -0.70493793 1.2504578 -2.2492687e+38
1.7705168 -0.71076393 1.2505045 -2.3025419e+38
1.7705019 -0.7137754 1.2505045 -2.3425747e+38
1.770487 -0.71678674 1.2505045 -2.3691601e+38
1.7784559 -0.72307599 1.2505578 -2.3823493e+38
1.7784408 -0.72610259 1.2505578 -2.395641e+38
1.7784258 -0.72912931 1.2505578 -2.3020752e+38
1.7853965 -0.73506379 1.2506045 -2.2096594e+38
1.7853813 -0.73810387 1.2506045 -2.9047076e+38
1.7923517 -0.74407852 1.2506511 nan
1.7923366 -0.74713182 1.2506511 nan
1.9857874 -0.45532084 1.2485121 -2.3846942e+38
1.9767801 -0.45680088 1.2484692 -2.7315453e+38
1.9767631 -0.46020275 1.2484692 -3.0764152e+38
1.9767462 -0.46360463 1.2484692 -2.9171129e+38
1.9677391 -0.46501613 1.2484264 -2.7705331e+38
1.9677223 -0.46840087 1.2484264 -2.7171549e+38
1.9587154 -0.46976092 1.2483835 -2.6634134e+38
1.9497087 -0.47108668 1.2483407 -2.6098796e+38
1.9496921 -0.47443715 1.2483407 -2.5562943e+38
1.9406857 -0.47571149 1.2482978 -2.5029165e+38
1.9406692 -0.4790448 1.2482978 -2.449435e+38
1.9406526 -0.4823781 1.2482978 -2.4094016e+38
1.940636 -0.48571137 1.2482978 -2.3693167e+38
1.93163 -0.48690003 1.248255 -2.3293875e+38
1.9316136 -0.49021617 1.248255 -2.2760097e+38
1.9226079 -0.49135339 1.2482121 -2.2493722e+38
1.9315807 -0.49684846 1.248255 -2.2227353e+38
1.9315642 -0.50016463 1.248255 -2.2093387e+38
1.9315478 -0.50348079 1.248255 -2.2091828e+38
1.9315313 -0.50679696 1.248255 -2.1824942e+38
1.9315147 -0.51011306 1.248255 -2.1690453e+38
1.9314983 -0.51342922 1.248255 -2.1291674e+38
1.9314818 -0.51674533 1.248255 -2.1025304e+38
1.9314654 -0.52006149 1.248255 -2.0493085e+38
1.9314489 -0.52337766 1.248255 -2.0093795e+38
1.9314325 -0.52669382 1.248255 -1.9960351e+38
1.931416 -0.53000998 1.248255 -1.9826388e+38
1.9224113 -0.53094149 1.2482121 -1.9692425e+38
1.9134067 -0.53183866 1.2481693 -1.9559504e+38
1.9223787 -0.53753948 1.2482121 -1.9426062e+38
1.9223622 -0.54083848 1.2482121 -1.9426062e+38
1.9223459 -0.54413748 1.2482121 -1.9159695e+38
1.9223294 -0.54743648 1.2482121 -1.8894367e+38
1.9223131 -0.55073547 1.2482121 -1.8628517e+38
1.9222968 -0.55403453 1.2482121 -1.836268e+38
1.9312679 -0.55985534 1.248255 -1.9027819e+38
1.9312514 -0.56317145 1.248255 -1.9559522e+38
1.931235 -0.56648761 1.248255 -2.0225187e+38
1.9312185 -0.56980371 1.248255 -2.0891878e+38
1.9312021 -0.57311988 1.248255 -2.1291685e+38
1.9311856 -0.57643604 1.248255 -2.1824422e+38
1.9401562 -0.58237684 1.2482978 -2.2091834e+38
1.9401397 -0.58571017 1.2482978 -2.2493188e+38
1.9401232 -0.5890435 1.2482978 -2.008447e+38
1.9401066 -0.59237671 1.2482978 -1.7812917e+38
1.9490768 -0.59840322 1.2483407 -2.8773411e+38
1.9490601 -0.60175371 1.2483407 nan
1.9490435 -0.60510409 1.2483407 nan
1.9400405 -0.60570991 1.2482978 nan
1.8160882 -0.59576881 1.2477074 -2.6354196e+38
1.8080856 -0.5962739 1.2476692 -2.5431572e+38
1.8080703 -0.59935582 1.2476692 -2.6101425e+38
1.808055 -0.60243762 1.2476692 -2.6900002e+38
1.8080397 -0.60551941 1.2476692 -2.7166367e+38
1.7930489 -0.60362697 1.2475978 -2.7432728e+38
1.7930337 -0.60668015 1.2475978 -2.7698567e+38
1.7860302 -0.6073854 1.2475644 -2.7965457e+38
1.7860152 -0.61042535 1.2475644 -2.8098903e+38
1.786 -0.61346543 1.2475644 -2.8231828e+38
1.7859849 -0.61650538 1.2475644 -2.8366309e+38
1.7789817 -0.61714399 1.2475312 -2.8633708e+38
1.7789667 -0.62017059 1.2475312 -2.8766107e+38
1.7789516 -0.6231972 1.2475312 -2.8765065e+38
1.7789366 -0.6262238 1.2475312 -2.8499733e+38
1.7789216 -0.62925041 1.2475312 -2.8234402e+38
1.7709204 -0.6294564 1.247493 -2.7965954e+38
1.7709055 -0.63246787 1.247493 -2.7564584e+38
1.7639029 -0.63298452 1.2474598 -2.7296653e+38
1.763888 -0.63598251 1.2474598 -2.6894759e+38
1.7638731 -0.63898063 1.2474598 -2.6627344e+38
1.7638582 -0.64197874 1.2474598 -2.6358377e+38
1.7568558 -0.64242876 1.2474264 -2.6092523e+38
1.7568411 -0.6454134 1.2474264 -2.5827201e+38
1.7568262 -0.64839816 1.2474264 -2.5693241e+38
1.7568114 -0.65138292 1.2474264 -2.5558761e+38
1.7567966 -0.65436757 1.2474264 -2.5159471e+38
1.7567818 -0.65735233 1.2474264 -2.4759662e+38
1.7567669 -0.66033709 1.2474264 -2.4360892e+38
1.7567521 -0.66332173 1.2474264 -2.3828164e+38
1.7567374 -0.6663065 1.2474264 -2.3429398e+38
1.7567225 -0.66929126 1.2474264 -2.3029581e+38
1.7567077 -0.6722759 1.2474264 -2.2896648e+38
1.7566929 -0.67526066 1.2474264 -2.2762167e+38
1.7566781 -0.67824543 1.2474264 -2.276061e+38
1.7566632 -0.68123019 1.2474264 -2.2758008e+38
1.7566484 -0.68421483 1.2474264 -2.2625598e+38
1.7566336 -0.68719959 1.2474264 -2.2492154e+38
1.7566187 -0.69018435 1.2474264 -2.2093901e+38
1.756604 -0.693169 1.2474264 -2.1695136e+38
1.7635754 -0.69894183 1.2474598 -2.1960986e+38
1.7635605 -0.70193982 1.2474598 -2.235976e+38
1.7635458 -0.70493793 1.2474598 -2.2624052e+38
1.7705168 -0.71076393 1.247493 -2.3023861e+38
1.7705019 -0.7137754 1.247493 -2.3290747e+38
1.770487 -0.71678674 1.247493 -2.3557644e+38
1.7784559 -0.72307599 1.2475312 -2.3824019e+38
1.7784408 -0.72610259 1.2475312 -2.409246e+38
1.7784258 -0.72912931 1.2475312 -2.1951674e+38
1.7853965 -0.73506379 1.2475644 -1.9955847e+38
1.7853813 -0.73810387 1.2475644 -3.1314606e+38
1.7923517 -0.74407852 1.2475978 nan
1.7923366 -0.74713182 1.2475978 nan
1.9767969 -0.45339903 1.2450674 -2.4507897e+38
1.9767801 -0.45680088 1.2450674 -2.8388688e+38
1.9767631 -0.46020275 1.2450674 -3.2102201e+38
1.9677559 -0.46163139 1.2450416 -3.010367e+38
1.9677391 -0.46501613 1.2450416 -2.810514e+38
1.9677223 -0.46840087 1.2450416 -2.743688e+38
1.9587154 -0.46976092 1.2450159 -2.6634657e+38
1.9497087 -0.47108668 1.2449902 -2.6100358e+38
1.9496921 -0.47443715 1.2449902 -2.543158e+38
1.9406857 -0.47571149 1.2449645 -2.5029686e+38
1.9406692 -0.4790448 1.2449645 -2.4495389e+38
1.9406526 -0.4823781 1.2449645 -2.4095052e+38
1.940636 -0.48571137 1.2449645 -2.3694203e+38
1.93163 -0.48690003 1.2449387 -2.3426796e+38
1.9316136 -0.49021617 1.2449387 -2.302594e+38
1.9405864 -0.49571124 1.2449645 -2.2759048e+38
1.9405699 -0.49904454 1.2449645 -2.249216e+38
1.9315642 -0.50016463 1.2449387 -2.222527e+38
1.9315478 -0.50348079 1.2449387 -2.1958901e+38
1.9315313 -0.50679696 1.2449387 -2.1691494e+38
1.9315147 -0.51011306 1.2449387 -2.1425121e+38
1.9404871 -0.51571101 1.2449645 -2.1159269e+38
1.9314818 -0.51674533 1.2449387 -2.0759458e+38
1.9314654 -0.52006149 1.2449387 -2.049257e+38
1.9314489 -0.52337766 1.2449387 -2.0226201e+38
1.9314325 -0.52669382 1.2449387 -1.9694508e+38
1.931416 -0.53000998 1.2449387 -1.9028851e+38
1.9224113 -0.53094149 1.2449131 -1.8762484e+38
1.922395 -0.53424048 1.2449131 -1.8496639e+38
1.9223787 -0.53753948 1.2449131 -1.8894886e+38
1.9313502 -0.54327452 1.2449387 -1.9293137e+38
1.9313338 -0.54659069 1.2449387 -1.9292101e+38
1.9313172 -0.54990685 1.2449387 -1.9160212e+38
1.9313008 -0.55322301 1.2449387 -1.8894365e+38
1.9312843 -0.55653918 1.2449387 -1.8629044e+38
1.9312679 -0.55985534 1.2449387 -1.9427104e+38
1.9312514 -0.56317145 1.2449387 -2.0092246e+38
1.931235 -0.56648761 1.2449387 -2.0757385e+38
1.9312185 -0.56980371 1.2449387 -2.1423559e+38
1.9312021 -0.57311988 1.2449387 -2.1557001e+38
1.9311856 -0.57643604 1.2449387 -2.1692013e+38
1.9401562 -0.58237684 1.2449645 -2.1958909e+38
1.9401397 -0.58571017 1.2449645 -2.2087658e+38
1.94911 -0.59170234 1.2449902 -1.9678931e+38
1.9490933 -0.59505284 1.2449902 -1.7300972e+38
1.9490768 -0.59840322 1.2449902 -2.8388198e+38
1.9490601 -0.60175371 1.2449902 nan
1.9490435 -0.60510409 1.2449902 nan
1.9490268 -0.60845459 1.2449902 nan
1.8240755 -0.59834564 1.2446331 -2.6481955e+38
1.8080856 -0.5962739 1.2445873 -2.6094125e+38
1.8080703 -0.59935582 1.2445873 -2.6634678e+38
1.808055 -0.60243762 1.2445873 -2.7033442e+38
1.8080397 -0.60551941 1.2445873 -2.7299805e+38
1.8010358 -0.60627997 1.2445674 -2.7432716e+38
1.7930337 -0.60668015 1.2445445 -2.7697513e+38
1.7930186 -0.60973346 1.2445445 -2.7832537e+38
1.7860152 -0.61042535 1.2445245 -2.8099447e+38
1.786 -0.61346543 1.2445245 -2.8232881e+38
1.7859849 -0.61650538 1.2445245 -2.8499238e+38
1.7789817 -0.61714399 1.2445045 -2.8765596e+38
1.7789667 -0.62017059 1.2445045 -2.8897996e+38
1.7789516 -0.6231972 1.2445045 -2.9031432e+38
1.7789366 -0.6262238 1.2445045 -2.8899022e+38
1.7789216 -0.62925041 1.2445045 -2.8631096e+38
1.7709204 -0.6294564 1.2444817 -2.8229729e+38
1.7639177 -0.62998641 1.2444617 -2.7829397e+38
1.7639029 -0.63298452 1.2444617 -2.7429584e+38
1.763888 -0.63598251 1.2444617 -2.6895806e+38
1.7638731 -0.63898063 1.2444617 -2.6627873e+38
1.7638582 -0.64197874 1.2444617 -2.6227539e+38
1.7568558 -0.64242876 1.2444416 -2.5960647e+38
1.7568411 -0.6454134 1.2444416 -2.5693761e+38
1.7568262 -0.64839816 1.2444416 -2.555928e+38
1.7568114 -0.65138292 1.2444416 -2.5425832e+38
1.7567966 -0.65436757 1.2444416 -2.5026021e+38
1.7567818 -0.65735233 1.2444416 -2.449433e+38
1.7567669 -0.66033709 1.2444416 -2.3962119e+38
1.7567521 -0.66332173 1.2444416 -2.3429911e+38
1.7567374 -0.6663065 1.2444416 -2.3030627e+38
1.7567225 -0.66929126 1.2444416 -2.263237e+38
1.7567077 -0.6722759 1.2444416 -2.2632881e+38
1.7566929 -0.67526066 1.2444416 -2.2629243e+38
1.7566781 -0.67824543 1.2444416 -2.2627683e+38
1.7566632 -0.68123019 1.2444416 -2.2626642e+38
1.7566484 -0.68421483 1.2444416 -2.2492679e+38
1.7566336 -0.68719959 1.2444416 -2.2359754e+38
1.7566187 -0.69018435 1.2444416 -2.2093389e+38
1.756604 -0.693169 1.2444416 -2.1694623e+38
1.7635754 -0.69894183 1.2444617 -2.2225278e+38
1.7635605 -0.70193982 1.2444617 -2.2755933e+38
1.7705318 -0.70775259 1.2444817 -2.2885744e+38
1.7705168 -0.71076393 1.2444817 -2.2889381e+38
1.7705019 -0.7137754 1.2444817 -2.3155228e+38
1.770487 -0.71678674 1.2444817 -2.3290238e+38
1.7784559 -0.72307599 1.2445045 -2.3689017e+38
1.7784408 -0.72610259 1.2445045 -2.4082569e+38
1.7784258 -0.72912931 1.2445045 -2.1002993e+38
1.7853965 -0.73506379 1.2445245 -1.7849332e+38
1.7853813 -0.73810387 1.2445245 -3.3743612e+38
1.7923517 -0.74407852 1.2445445 nan
1.8003199 -0.75050104 1.2445674 nan
1.8072901 -0.756531 1.2445873 nan
1.9857705 -0.45873985 1.2416741 -2.7052696e+38
1.9857534 -0.46215883 1.2416741 -3.210687e+38
1.9767462 -0.46360463 1.2416655 -3.0236594e+38
1.9677391 -0.46501613 1.2416569 -2.8370471e+38
1.9677223 -0.46840087 1.2416569 -2.7568249e+38
1.9587154 -0.46976092 1.2416483 -2.6765507e+38
1.9497087 -0.47108668 1.2416397 -2.6099841e+38
1.9496921 -0.47443715 1.2416397 -2.5431063e+38
1.9496754 -0.47778758 1.2416397 -2.5029688e+38
1.9406692 -0.4790448 1.2416312 -2.4628311e+38
1.9406526 -0.4823781 1.2416312 -2.4095568e+38
1.940636 -0.48571137 1.2416312 -2.3695237e+38
1.9406196 -0.48904467 1.2416312 -2.3427311e+38
1.9316136 -0.49021617 1.2416226 -2.3291267e+38
1.9315971 -0.4935323 1.2416226 -2.2891452e+38
1.9405699 -0.49904454 1.2416312 -2.24906e+38
1.9315642 -0.50016463 1.2416226 -2.2092345e+38
1.9315478 -0.50348079 1.2416226 -2.169409e+38
1.9315313 -0.50679696 1.2416226 -2.1426159e+38
1.9315147 -0.51011306 1.2416226 -2.1159271e+38
1.9314983 -0.51342922 1.2416226 -2.0892902e+38
1.9314818 -0.51674533 1.2416226 -2.0759458e+38
1.9314654 -0.52006149 1.2416226 -2.0492572e+38
1.9314489 -0.52337766 1.2416226 -2.0358607e+38
1.9314325 -0.52669382 1.2416226 -1.9959834e+38
1.931416 -0.53000998 1.2416226 -1.9427102e+38
1.9224113 -0.53094149 1.241614 -1.9028849e+38
1.922395 -0.53424048 1.241614 -1.8630079e+38
1.9313667 -0.53995842 1.2416226 -1.8894882e+38
1.9313502 -0.54327452 1.2416226 -1.9160212e+38
1.9313338 -0.54659069 1.2416226 -1.9160216e+38
1.9313172 -0.54990685 1.2416226 -1.9160734e+38
1.9313008 -0.55322301 1.2416226 -1.9160732e+38
1.9312843 -0.55653918 1.2416226 -1.9160736e+38
1.9312679 -0.55985534 1.2416226 -1.9825871e+38
1.9312514 -0.56317145 1.2416226 -2.0491006e+38
1.931235 -0.56648761 1.2416226 -2.1156661e+38
1.9312185 -0.56980371 1.2416226 -2.1689911e+38
1.9312021 -0.57311988 1.2416226 -2.1956798e+38
1.9311856 -0.57643604 1.2416226 -2.2091814e+38
1.9401562 -0.58237684 1.2416312 -2.1560658e+38
1.9401397 -0.58571017 1.2416312 -2.1162897e+38
1.94911 -0.59170234 1.2416397 -1.9682024e+38
1.9401066 -0.59237671 1.2416312 -1.834464e+38
1.9490768 -0.59840322 1.2416397 -3.1582032e+38
1.9400735 -0.59904337 1.2416312 nan
1.940057 -0.60237658 1.2416312 nan
1.9400405 -0.60570991 1.2416312 nan
1.8080703 -0.59935582 1.2415054 -2.5702143e+38
1.808055 -0.60243762 1.2415054 -2.6899481e+38
1.8080397 -0.60551941 1.2415054 -2.7033434e+38
1.8010358 -0.60627997 1.2414988 -2.716686e+38
1.8010205 -0.60934842 1.2414988 -2.7300284e+38
1.7930186 -0.60973346 1.2414912 -2.7567733e+38
1.7860152 -0.61042535 1.2414845 -2.770122e+38
1.786 -0.61346543 1.2414845 -2.7968088e+38
1.7859849 -0.61650538 1.2414845 -2.8233915e+38
1.7859699 -0.61954522 1.2414845 -2.8632678e+38
1.7789667 -0.62017059 1.2414778 -2.8632672e+38
1.7789516 -0.6231972 1.2414778 -2.8633185e+38
1.7789366 -0.6262238 1.2414778 -2.8498696e+38
1.7789216 -0.62925041 1.2414778 -2.8363696e+38
1.7709204 -0.6294564 1.2414702 -2.796389e+38
1.7709055 -0.63246787 1.2414702 -2.7429598e+38
1.7639029 -0.63298452 1.2414635 -2.7031862e+38
1.763888 -0.63598251 1.2414635 -2.6631528e+38
1.7568855 -0.63645923 1.2414569 -2.6230153e+38
1.7568706 -0.63944399 1.2414569 -2.596274e+38
1.7568558 -0.64242876 1.2414569 -2.5695326e+38
1.7568411 -0.6454134 1.2414569 -2.5560842e+38
1.7568262 -0.64839816 1.2414569 -2.5426874e+38
1.7568114 -0.65138292 1.2414569 -2.5292386e+38
1.7567966 -0.65436757 1.2414569 -2.4893609e+38
1.7567818 -0.65735233 1.2414569 -2.4627766e+38
1.7567669 -0.66033709 1.2414569 -2.4095557e+38
1.7567521 -0.66332173 1.2414569 -2.3563351e+38
1.7567374 -0.6663065 1.2414569 -2.3298027e+38
1.7567225 -0.66929126 1.2414569 -2.3032175e+38
1.7567077 -0.6722759 1.2414569 -2.2764246e+38
1.7566929 -0.67526066 1.2414569 -2.2627685e+38
1.7566781 -0.67824543 1.2414569 -2.2494756e+38
1.7566632 -0.68123019 1.2414569 -2.2494239e+38
1.7566484 -0.68421483 1.2414569 -2.2360797e+38
1.7566336 -0.68719959 1.2414569 -2.2226838e+38
1.7566187 -0.69018435 1.2414569 -2.2093398e+38
1.7635903 -0.69594371 1.2414635 -2.1959956e+38
1.7635754 -0.69894183 1.2414635 -2.2357683e+38
1.7635605 -0.70193982 1.2414635 -2.2622493e+38
1.7705318 -0.70775259 1.2414702 -2.2755937e+38
1.7705168 -0.71076393 1.2414702 -2.2758535e+38
1.7705019 -0.7137754 1.2414702 -2.2891979e+38
1.7784709 -0.72004938 1.2414778 -2.3025429e+38
1.7784559 -0.72307599 1.2414778 -2.3424206e+38
1.7784408 -0.72610259 1.2414778 -2.3822927e+38
1.7784258 -0.72912931 1.2414778 -2.0886635e+38
1.7853965 -0.73506379 1.2414845 -1.8095445e+38
1.7853813 -0.73810387 1.2414845 -3.0655799e+38
1.7923517 -0.74407852 1.2414912 nan
1.8003199 -0.75050104 1.2414988 nan
1.9857534 -0.46215883 1.2382549 -3.1972389e+38
1.9767462 -0.46360463 1.2382635 -3.0231388e+38
1.9677391 -0.46501613 1.2382721 -2.8501308e+38
1.9677223 -0.46840087 1.2382721 -2.770065e+38
1.9587154 -0.46976092 1.2382807 -2.6899986e+38
1.9497087 -0.47108668 1.2382892 -2.6234323e+38
1.9496921 -0.47443715 1.2382892 -2.5431584e+38
1.9496754 -0.47778758 1.2382892 -2.5029688e+38
1.9406692 -0.4790448 1.2382978 -2.4629346e+38
1.9406526 -0.4823781 1.2382978 -2.4096081e+38
1.940636 -0.48571137 1.2382978 -2.3562828e+38
1.9406196 -0.48904467 1.2382978 -2.3561785e+38
1.940603 -0.49237797 1.2382978 -2.3425224e+38
1.9315971 -0.4935323 1.2383064 -2.3024894e+38
1.9405699 -0.49904454 1.2382978 -2.2492158e+38
1.9405533 -0.50237781 1.2382978 -2.195942e+38
1.9315478 -0.50348079 1.2383064 -2.12948e+38
1.9405203 -0.50904441 1.2382978 -2.1027391e+38
1.9405037 -0.51237774 1.2382978 -2.076102e+38
1.9404871 -0.51571101 1.2382978 -2.0759458e+38
1.9314818 -0.51674533 1.2383064 -2.0625495e+38
1.9314654 -0.52006149 1.2383064 -2.0624454e+38
1.9314489 -0.52337766 1.2383064 -2.0491529e+38
1.9314325 -0.52669382 1.2383064 -2.0226201e+38
1.931416 -0.53000998 1.2383064 -1.9826909e+38
1.9313996 -0.53332615 1.2383064 -1.9295733e+38
1.922395 -0.53424048 1.238315 -1.8763002e+38
1.9313667 -0.53995842 1.2383064 -1.8894886e+38
1.9313502 -0.54327452 1.2383064 -1.9028328e+38
1.9313338 -0.54659069 1.2383064 -1.9027809e+38
1.9313172 -0.54990685 1.2383064 -1.9028328e+38
1.9313008 -0.55322301 1.2383064 -1.9427098e+38
1.9402721 -0.55904377 1.2382978 -1.9692946e+38
1.9402555 -0.5623771 1.2382978 -2.0357562e+38
1.940239 -0.56571043 1.2382978 -2.0890296e+38
1.9402224 -0.5690437 1.2382978 -2.1423029e+38
1.9402059 -0.57237697 1.2382978 -2.1955763e+38
1.9312021 -0.57311988 1.2383064 -2.2222651e+38
1.9401728 -0.57904363 1.2382978 -2.2490071e+38
1.9401562 -0.58237684 1.2382978 -2.1294303e+38
1.9401397 -0.58571017 1.2382978 -2.0092745e+38
1.94911 -0.59170234 1.2382892 -1.9673668e+38
1.9401066 -0.59237671 1.2382978 -1.9311442e+38
1.9490768 -0.59840322 1.2382892 nan
1.9400735 -0.59904337 1.2382978 nan
1.940057 -0.60237658 1.2382978 nan
1.9400405 -0.60570991 1.2382978 nan
1.8080856 -0.5962739 1.2384236 -2.2773152e+38
1.8080703 -0.59935582 1.2384236 -2.477532e+38
1.808055 -0.60243762 1.2384236 -2.6768637e+38
1.8080397 -0.60551941 1.2384236 -2.6901034e+38
1.8010358 -0.60627997 1.2384301 -2.6901544e+38
1.8010205 -0.60934842 1.2384301 -2.7034456e+38
1.7930186 -0.60973346 1.2384378 -2.7168965e+38
1.7860152 -0.61042535 1.2384444 -2.7435876e+38
1.786 -0.61346543 1.2384444 -2.7702232e+38
1.7859849 -0.61650538 1.2384444 -2.8100473e+38
1.7859699 -0.61954522 1.2384444 -2.8366832e+38
1.7789667 -0.62017059 1.2384511 -2.8234424e+38
1.7789516 -0.6231972 1.2384511 -2.8099938e+38
1.7789366 -0.6262238 1.2384511 -2.8097855e+38
1.7789216 -0.62925041 1.2384511 -2.8097849e+38
1.7709204 -0.6294564 1.2384588 -2.7566153e+38
1.7639177 -0.62998641 1.2384654 -2.7034458e+38
1.7639029 -0.63298452 1.2384654 -2.6635686e+38
1.763888 -0.63598251 1.2384654 -2.6233275e+38
1.7568855 -0.63645923 1.2384721 -2.5964825e+38
1.7568706 -0.63944399 1.2384721 -2.5696894e+38
1.7568558 -0.64242876 1.2384721 -2.5562406e+38
1.7568411 -0.6454134 1.2384721 -2.5295e+38
1.7568262 -0.64839816 1.2384721 -2.529396e+38
1.7568114 -0.65138292 1.2384721 -2.5160508e+38
1.7567966 -0.65436757 1.2384721 -2.4894135e+38
1.7567818 -0.65735233 1.2384721 -2.462777e+38
1.7567669 -0.66033709 1.2384721 -2.4229521e+38
1.7567521 -0.66332173 1.2384721 -2.3696793e+38
1.7567374 -0.6663065 1.2384721 -2.3564911e+38
1.7567225 -0.66929126 1.2384721 -2.3296982e+38
1.7567077 -0.6722759 1.2384721 -2.2896133e+38
1.7566929 -0.67526066 1.2384721 -2.2495283e+38
1.7636647 -0.6809535 1.2384654 -2.2362357e+38
1.7566632 -0.68123019 1.2384721 -2.2228395e+38
1.7566484 -0.68421483 1.2384721 -2.2095474e+38
1.7566336 -0.68719959 1.2384721 -2.1961515e+38
1.7566187 -0.69018435 1.2384721 -2.2093402e+38
1.7635903 -0.69594371 1.2384654 -2.2225805e+38
1.7635754 -0.69894183 1.2384654 -2.2357168e+38
1.7635605 -0.70193982 1.2384654 -2.2490612e+38
1.7705318 -0.70775259 1.2384588 -2.2624054e+38
1.7705168 -0.71076393 1.2384588 -2.2627174e+38
1.7784859 -0.71702278 1.2384511 -2.2761658e+38
1.7784709 -0.72004938 1.2384511 -2.2761147e+38
1.7784559 -0.72307599 1.2384511 -2.3158368e+38
1.7784408 -0.72610259 1.2384511 -2.3422636e+38
1.7854115 -0.73202395 1.2384444 -2.0890849e+38
1.7853965 -0.73506379 1.2384444 -1.8379944e+38
1.7853813 -0.73810387 1.2384444 -2.7719937e+38
1.7923517 -0.74407852 1.2384378 nan
