# .PCD v0.7 - Point Cloud Data file format
VERSION 0.7
FIELDS x y z rgb
SIZE 4 4 4 4
TYPE F F F F
COUNT 1 1 1 1
WIDTH 1047
HEIGHT 1
VIEWPOINT 0 0 0 1 0 0 0
POINTS 1047
DATA ascii
2.2759948 0.039389893 2.0294275 -2.7420692e+38
2.2759855 0.035412766 2.0294275 -2.7288291e+38
2.2639749 0.030858301 2.0248902 -2.7154331e+38
2.2639656 0.026904024 2.0248902 -2.6755563e+38
2.2639563 0.022949748 2.0248902 -2.6356793e+38
2.263947 0.018995471 2.0248902 -2.6223346e+38
2.2509363 0.014514804 2.0199749 -2.6222829e+38
2.250927 0.010585293 2.0199749 -2.5956984e+38
2.2509177 0.0066557825 2.0199749 -2.582354e+38
2.2639096 0.003178373 2.0248902 -2.5823538e+38
2.2639003 -0.00077590346 2.0248902 -2.5690091e+38
2.2638907 -0.0047301799 2.0248902 -2.5823008e+38
2.2638814 -0.0086844563 2.0248902 -2.5823008e+38
2.2638721 -0.012638725 2.0248902 -2.5955931e+38
2.2638628 -0.016593002 2.0248902 -2.5955935e+38
2.2638535 -0.020547275 2.0248902 -2.5823016e+38
2.263844 -0.024501551 2.0248902 -2.5822493e+38
2.2638347 -0.028455827 2.0248902 -2.5689566e+38
2.2508247 -0.032639354 2.0199749 -2.568853e+38
2.2508154 -0.036568869 2.0199749 -2.5689051e+38
2.2508061 -0.040498383 2.0199749 -2.5689049e+38
2.2507968 -0.044427894 2.0199749 -2.5689047e+38
2.2507875 -0.048357405 2.0199749 -2.5689045e+38
2.2507782 -0.052286923 2.0199749 -2.5821966e+38
2.2637694 -0.056135751 2.0248902 -2.5954888e+38
2.2637599 -0.060090028 2.0248902 -2.5954886e+38
2.2757504 -0.064015538 2.0294275 -2.5954893e+38
2.250741 -0.068004973 2.0199749 -2.5954377e+38
2.2507317 -0.071934484 2.0199749 -2.5953347e+38
2.2637224 -0.075907126 2.0248902 -2.582095e+38
2.2637131 -0.079861403 2.0248902 -2.5688025e+38
2.2637038 -0.083815679 2.0248902 -2.5556136e+38
2.2636945 -0.087769948 2.0248902 -2.5424248e+38
2.263685 -0.091724224 2.0248902 -2.5690609e+38
2.2636757 -0.095678501 2.0248902 -2.595646e+38
2.2756658 -0.099809721 2.0294275 -2.5823542e+38
2.2756562 -0.10378686 2.0294275 -2.5823542e+38
2.2756469 -0.10776399 2.0294275 -2.5823542e+38
2.2756374 -0.11174113 2.0294275 -2.5823546e+38
2.2756281 -0.11571825 2.0294275 -2.5956473e+38
2.2756186 -0.11969539 2.0294275 -2.6089401e+38
2.2636104 -0.12335843 2.0248902 -2.6489212e+38
2.2755997 -0.12764965 2.0294275 -2.6890579e+38
2.2635915 -0.13126698 2.0248902 -2.7026098e+38
2.2635822 -0.13522124 2.0248902 -2.7162651e+38
2.2635729 -0.13917552 2.0248902 -2.7026609e+38
2.2635636 -0.1431298 2.0248902 -2.702453e+38
2.2755527 -0.14753531 2.0294275 -2.6623683e+38
2.2755435 -0.15151244 2.0294275 -2.6355762e+38
2.2755339 -0.15548956 2.0294275 -2.6354724e+38
2.2755246 -0.15946671 2.0294275 -2.6354204e+38
2.2755151 -0.16344383 2.0294275 -2.6220762e+38
2.2755058 -0.16742097 2.0294275 -2.6088359e+38
2.2754962 -0.1713981 2.0294275 -2.5955436e+38
2.2884855 -0.1760374 2.0343428 -2.5823562e+38
2.288476 -0.1800393 2.0343428 -2.4892074e+38
2.2884665 -0.1840412 2.0343428 -2.3961083e+38
2.2884572 -0.18804309 2.0343428 -2.3433533e+38
2.2884476 -0.19204499 2.0343428 -2.2903994e+38
2.2884381 -0.19604687 2.0343428 -3.1445917e+38
2.2884288 -0.20004876 2.0343428 nan
2.3014174 -0.20488617 2.039258 nan
2.3014078 -0.20891283 2.039258 nan
2.3013983 -0.21293949 2.039258 nan
2.3695076 0.2560865 2.060436 nan
2.3694978 0.2519322 2.060436 nan
2.3554833 0.24574441 2.0551693 nan
2.3554735 0.24161679 2.0551693 nan
2.3554637 0.23748919 2.0551693 nan
2.355454 0.23336157 2.0551693 nan
2.3414397 0.22730711 2.0499027 nan
2.3554347 0.22510636 2.0551693 -2.6645567e+38
2.3414204 0.21910518 2.0499027 -2.7821079e+38
2.3414106 0.21500427 2.0499027 -2.8888082e+38
2.3414009 0.21090332 2.0499027 -2.8750474e+38
2.3413913 0.2068024 2.0499027 -2.849034e+38
2.3413815 0.20270145 2.0499027 -2.8357938e+38
2.3413718 0.1986005 2.0499027 -2.808947e+38
2.3283582 0.19290838 2.0450122 -2.8485099e+38
2.3283486 0.18883219 2.0450122 -2.8750963e+38
2.3283391 0.18475604 2.0450122 -2.9017346e+38
2.3283293 0.18067987 2.0450122 -2.9283195e+38
2.3153162 0.17511156 2.0401216 -2.928268e+38
2.3153064 0.17106016 2.0401216 -2.9283201e+38
2.3152969 0.16700874 2.0401216 -2.9150802e+38
2.3152874 0.16295731 2.0401216 -2.8885995e+38
2.3022745 0.15751283 2.0352311 -2.8751514e+38
2.3022649 0.15348618 2.0352311 -2.8487744e+38
2.3022554 0.14945953 2.0352311 -2.8488261e+38
2.3022459 0.14543287 2.0352311 -2.8356892e+38
2.3022363 0.14140621 2.0352311 -2.8624293e+38
2.3022268 0.13737956 2.0352311 -2.8887536e+38
2.3022172 0.13335291 2.0352311 -2.8621687e+38
2.2892048 0.12810653 2.0303407 -2.8221356e+38
2.2891953 0.12410463 2.0303407 -2.7822584e+38
2.3021886 0.12127294 2.0352311 -2.7423814e+38
2.3021791 0.11724629 2.0352311 -2.7290372e+38
2.2891669 0.11209895 2.0303407 -2.7024526e+38
2.2891574 0.10809706 2.0303407 -2.715641e+38
2.2891481 0.10409518 2.0303407 -2.7288812e+38
2.2761359 0.099046871 2.0254502 -2.7287773e+38
2.289129 0.096091375 2.0303407 -2.7288291e+38
2.2761171 0.091092616 2.0254502 -2.7287769e+38
2.2761078 0.087115481 2.0254502 -2.7288287e+38
2.2760983 0.083138332 2.0254502 -2.7287767e+38
2.276089 0.079161212 2.0254502 -2.7154325e+38
2.2760794 0.075184077 2.0254502 -2.688848e+38
2.2760701 0.071206957 2.0254502 -2.6489711e+38
2.2760608 0.067229807 2.0254502 -2.6489192e+38
2.2890534 0.06407623 2.0303407 -2.6489192e+38
2.2890439 0.060074344 2.0303407 -2.6621594e+38
2.2760324 0.055298433 2.0254502 -2.6622115e+38
2.2760231 0.051321283 2.0254502 -2.7021404e+38
2.2760136 0.047344156 2.0254502 -2.728725e+38
2.2760043 0.043367028 2.0254502 -2.7288289e+38
2.2759948 0.039389893 2.0254502 -2.7288808e+38
2.2759855 0.035412766 2.0254502 -2.7156406e+38
2.2639749 0.030858301 2.020936 -2.7021928e+38
2.2639656 0.026904024 2.020936 -2.6621602e+38
2.2639563 0.022949748 2.020936 -2.6223348e+38
2.263947 0.018995471 2.020936 -2.6222825e+38
2.2509363 0.014514804 2.0160456 -2.6089904e+38
2.250927 0.010585293 2.0160456 -2.6089385e+38
2.2509177 0.0066557825 2.0160456 -2.5955939e+38
2.2639096 0.003178373 2.020936 -2.5823012e+38
2.2639003 -0.00077590346 2.020936 -2.5690085e+38
2.2638907 -0.0047301799 2.020936 -2.5823004e+38
2.2638814 -0.0086844563 2.020936 -2.595541e+38
2.2638721 -0.012638725 2.020936 -2.6087815e+38
2.2638628 -0.016593002 2.020936 -2.6088337e+38
2.2508526 -0.020850819 2.0160456 -2.5955416e+38
2.2508433 -0.024780329 2.0160456 -2.582301e+38
2.250834 -0.028709844 2.0160456 -2.5689568e+38
2.2508247 -0.032639354 2.0160456 -2.5556126e+38
2.2508154 -0.036568869 2.0160456 -2.5556128e+38
2.2508061 -0.040498383 2.0160456 -2.5555605e+38
2.2507968 -0.044427894 2.0160456 -2.5688006e+38
2.2507875 -0.048357405 2.0160456 -2.5688524e+38
2.2507782 -0.052286923 2.0160456 -2.5821446e+38
2.2637694 -0.056135751 2.020936 -2.5954367e+38
2.2637599 -0.060090028 2.020936 -2.6086771e+38
2.2637506 -0.064044297 2.020936 -2.6086777e+38
2.250741 -0.068004973 2.0160456 -2.6085742e+38
2.2507317 -0.071934484 2.0160456 -2.6085747e+38
2.2507226 -0.075864002 2.0160456 -2.5819905e+38
2.2637131 -0.079861403 2.020936 -2.5555098e+38
2.2507041 -0.083723024 2.0160456 -2.5423213e+38
2.2506948 -0.087652534 2.0160456 -2.5158404e+38
2.263685 -0.091724224 2.020936 -2.5424769e+38
2.2756751 -0.095832594 2.0254502 -2.5690613e+38
2.2756658 -0.099809721 2.0254502 -2.5690093e+38
2.2756562 -0.10378686 2.0254502 -2.5690093e+38
2.2756469 -0.10776399 2.0254502 -2.5822495e+38
2.2756374 -0.11174113 2.0254502 -2.5955422e+38
2.2756281 -0.11571825 2.0254502 -2.622127e+38
2.2506204 -0.11908864 2.0160456 -2.6487119e+38
2.2506111 -0.12301816 2.0160456 -2.6752448e+38
2.2506018 -0.12694767 2.0160456 -2.6889009e+38
2.2505925 -0.13087718 2.0160456 -2.7157972e+38
2.2505832 -0.13480669 2.0160456 -2.7290374e+38
2.2635729 -0.13917552 2.020936 -2.7022451e+38
2.2635636 -0.1431298 2.020936 -2.662264e+38
2.2755527 -0.14753531 2.0254502 -2.6355235e+38
2.2635448 -0.15103835 2.020936 -2.6088351e+38
2.2755339 -0.15548956 2.0254502 -2.6087314e+38
2.2755246 -0.15946671 2.0254502 -2.6086795e+38
2.2755151 -0.16344383 2.0254502 -2.6086278e+38
2.2755058 -0.16742097 2.0254502 -2.5953874e+38
2.2754962 -0.1713981 2.0254502 -2.5688029e+38
2.2754869 -0.17537522 2.0254502 -2.5423228e+38
2.288476 -0.1800393 2.0303407 -2.4492255e+38
2.2884665 -0.1840412 2.0303407 -2.3429384e+38
2.2884572 -0.18804309 2.0303407 -2.2232032e+38
2.2884476 -0.19204499 2.0303407 -2.104513e+38
2.2884381 -0.19604687 2.0303407 -2.8510673e+38
2.2884288 -0.20004876 2.0303407 nan
2.3014174 -0.20488617 2.0352311 nan
2.3014078 -0.20891283 2.0352311 nan
2.3013983 -0.21293949 2.0352311 nan
2.3695076 0.2560865 2.0562816 nan
2.3554931 0.24987203 2.0510416 nan
2.3554833 0.24574441 2.0510416 nan
2.3554735 0.24161679 2.0510416 nan
2.3554637 0.23748919 2.0510416 nan
2.355454 0.23336157 2.0510416 nan
2.3414397 0.22730711 2.0458016 -3.2762596e+38
2.3414299 0.22320613 2.0458016 -2.5439348e+38
2.3414204 0.21910518 2.0458016 -2.702608e+38
2.3414106 0.21500427 2.0458016 -2.8615979e+38
2.3414009 0.21090332 2.0458016 -2.8486188e+38
2.3413913 0.2068024 2.0458016 -2.8355857e+38
2.3413815 0.20270145 2.0458016 -2.8088448e+38
2.3283679 0.19698459 2.040936 -2.7952919e+38
2.3283582 0.19290838 2.040936 -2.8086868e+38
2.3283486 0.18883219 2.040936 -2.8353233e+38
2.3283391 0.18475604 2.040936 -2.8352194e+38
2.3283293 0.18067987 2.040936 -2.8485125e+38
2.3283198 0.17660366 2.040936 -2.8485131e+38
2.3153064 0.17106016 2.0360703 -2.8618577e+38
2.3152969 0.16700874 2.0360703 -2.8353255e+38
2.3152874 0.16295731 2.0360703 -2.8220851e+38
2.3022745 0.15751283 2.0312045 -2.8088446e+38
2.3022649 0.15348618 2.0312045 -2.8089486e+38
2.289252 0.14811599 2.0263388 -2.8089486e+38
2.3022459 0.14543287 2.0312045 -2.8222926e+38
2.2892332 0.14011222 2.0263388 -2.8354807e+38
2.2892237 0.13611032 2.0263388 -2.8486166e+38
2.2892141 0.13210842 2.0263388 -2.808791e+38
2.2892048 0.12810653 2.0263388 -2.7821024e+38
2.2891953 0.12410463 2.0263388 -2.7556213e+38
2.2891858 0.12010275 2.0263388 -2.7290367e+38
2.2891765 0.11610085 2.0263388 -2.7157443e+38
2.2891669 0.11209895 2.0263388 -2.7025041e+38
2.2891574 0.10809706 2.0263388 -2.7156925e+38
2.2891481 0.10409518 2.0263388 -2.7288293e+38
2.2891386 0.10009328 2.0263388 -2.7288812e+38
2.289129 0.096091375 2.0263388 -2.7421213e+38
2.2761171 0.091092616 2.0214732 -2.7287767e+38
2.2761078 0.087115481 2.0214732 -2.7154844e+38
2.2760983 0.083138332 2.0214732 -2.70214e+38
2.276089 0.079161212 2.0214732 -2.7020883e+38
2.2760794 0.075184077 2.0214732 -2.6755557e+38
2.2760701 0.071206957 2.0214732 -2.6489194e+38
2.2760608 0.067229807 2.0214732 -2.6622117e+38
2.2760513 0.063252687 2.0214732 -2.675504e+38
2.276042 0.059275553 2.0214732 -2.675452e+38
2.2640312 0.054583944 2.0169816 -2.6754522e+38
2.2760231 0.051321283 2.0214732 -2.7020887e+38
2.2760136 0.047344156 2.0214732 -2.7286733e+38
2.2760043 0.043367028 2.0214732 -2.7155366e+38
2.2639937 0.038766846 2.0169816 -2.7024522e+38
2.2759855 0.035412766 2.0214732 -2.6890041e+38
2.2639749 0.030858301 2.0169816 -2.6888486e+38
2.2639656 0.026904024 2.0169816 -2.6489198e+38
2.2639563 0.022949748 2.0169816 -2.6089906e+38
2.263947 0.018995471 2.0169816 -2.60899e+38
2.2509363 0.014514804 2.012116 -2.595646e+38
2.250927 0.010585293 2.012116 -2.5955941e+38
2.2509177 0.0066557825 2.012116 -2.5954377e+38
2.2639096 0.003178373 2.0169816 -2.595541e+38
2.2639003 -0.00077590346 2.0169816 -2.6087811e+38
2.2638907 -0.0047301799 2.0169816 -2.5955404e+38
2.2638814 -0.0086844563 2.0169816 -2.5954888e+38
2.2508712 -0.01299179 2.012116 -2.595489e+38
2.2638628 -0.016593002 2.0169816 -2.5954893e+38
2.2508526 -0.020850819 2.012116 -2.5823008e+38
2.2508433 -0.024780329 2.012116 -2.5823529e+38
2.250834 -0.028709844 2.012116 -2.5689568e+38
2.2508247 -0.032639354 2.012116 -2.5689049e+38
2.2508154 -0.036568869 2.012116 -2.5556126e+38
2.2508061 -0.040498383 2.012116 -2.5555605e+38
2.2507968 -0.044427894 2.012116 -2.5688004e+38
2.2507875 -0.048357405 2.012116 -2.5687485e+38
2.2507782 -0.052286923 2.012116 -2.5821444e+38
2.2507689 -0.056216434 2.012116 -2.5954886e+38
2.2637599 -0.060090028 2.0169816 -2.5953848e+38
2.2637506 -0.064044297 2.0169816 -2.6086258e+38
2.250741 -0.068004973 2.012116 -2.595282e+38
2.2507317 -0.071934484 2.012116 -2.5952822e+38
2.2637224 -0.075907126 2.0169816 -2.5687495e+38
2.2637131 -0.079861403 2.0169816 -2.542269e+38
2.2637038 -0.083815679 2.0169816 -2.5290808e+38
2.2636945 -0.087769948 2.0169816 -2.5291329e+38
2.263685 -0.091724224 2.0169816 -2.5424254e+38
2.2636757 -0.095678501 2.0169816 -2.555769e+38
2.2636664 -0.09963277 2.0169816 -2.5690087e+38
2.2636571 -0.10358705 2.0169816 -2.5689566e+38
2.2756469 -0.10776399 2.0214732 -2.5821968e+38
2.2636383 -0.1114956 2.0169816 -2.5953854e+38
2.263629 -0.11544988 2.0169816 -2.6087817e+38
2.2506204 -0.11908864 2.012116 -2.6353665e+38
2.2506111 -0.12301816 2.012116 -2.6354703e+38
2.2506018 -0.12694767 2.012116 -2.6489709e+38
2.2505925 -0.13087718 2.012116 -2.6490233e+38
2.2505832 -0.13480669 2.012116 -2.6489196e+38
2.2635729 -0.13917552 2.0169816 -2.622335e+38
2.2505646 -0.14266571 2.012116 -2.6088868e+38
2.2635541 -0.14708407 2.0169816 -2.5955422e+38
2.2635448 -0.15103835 2.0169816 -2.5954383e+38
2.2635355 -0.15499263 2.0169816 -2.5953345e+38
2.2635262 -0.1589469 2.0169816 -2.595127e+38
2.2755151 -0.16344383 2.0214732 -2.5819388e+38
2.2755058 -0.16742097 2.0214732 -2.5686465e+38
2.2754962 -0.1713981 2.0214732 -2.5554061e+38
2.2754869 -0.17537522 2.0214732 -2.5555104e+38
2.288476 -0.1800393 2.0263388 -2.4891011e+38
2.2884665 -0.1840412 2.0263388 -2.4227432e+38
2.2884572 -0.18804309 2.0263388 -2.289664e+38
2.2884476 -0.19204499 2.0263388 -2.1565375e+38
2.2884381 -0.19604687 2.0263388 -2.5305427e+38
2.3014269 -0.20085952 2.0312045 -2.9179968e+38
2.3014174 -0.20488617 2.0312045 nan
2.3014078 -0.20891283 2.0312045 nan
2.3013983 -0.21293949 2.0312045 nan
2.3695076 0.2560865 2.0521274 nan
2.3554931 0.24987203 2.0469141 nan
2.3554833 0.24574441 2.0469141 nan
2.3554735 0.24161679 2.0469141 nan
2.3554637 0.23748919 2.0469141 nan
2.355454 0.23336157 2.0469141 nan
2.3554442 0.22923395 2.0469141 -3.1274942e+38
2.3414299 0.22320613 2.0417008 -2.4232632e+38
2.3414204 0.21910518 2.0417008 -2.6360439e+38
2.3414106 0.21500427 2.0417008 -2.8353251e+38
2.3414009 0.21090332 2.0417008 -2.8221377e+38
2.3413913 0.2068024 2.0417008 -2.8087927e+38
2.3413815 0.20270145 2.0417008 -2.7952919e+38
2.3413718 0.1986005 2.0417008 -2.7820509e+38
2.3283582 0.19290838 2.0368598 -2.7821022e+38
2.3283486 0.18883219 2.0368598 -2.7820499e+38
2.3283391 0.18475604 2.0368598 -2.7818939e+38
2.3283293 0.18067987 2.0368598 -2.7686542e+38
2.3283198 0.17660366 2.0368598 -2.7819471e+38
2.3153064 0.17106016 2.0320189 -2.7821032e+38
2.3152969 0.16700874 2.0320189 -2.7688631e+38
2.3152874 0.16295731 2.0320189 -2.7423304e+38
2.3022745 0.15751283 2.0271778 -2.7556747e+38
2.3022649 0.15348618 2.0271778 -2.7557268e+38
2.289252 0.14811599 2.022337 -2.7822596e+38
2.3022459 0.14543287 2.0271778 -2.7955517e+38
2.2892332 0.14011222 2.022337 -2.7953438e+38
2.2892237 0.13611032 2.022337 -2.7954474e+38
2.2892141 0.13210842 2.022337 -2.7688106e+38
2.2892048 0.12810653 2.022337 -2.7289854e+38
2.2891953 0.12410463 2.022337 -2.7157447e+38
2.2891858 0.12010275 2.022337 -2.7024524e+38
2.2891765 0.11610085 2.022337 -2.7024522e+38
2.2891669 0.11209895 2.022337 -2.7024522e+38
2.2891574 0.10809706 2.022337 -2.7156925e+38
2.2891481 0.10409518 2.022337 -2.7289848e+38
2.2761359 0.099046871 2.0174961 -2.7422773e+38
2.2761266 0.095069736 2.0174961 -2.7421729e+38
2.2761171 0.091092616 2.0174961 -2.715484e+38
2.2761078 0.087115481 2.0174961 -2.6888995e+38
2.2760983 0.083138332 2.0174961 -2.6888478e+38
2.276089 0.079161212 2.0174961 -2.6755036e+38
2.2760794 0.075184077 2.0174961 -2.6622632e+38
2.2760701 0.071206957 2.0174961 -2.6488673e+38
2.2760608 0.067229807 2.0174961 -2.6754003e+38
2.2760513 0.063252687 2.0174961 -2.6887443e+38
2.276042 0.059275553 2.0174961 -2.6887441e+38
2.2640312 0.054583944 2.0130274 -2.6754522e+38
2.2760231 0.051321283 2.0174961 -2.7019851e+38
2.2760136 0.047344156 2.0174961 -2.7153814e+38
2.289006 0.044066757 2.022337 -2.688953e+38
2.2759948 0.039389893 2.0174961 -2.6624721e+38
2.2759855 0.035412766 2.0174961 -2.6623161e+38
2.2639749 0.030858301 2.0130274 -2.662264e+38
2.2639656 0.026904024 2.0130274 -2.6355754e+38
2.2639563 0.022949748 2.0130274 -2.5956982e+38
2.263947 0.018995471 2.0130274 -2.595646e+38
2.2509363 0.014514804 2.0081863 -2.5823536e+38
2.250927 0.010585293 2.0081863 -2.5823014e+38
2.2509177 0.0066557825 2.0081863 -2.582301e+38
2.2509084 0.0027262643 2.0081863 -2.6088852e+38
2.2508991 -0.0012032464 2.0081863 -2.6354178e+38
2.2638907 -0.0047301799 2.0130274 -2.6220734e+38
2.2508805 -0.0090622716 2.0081863 -2.595489e+38
2.2508712 -0.01299179 2.0081863 -2.5821453e+38
2.2638628 -0.016593002 2.0130274 -2.5689049e+38
2.2508526 -0.020850819 2.0081863 -2.5690087e+38
2.2508433 -0.024780329 2.0081863 -2.5689568e+38
2.250834 -0.028709844 2.0081863 -2.5689568e+38
2.2508247 -0.032639354 2.0081863 -2.5689049e+38
2.2508154 -0.036568869 2.0081863 -2.568853e+38
2.2508061 -0.040498383 2.0081863 -2.5555605e+38
2.2507968 -0.044427894 2.0081863 -2.5688006e+38
2.2507875 -0.048357405 2.0081863 -2.5688004e+38
2.2507782 -0.052286923 2.0081863 -2.5820925e+38
2.2507689 -0.056216434 2.0081863 -2.5820923e+38
2.2637599 -0.060090028 2.0130274 -2.5953327e+38
2.2637506 -0.064044297 2.0130274 -2.595281e+38
2.250741 -0.068004973 2.0081863 -2.5952294e+38
2.2507317 -0.071934484 2.0081863 -2.5819893e+38
2.2637224 -0.075907126 2.0130274 -2.5554049e+38
2.2637131 -0.079861403 2.0130274 -2.5289763e+38
2.2637038 -0.083815679 2.0130274 -2.5290806e+38
2.2636945 -0.087769948 2.0130274 -2.5290808e+38
2.263685 -0.091724224 2.0130274 -2.5423733e+38
2.2636757 -0.095678501 2.0130274 -2.5424767e+38
2.2636664 -0.09963277 2.0130274 -2.5557167e+38
2.2506576 -0.10337059 2.0081863 -2.5690087e+38
2.2506483 -0.1073001 2.0081863 -2.5822491e+38
2.2636383 -0.1114956 2.0130274 -2.5821974e+38
2.2506297 -0.11515913 2.0081863 -2.6087302e+38
2.2506204 -0.11908864 2.0081863 -2.6220744e+38
2.2506111 -0.12301816 2.0081863 -2.6088341e+38
2.2506018 -0.12694767 2.0081863 -2.595646e+38
2.2505925 -0.13087718 2.0081863 -2.582302e+38
2.2505832 -0.13480669 2.0081863 -2.5691136e+38
2.2505739 -0.13873622 2.0081863 -2.5557692e+38
2.2505646 -0.14266571 2.0081863 -2.5424248e+38
2.2635541 -0.14708407 2.0130274 -2.5556132e+38
2.2635448 -0.15103835 2.0130274 -2.5687495e+38
2.2635355 -0.15499263 2.0130274 -2.5686457e+38
2.2635262 -0.1589469 2.0130274 -2.5686457e+38
2.2755151 -0.16344383 2.0174961 -2.5553534e+38
2.2755058 -0.16742097 2.0174961 -2.5420611e+38
2.2754962 -0.1713981 2.0174961 -2.5553015e+38
2.2754869 -0.17537522 2.0174961 -2.5554055e+38
2.288476 -0.1800393 2.022337 -2.5288212e+38
2.2884665 -0.1840412 2.022337 -2.5024447e+38
2.2884572 -0.18804309 2.022337 -2.35623e+38
2.2884476 -0.19204499 2.022337 -2.1966203e+38
2.2884381 -0.19604687 2.022337 -2.2231026e+38
2.3014269 -0.20085952 2.0271778 -2.2387894e+38
2.3014174 -0.20488617 2.0271778 -3.358722e+38
2.3014078 -0.20891283 2.0271778 nan
2.3013983 -0.21293949 2.0271778 nan
2.3695076 0.2560865 2.0479732 nan
2.3694978 0.2519322 2.0479732 nan
2.3554833 0.24574441 2.0427864 nan
2.3554735 0.24161679 2.0427864 nan
2.3554637 0.23748919 2.0427864 nan
2.355454 0.23336157 2.0427864 -3.0638918e+38
2.3554442 0.22923395 2.0427864 -2.8354734e+38
2.3414299 0.22320613 2.0375998 -2.6084181e+38
2.3414204 0.21910518 2.0375998 -2.6889025e+38
2.3414106 0.21500427 2.0375998 -2.7822083e+38
2.3414009 0.21090332 2.0375998 -2.7688641e+38
2.3413913 0.2068024 2.0375998 -2.7555708e+38
2.3413815 0.20270145 2.0375998 -2.7554659e+38
2.3413718 0.1986005 2.0375998 -2.768758e+38
2.3283582 0.19290838 2.0327835 -2.7687059e+38
2.3283486 0.18883219 2.0327835 -2.7687055e+38
2.3413427 0.18629768 2.0375998 -2.768601e+38
2.3283293 0.18067987 2.0327835 -2.7686016e+38
2.3283198 0.17660366 2.0327835 -2.7553617e+38
2.3153064 0.17106016 2.0279675 -2.7422254e+38
2.3022935 0.16556615 2.0231512 -2.7289852e+38
2.302284 0.16153949 2.0231512 -2.7157451e+38
2.3022745 0.15751283 2.0231512 -2.7290893e+38
2.3022649 0.15348618 2.0231512 -2.7424339e+38
2.289252 0.14811599 2.0183349 -2.7424341e+38
2.2892427 0.14411411 2.0183349 -2.7556744e+38
2.3022363 0.14140621 2.0231512 -2.7556223e+38
2.2892237 0.13611032 2.0183349 -2.7556223e+38
2.2892141 0.13210842 2.0183349 -2.7289858e+38
2.2892048 0.12810653 2.0183349 -2.7157453e+38
2.2891953 0.12410463 2.0183349 -2.715693e+38
2.2891858 0.12010275 2.0183349 -2.7024007e+38
2.2891765 0.11610085 2.0183349 -2.7156927e+38
2.2891669 0.11209895 2.0183349 -2.7156408e+38
2.2891574 0.10809706 2.0183349 -2.7156925e+38
2.2761455 0.10302401 2.0135188 -2.7290887e+38
2.2761359 0.099046871 2.0135188 -2.7156925e+38
2.2761266 0.095069736 2.0135188 -2.7155881e+38
2.2761171 0.091092616 2.0135188 -2.7022433e+38
2.2761078 0.087115481 2.0135188 -2.6889512e+38
2.2760983 0.083138332 2.0135188 -2.6755553e+38
2.276089 0.079161212 2.0135188 -2.6621592e+38
2.2760794 0.075184077 2.0135188 -2.662159e+38
2.2760701 0.071206957 2.0135188 -2.6753999e+38
2.2640593 0.066446781 2.009073 -2.6754522e+38
2.2640498 0.062492505 2.009073 -2.675504e+38
2.2640405 0.058538228 2.009073 -2.6754516e+38
2.2640312 0.054583944 2.009073 -2.6754522e+38
2.2640219 0.050629668 2.009073 -2.6887449e+38
2.2640123 0.046675399 2.009073 -2.7020897e+38
2.2760043 0.043367028 2.0135188 -2.6890058e+38
2.2759948 0.039389893 2.0135188 -2.6758688e+38
2.2759855 0.035412766 2.0135188 -2.6623163e+38
2.2639749 0.030858301 2.009073 -2.6489198e+38
2.2639656 0.026904024 2.009073 -2.622231e+38
2.2639563 0.022949748 2.009073 -2.5956462e+38
2.263947 0.018995471 2.009073 -2.5955941e+38
2.2509363 0.014514804 2.004257 -2.5955937e+38
2.250927 0.010585293 2.004257 -2.5956452e+38
2.2509177 0.0066557825 2.004257 -2.5956969e+38
2.2509084 0.0027262643 2.004257 -2.6088852e+38
2.2508991 -0.0012032464 2.004257 -2.6353661e+38
2.2508898 -0.0051327646 2.004257 -2.6220738e+38
2.2508805 -0.0090622716 2.004257 -2.5954375e+38
2.2508712 -0.01299179 2.004257 -2.5821455e+38
2.2508619 -0.016921304 2.004257 -2.5821455e+38
2.2508526 -0.020850819 2.004257 -2.5821972e+38
2.2508433 -0.024780329 2.004257 -2.5821453e+38
2.250834 -0.028709844 2.004257 -2.5688528e+38
2.2508247 -0.032639354 2.004257 -2.568801e+38
2.2508154 -0.036568869 2.004257 -2.568853e+38
2.2508061 -0.040498383 2.004257 -2.5555086e+38
2.2507968 -0.044427894 2.004257 -2.5555084e+38
2.2507875 -0.048357405 2.004257 -2.5688004e+38
2.2507782 -0.052286923 2.004257 -2.568852e+38
2.2507689 -0.056216434 2.004257 -2.5687998e+38
2.2507596 -0.060145944 2.004257 -2.58204e+38
2.2637506 -0.064044297 2.009073 -2.5952805e+38
2.250741 -0.068004973 2.004257 -2.5819885e+38
2.2507317 -0.071934484 2.004257 -2.581937e+38
2.2637224 -0.075907126 2.009073 -2.5687487e+38
2.2507133 -0.079793513 2.004257 -2.5556126e+38
2.2507041 -0.083723024 2.004257 -2.5423205e+38
2.2636945 -0.087769948 2.009073 -2.5290804e+38
2.2506855 -0.091582045 2.004257 -2.5291325e+38
2.2506762 -0.095511563 2.004257 -2.5292364e+38
2.2506669 -0.099441081 2.004257 -2.5291842e+38
2.2506576 -0.10337059 2.004257 -2.5424246e+38
2.2506483 -0.1073001 2.004257 -2.5423725e+38
2.250639 -0.11122961 2.004257 -2.555613e+38
2.2506297 -0.11515913 2.004257 -2.5689055e+38
2.2506204 -0.11908864 2.004257 -2.5821978e+38
2.2386117 -0.12270406 1.9998112 -2.5823016e+38
2.2386024 -0.12661071 1.9998112 -2.595698e+38
2.2505925 -0.13087718 2.004257 -2.5691134e+38
2.2505832 -0.13480669 2.004257 -2.5558209e+38
2.2505739 -0.13873622 2.004257 -2.5557686e+38
2.2505646 -0.14266571 2.004257 -2.5424244e+38
2.2635541 -0.14708407 2.009073 -2.5422686e+38
2.2635448 -0.15103835 2.009073 -2.555353e+38
2.2635355 -0.15499263 2.009073 -2.5420605e+38
2.2635262 -0.1589469 2.009073 -2.5420605e+38
2.2755151 -0.16344383 2.0135188 -2.528768e+38
2.2755058 -0.16742097 2.0135188 -2.5154758e+38
2.2754962 -0.1713981 2.0135188 -2.5155275e+38
2.2754869 -0.17537522 2.0135188 -2.5022873e+38
2.288476 -0.1800393 2.0183349 -2.5023914e+38
2.2884665 -0.1840412 2.0183349 -2.4892563e+38
2.2884572 -0.18804309 2.0183349 -2.4360365e+38
2.2884476 -0.19204499 2.0183349 -2.3695221e+38
2.2884381 -0.19604687 2.0183349 -2.3295402e+38
2.2884288 -0.20004876 2.0183349 -2.2763267e+38
2.3014174 -0.20488617 2.0231512 -3.2371685e+38
2.3014078 -0.20891283 2.0231512 nan
2.3143961 -0.21382451 2.0279675 nan
2.3143866 -0.21787593 2.0279675 nan
2.3825123 0.25802431 2.0486102 nan
2.3694978 0.2519322 2.043819 nan
2.3554833 0.24574441 2.0386589 nan
2.3554735 0.24161679 2.0386589 nan
2.3554637 0.23748919 2.0386589 -3.2763132e+38
2.355454 0.23336157 2.0386589 -2.2912772e+38
2.3554442 0.22923395 2.0386589 -2.5421638e+38
2.3554347 0.22510636 2.0386589 -2.7949787e+38
2.3554249 0.22097874 2.0386589 -2.7554674e+38
2.3414106 0.21500427 2.0334988 -2.7155903e+38
2.3414009 0.21090332 2.0334988 -2.702298e+38
2.3413913 0.2068024 2.0334988 -2.6890569e+38
2.3413815 0.20270145 2.0334988 -2.7155887e+38
2.3413718 0.1986005 2.0334988 -2.7421211e+38
2.3283582 0.19290838 2.0287075 -2.7420169e+38
2.3283486 0.18883219 2.0287075 -2.7419648e+38
2.3283391 0.18475604 2.0287075 -2.7551009e+38
2.3283293 0.18067987 2.0287075 -2.755257e+38
2.3153162 0.17511156 2.023916 -2.7287246e+38
2.3023031 0.1695928 2.0191245 -2.6890037e+38
2.3022935 0.16556615 2.0191245 -2.689108e+38
2.302284 0.16153949 2.0191245 -2.6891601e+38
2.3022745 0.15751283 2.0191245 -2.7024528e+38
2.3022649 0.15348618 2.0191245 -2.7157972e+38
2.289252 0.14811599 2.0143332 -2.7158495e+38
2.2892427 0.14411411 2.0143332 -2.7025051e+38
2.3022363 0.14140621 2.0191245 -2.702557e+38
2.3022268 0.13737956 2.0191245 -2.7024532e+38
2.2892141 0.13210842 2.0143332 -2.7023494e+38
2.2892048 0.12810653 2.0143332 -2.7023492e+38
2.2891953 0.12410463 2.0143332 -2.702297e+38
2.2891858 0.12010275 2.0143332 -2.7023485e+38
2.2891765 0.11610085 2.0143332 -2.7156406e+38
2.2891669 0.11209895 2.0143332 -2.7289329e+38
2.2761548 0.10700114 2.0095417 -2.7289848e+38
2.2761455 0.10302401 2.0095417 -2.7156406e+38
2.2761359 0.099046871 2.0095417 -2.7022964e+38
2.2761266 0.095069736 2.0095417 -2.6757115e+38
2.2761171 0.091092616 2.0095417 -2.6756589e+38
2.2761078 0.087115481 2.0095417 -2.6756072e+38
2.2760983 0.083138332 2.0095417 -2.6623151e+38
2.276089 0.079161212 2.0095417 -2.648919e+38
2.2760794 0.075184077 2.0095417 -2.6754516e+38
2.2760701 0.071206957 2.0095417 -2.6887439e+38
2.2640593 0.066446781 2.0051188 -2.6754516e+38
2.2510478 0.061668962 2.0003273 -2.6488667e+38
2.2640405 0.058538228 2.0051188 -2.6621068e+38
2.2640312 0.054583944 2.0051188 -2.6753995e+38
2.2640219 0.050629668 2.0051188 -2.675348e+38
2.2640123 0.046675399 2.0051188 -2.6755044e+38
2.2760043 0.043367028 2.0095417 -2.6890571e+38
2.2759948 0.039389893 2.0095417 -2.6889009e+38
2.2759855 0.035412766 2.0095417 -2.6621602e+38
2.2759759 0.031435631 2.0095417 -2.6355233e+38
2.2639656 0.026904024 2.0051188 -2.6088347e+38
2.2639563 0.022949748 2.0051188 -2.5823016e+38
2.2509456 0.018444315 2.0003273 -2.5955418e+38
2.2639377 0.015041202 2.0051188 -2.6088856e+38
2.250927 0.010585293 2.0003273 -2.6088854e+38
2.2509177 0.0066557825 2.0003273 -2.5955931e+38
2.2509084 0.0027262643 2.0003273 -2.6220736e+38
2.2508991 -0.0012032464 2.0003273 -2.6353142e+38
2.2508898 -0.0051327646 2.0003273 -2.6220219e+38
2.2508805 -0.0090622716 2.0003273 -2.5954373e+38
2.2508712 -0.01299179 2.0003273 -2.5954373e+38
2.2508619 -0.016921304 2.0003273 -2.582145e+38
2.2508526 -0.020850819 2.0003273 -2.582145e+38
2.2508433 -0.024780329 2.0003273 -2.582197e+38
2.250834 -0.028709844 2.0003273 -2.5821448e+38
2.2508247 -0.032639354 2.0003273 -2.5688528e+38
2.2508154 -0.036568869 2.0003273 -2.5689049e+38
2.2508061 -0.040498383 2.0003273 -2.5555605e+38
2.2507968 -0.044427894 2.0003273 -2.5555086e+38
2.2507875 -0.048357405 2.0003273 -2.555612e+38
2.2507782 -0.052286923 2.0003273 -2.5556118e+38
2.2507689 -0.056216434 2.0003273 -2.5555597e+38
2.2507596 -0.060145944 2.0003273 -2.568696e+38
2.2507503 -0.064075463 2.0003273 -2.5819883e+38
2.2387409 -0.068010874 1.9959044 -2.5819885e+38
2.2507317 -0.071934484 2.0003273 -2.5687483e+38
2.2637224 -0.075907126 2.0051188 -2.5687485e+38
2.2637131 -0.079861403 2.0051188 -2.5688004e+38
2.2637038 -0.083815679 2.0051188 -2.5555603e+38
2.2636945 -0.087769948 2.0051188 -2.5290798e+38
2.263685 -0.091724224 2.0051188 -2.5158915e+38
2.2636757 -0.095678501 2.0051188 -2.5025475e+38
2.2506669 -0.099441081 2.0003273 -2.51584e+38
2.2506576 -0.10337059 2.0003273 -2.5157881e+38
2.2506483 -0.1073001 2.0003273 -2.5157362e+38
2.250639 -0.11122961 2.0003273 -2.5157362e+38
2.2506297 -0.11515913 2.0003273 -2.5290287e+38
2.2386208 -0.11879741 1.9959044 -2.5423729e+38
2.2386117 -0.12270406 1.9959044 -2.5690093e+38
2.2386024 -0.12661071 1.9959044 -2.5823533e+38
2.2385931 -0.13051736 1.9959044 -2.569113e+38
2.2505832 -0.13480669 2.0003273 -2.542528e+38
2.2505739 -0.13873622 2.0003273 -2.5424759e+38
2.2385654 -0.14223734 1.9959044 -2.5423201e+38
2.2635541 -0.14708407 2.0051188 -2.5421646e+38
2.2635448 -0.15103835 2.0051188 -2.5288204e+38
2.2635355 -0.15499263 2.0051188 -2.5154762e+38
2.2635262 -0.1589469 2.0051188 -2.5022358e+38
2.2755151 -0.16344383 2.0095417 -2.5022358e+38
2.2755058 -0.16742097 2.0095417 -2.4889435e+38
2.2754962 -0.1713981 2.0095417 -2.475703e+38
2.2754869 -0.17537522 2.0095417 -2.4491703e+38
2.288476 -0.1800393 2.0143332 -2.4625147e+38
2.2884665 -0.1840412 2.0143332 -2.4758597e+38
2.2884572 -0.18804309 2.0143332 -2.5157893e+38
2.2884476 -0.19204499 2.0143332 -2.5423723e+38
2.2884381 -0.19604687 2.0143332 -2.4359285e+38
2.3014269 -0.20085952 2.0191245 -2.3169795e+38
2.3014174 -0.20488617 2.0191245 -3.1037228e+38
2.3014078 -0.20891283 2.0191245 nan
2.3013983 -0.21293949 2.0191245 nan
2.3143866 -0.21787593 2.023916 nan
2.3143771 -0.22192734 2.023916 nan
2.3825123 0.25802431 2.0444312 nan
2.3825023 0.25384527 2.0444312 nan
2.369488 0.24777797 2.0396645 nan
2.3694782 0.24362367 2.0396645 nan
2.3554637 0.23748919 2.0345311 -3.1294703e+38
2.355454 0.23336157 2.0345311 -2.3032187e+38
2.3554442 0.22923395 2.0345311 -2.5424264e+38
2.3554347 0.22510636 2.0345311 -2.7953434e+38
2.3554249 0.22097874 2.0345311 -2.7421226e+38
2.3554151 0.21685115 2.0345311 -2.7021936e+38
2.3414009 0.21090332 2.029398 -2.7022451e+38
2.3413913 0.2068024 2.029398 -2.7155889e+38
2.3413815 0.20270145 2.029398 -2.7288287e+38
2.3413718 0.1986005 2.029398 -2.7553609e+38
2.3413622 0.19449955 2.029398 -2.7420163e+38
2.3283486 0.18883219 2.0246313 -2.7419124e+38
2.3283391 0.18475604 2.0246313 -2.7286719e+38
2.3283293 0.18067987 2.0246313 -2.728724e+38
2.3153162 0.17511156 2.0198646 -2.7021914e+38
2.3023031 0.1695928 2.0150979 -2.6756072e+38
2.3022935 0.16556615 2.0150979 -2.6757632e+38
2.302284 0.16153949 2.0150979 -2.6758676e+38
2.3022745 0.15751283 2.0150979 -2.6891603e+38
2.2892616 0.15211788 2.0103312 -2.7025049e+38
2.289252 0.14811599 2.0103312 -2.6892128e+38
2.2892427 0.14411411 2.0103312 -2.6758686e+38
2.2892332 0.14011222 2.0103312 -2.6892128e+38
2.2892237 0.13611032 2.0103312 -2.7024532e+38
2.2892141 0.13210842 2.0103312 -2.7023492e+38
2.2892048 0.12810653 2.0103312 -2.7155376e+38
2.2891953 0.12410463 2.0103312 -2.7155374e+38
2.2891858 0.12010275 2.0103312 -2.715537e+38
2.2891765 0.11610085 2.0103312 -2.7288806e+38
2.2891669 0.11209895 2.0103312 -2.7421211e+38
2.2761548 0.10700114 2.0055645 -2.7288808e+38
2.2761455 0.10302401 2.0055645 -2.7288291e+38
2.2761359 0.099046871 2.0055645 -2.7022445e+38
2.2761266 0.095069736 2.0055645 -2.6889518e+38
2.2761171 0.091092616 2.0055645 -2.6623149e+38
2.264106 0.086218148 2.0011644 -2.6489709e+38
2.2640965 0.082263887 2.0011644 -2.6356786e+38
2.276089 0.079161212 2.0055645 -2.6356269e+38
2.2760794 0.075184077 2.0055645 -2.6488675e+38
2.2640686 0.070401058 2.0011644 -2.6621594e+38
2.2510571 0.065598473 1.9963979 -2.6488145e+38
2.2510478 0.061668962 1.9963979 -2.6354699e+38
2.2510386 0.057739452 1.9963979 -2.6487618e+38
2.2510293 0.053809941 1.9963979 -2.6620026e+38
2.25102 0.049880415 1.9963979 -2.6487626e+38
2.2640123 0.046675399 2.0011644 -2.6488154e+38
2.264003 0.042721123 2.0011644 -2.6489198e+38
2.2639937 0.038766846 2.0011644 -2.662108e+38
2.2759855 0.035412766 2.0055645 -2.6355231e+38
2.2639749 0.030858301 2.0011644 -2.6221787e+38
2.2639656 0.026904024 2.0011644 -2.6088343e+38
2.2639563 0.022949748 2.0011644 -2.5955416e+38
2.2509456 0.018444315 1.9963979 -2.5955931e+38
2.2509363 0.014514804 1.9963979 -2.5955931e+38
2.250927 0.010585293 1.9963979 -2.5823006e+38
2.2509177 0.0066557825 1.9963979 -2.5822487e+38
2.2509084 0.0027262643 1.9963979 -2.5821968e+38
2.2508991 -0.0012032464 1.9963979 -2.5953854e+38
2.2508898 -0.0051327646 1.9963979 -2.582197e+38
2.2508805 -0.0090622716 1.9963979 -2.5689045e+38
2.2508712 -0.01299179 1.9963979 -2.5821966e+38
2.2508619 -0.016921304 1.9963979 -2.5821448e+38
2.2508526 -0.020850819 1.9963979 -2.5821448e+38
2.2508433 -0.024780329 1.9963979 -2.5822487e+38
2.250834 -0.028709844 1.9963979 -2.5689043e+38
2.2508247 -0.032639354 1.9963979 -2.5689045e+38
2.2508154 -0.036568869 1.9963979 -2.5556124e+38
2.2508061 -0.040498383 1.9963979 -2.5556124e+38
2.2507968 -0.044427894 1.9963979 -2.5556124e+38
2.2507875 -0.048357405 1.9963979 -2.5557161e+38
2.2507782 -0.052286923 1.9963979 -2.5423195e+38
2.2507689 -0.056216434 1.9963979 -2.5423193e+38
2.2507596 -0.060145944 1.9963979 -2.5555076e+38
2.2507503 -0.064075463 1.9963979 -2.5687479e+38
2.2387409 -0.068010874 1.991998 -2.5687479e+38
2.2507317 -0.071934484 1.9963979 -2.5688e+38
2.2507226 -0.075864002 1.9963979 -2.5687481e+38
2.2507133 -0.079793513 1.9963979 -2.5686962e+38
2.2507041 -0.083723024 1.9963979 -2.5555595e+38
2.2506948 -0.087652534 1.9963979 -2.5423195e+38
2.2506855 -0.091582045 1.9963979 -2.5157352e+38
2.2506762 -0.095511563 1.9963979 -2.5023914e+38
2.2506669 -0.099441081 1.9963979 -2.5156841e+38
2.2506576 -0.10337059 1.9963979 -2.5289246e+38
2.2506483 -0.1073001 1.9963979 -2.5289765e+38
2.250639 -0.11122961 1.9963979 -2.5290285e+38
2.2506297 -0.11515913 1.9963979 -2.5290285e+38
2.2386208 -0.11879741 1.991998 -2.5423727e+38
2.2386117 -0.12270406 1.991998 -2.5423727e+38
2.2386024 -0.12661071 1.991998 -2.5556647e+38
2.2385931 -0.13051736 1.991998 -2.542424e+38
2.2385838 -0.13442403 1.991998 -2.5291834e+38
2.2385747 -0.13833068 1.991998 -2.5290794e+38
2.2385654 -0.14223734 1.991998 -2.5289238e+38
2.2385561 -0.146144 1.991998 -2.5288719e+38
2.250546 -0.15052474 1.9963979 -2.5287684e+38
2.2635355 -0.15499263 2.0011644 -2.5021841e+38
2.2635262 -0.1589469 2.0011644 -2.4889439e+38
2.2755151 -0.16344383 2.0055645 -2.4757036e+38
2.2755058 -0.16742097 2.0055645 -2.4757036e+38
2.2754962 -0.1713981 2.0055645 -2.462463e+38
2.2754869 -0.17537522 2.0055645 -2.462463e+38
2.288476 -0.1800393 2.0103312 -2.4624628e+38
2.2884665 -0.1840412 2.0103312 -2.4758074e+38
2.2884572 -0.18804309 2.0103312 -2.5157364e+38
2.2884476 -0.19204499 2.0103312 -2.555715e+38
2.2884381 -0.19604687 2.0103312 -2.4889401e+38
2.3014269 -0.20085952 2.0150979 -2.4354651e+38
2.3014174 -0.20488617 2.0150979 -2.9564137e+38
2.3014078 -0.20891283 2.0150979 nan
2.3013983 -0.21293949 2.0150979 nan
2.3013887 -0.21696614 2.0150979 nan
2.3013792 -0.22099279 2.0150979 nan
2.3013697 -0.22501945 2.0150979 nan
2.3965373 0.26852262 2.0453589 nan
2.3965273 0.26431689 2.0453589 nan
2.3825123 0.25802431 2.0402522 nan
2.3825023 0.25384527 2.0402522 nan
2.369488 0.24777797 2.0355103 nan
2.3554735 0.24161679 2.0304036 nan
2.3554637 0.23748919 2.0304036 -2.981124e+38
2.3414495 0.23140803 2.0252969 -2.3165098e+38
2.3414397 0.22730711 2.0252969 -2.5556148e+38
2.3414299 0.22320613 2.0252969 -2.781843e+38
2.3414204 0.21910518 2.0252969 -2.741966e+38
2.3414106 0.21500427 2.0252969 -2.6889005e+38
2.3414009 0.21090332 2.0252969 -2.7155368e+38
2.3413913 0.2068024 2.0252969 -2.7287769e+38
2.3413815 0.20270145 2.0252969 -2.741965e+38
2.3413718 0.1986005 2.0252969 -2.7553088e+38
2.3283582 0.19290838 2.020555 -2.7419644e+38
2.3283486 0.18883219 2.020555 -2.7287238e+38
2.3283391 0.18475604 2.020555 -2.7155352e+38
2.3153257 0.17916298 2.0158131 -2.7021912e+38
2.3153162 0.17511156 2.0158131 -2.6889512e+38
2.3023031 0.1695928 2.0110712 -2.6623668e+38
2.3022935 0.16556615 2.0110712 -2.6624192e+38
2.302284 0.16153949 2.0110712 -2.6624713e+38
2.3022745 0.15751283 2.0110712 -2.675764e+38
2.2892616 0.15211788 2.0063293 -2.6758682e+38
2.289252 0.14811599 2.0063293 -2.6626283e+38
2.2892427 0.14411411 2.0063293 -2.6492841e+38
2.2892332 0.14011222 2.0063293 -2.6758686e+38
2.2892237 0.13611032 2.0063293 -2.7023494e+38
2.2892141 0.13210842 2.0063293 -2.7155897e+38
2.2892048 0.12810653 2.0063293 -2.7155897e+38
2.2891953 0.12410463 2.0063293 -2.7155378e+38
2.2891858 0.12010275 2.0063293 -2.7155372e+38
2.2891765 0.11610085 2.0063293 -2.7288291e+38
2.2891669 0.11209895 2.0063293 -2.7421211e+38
2.2761548 0.10700114 2.0015874 -2.7421211e+38
2.2761455 0.10302401 2.0015874 -2.742069e+38
2.2761359 0.099046871 2.0015874 -2.7154325e+38
2.2761266 0.095069736 2.0015874 -2.6888997e+38
2.2761171 0.091092616 2.0015874 -2.6623149e+38
2.2761078 0.087115481 2.0015874 -2.6223864e+38
2.2640965 0.082263887 1.9972103 -2.6223346e+38
2.276089 0.079161212 2.0015874 -2.6089904e+38
2.2640779 0.074355319 1.9972103 -2.6222829e+38
2.2640686 0.070401058 1.9972103 -2.6355746e+38
2.2510571 0.065598473 1.9924684 -2.6355223e+38
2.2390459 0.060908765 1.9880912 -2.6221777e+38
2.2510386 0.057739452 1.9924684 -2.6354693e+38
2.2510293 0.053809941 1.9924684 -2.6355217e+38
2.2390182 0.049188808 1.9880912 -2.6222298e+38
2.2510107 0.045950912 1.9924684 -2.6089898e+38
2.2510014 0.042021394 1.9924684 -2.6222825e+38
2.2639937 0.038766846 1.9972103 -2.6222304e+38
2.2639844 0.03481257 1.9972103 -2.6221263e+38
2.2639749 0.030858301 1.9972103 -2.6088343e+38
2.2509642 0.026303343 1.9924684 -2.6088343e+38
2.2509549 0.022373833 1.9924684 -2.5955935e+38
2.2509456 0.018444315 1.9924684 -2.5955931e+38
2.2509363 0.014514804 1.9924684 -2.5823008e+38
2.250927 0.010585293 1.9924684 -2.5690083e+38
2.2509177 0.0066557825 1.9924684 -2.5556641e+38
2.2509084 0.0027262643 1.9924684 -2.5556641e+38
2.2508991 -0.0012032464 1.9924684 -2.5423719e+38
2.2508898 -0.0051327646 1.9924684 -2.5423719e+38
2.2508805 -0.0090622716 1.9924684 -2.5423199e+38
2.2508712 -0.01299179 1.9924684 -2.5689045e+38
2.2508619 -0.016921304 1.9924684 -2.5821448e+38
2.2508526 -0.020850819 1.9924684 -2.5820931e+38
2.2508433 -0.024780329 1.9924684 -2.5689047e+38
2.250834 -0.028709844 1.9924684 -2.5689566e+38
2.2508247 -0.032639354 1.9924684 -2.5556124e+38
2.2508154 -0.036568869 1.9924684 -2.5556126e+38
2.2508061 -0.040498383 1.9924684 -2.5423201e+38
2.2507968 -0.044427894 1.9924684 -2.5423201e+38
2.2507875 -0.048357405 1.9924684 -2.5423199e+38
2.2507782 -0.052286923 1.9924684 -2.5422678e+38
2.2507689 -0.056216434 1.9924684 -2.5289753e+38
2.2507596 -0.060145944 1.9924684 -2.5422155e+38
2.2507503 -0.064075463 1.9924684 -2.5555076e+38
2.2387409 -0.068010874 1.9880912 -2.5555076e+38
2.2387316 -0.071917534 1.9880912 -2.5555076e+38
2.2387226 -0.075824186 1.9880912 -2.5554558e+38
2.2507133 -0.079793513 1.9924684 -2.5555597e+38
2.2507041 -0.083723024 1.9924684 -2.5556116e+38
2.2506948 -0.087652534 1.9924684 -2.5423197e+38
2.2506855 -0.091582045 1.9924684 -2.5289759e+38
2.2506762 -0.095511563 1.9924684 -2.5023916e+38
2.2506669 -0.099441081 1.9924684 -2.5289244e+38
2.2386577 -0.10317078 1.9880912 -2.5422167e+38
2.2506483 -0.1073001 1.9924684 -2.5422167e+38
2.2386394 -0.11098409 1.9880912 -2.5289763e+38
2.2386301 -0.11489075 1.9880912 -2.5289763e+38
2.2386208 -0.11879741 1.9880912 -2.5290281e+38
2.2386117 -0.12270406 1.9880912 -2.5290281e+38
2.2386024 -0.12661071 1.9880912 -2.5290798e+38
2.2385931 -0.13051736 1.9880912 -2.5290796e+38
2.2385838 -0.13442403 1.9880912 -2.5157871e+38
2.2385747 -0.13833068 1.9880912 -2.515735e+38
2.2505646 -0.14266571 1.9924684 -2.5155794e+38
2.2505553 -0.14659524 1.9924684 -2.5155277e+38
2.250546 -0.15052474 1.9924684 -2.5154758e+38
2.2635355 -0.15499263 1.9972103 -2.4887876e+38
2.2635262 -0.1589469 1.9972103 -2.462359e+38
2.2755151 -0.16344383 2.0015874 -2.462463e+38
2.2755058 -0.16742097 2.0015874 -2.4491186e+38
2.2754962 -0.1713981 2.0015874 -2.4624626e+38
2.2754869 -0.17537522 2.0015874 -2.4624109e+38
2.288476 -0.1800393 2.0063293 -2.4757034e+38
2.2884665 -0.1840412 2.0063293 -2.4757553e+38
2.2884572 -0.18804309 2.0063293 -2.5156323e+38
2.2884476 -0.19204499 2.0063293 -2.5555086e+38
2.2884381 -0.19604687 2.0063293 -2.5552481e+38
2.2884288 -0.20004876 2.0063293 -2.5424779e+38
2.3014174 -0.20488617 2.0110712 -2.8094165e+38
2.2884097 -0.20805256 2.0063293 -3.0771902e+38
2.3013983 -0.21293949 2.0110712 nan
2.2883909 -0.21605633 2.0063293 nan
2.2883813 -0.22005823 2.0063293 nan
2.2753742 -0.22310081 2.0015874 nan
2.3965373 0.26852262 2.0411532 nan
2.3965273 0.26431689 2.0411532 nan
2.3825123 0.25802431 2.0360732 nan
2.3825023 0.25384527 2.0360732 nan
2.369488 0.24777797 2.0313559 nan
2.3554735 0.24161679 2.0262761 -3.2905893e+38
2.3554637 0.23748919 2.0262761 -2.8889061e+38
2.355454 0.23336157 2.0262761 -2.4893601e+38
2.3554442 0.22923395 2.0262761 -2.6222839e+38
2.3414299 0.22320613 2.0211959 -2.7420177e+38
2.3414204 0.21910518 2.0211959 -2.7287248e+38
2.3414106 0.21500427 2.0211959 -2.7021402e+38
2.3414009 0.21090332 2.0211959 -2.7154323e+38
2.3413913 0.2068024 2.0211959 -2.7154323e+38
2.3283775 0.20106074 2.0164788 -2.7153802e+38
2.3413718 0.1986005 2.0211959 -2.7020877e+38
2.3413622 0.19449955 2.0211959 -2.7021392e+38
2.3153448 0.18726581 2.0117617 -2.7022429e+38
2.3153353 0.1832144 2.0117617 -2.6888985e+38
2.3153257 0.17916298 2.0117617 -2.688795e+38
2.3153162 0.17511156 2.0117617 -2.6888474e+38
2.3023031 0.1695928 2.0070446 -2.6755555e+38
2.3022935 0.16556615 2.0070446 -2.6756595e+38
2.302284 0.16153949 2.0070446 -2.6624194e+38
2.3022745 0.15751283 2.0070446 -2.6625234e+38
2.3022649 0.15348618 2.0070446 -2.6625758e+38
2.289252 0.14811599 2.0023274 -2.6625762e+38
2.2892427 0.14411411 2.0023274 -2.6625244e+38
2.2892332 0.14011222 2.0023274 -2.6757648e+38
2.2892237 0.13611032 2.0023274 -2.7022455e+38
2.2892141 0.13210842 2.0023274 -2.7022455e+38
2.2892048 0.12810653 2.0023274 -2.7155899e+38
2.2891953 0.12410463 2.0023274 -2.7155899e+38
2.2891858 0.12010275 2.0023274 -2.7155895e+38
2.2891765 0.11610085 2.0023274 -2.715537e+38
2.2891669 0.11209895 2.0023274 -2.7287771e+38
2.2761548 0.10700114 1.9976103 -2.7154325e+38
2.2891481 0.10409518 2.0023274 -2.7153285e+38
2.2761359 0.099046871 1.9976103 -2.6887956e+38
2.2761266 0.095069736 1.9976103 -2.6622111e+38
2.2761171 0.091092616 1.9976103 -2.6489707e+38
2.2761078 0.087115481 1.9976103 -2.6356788e+38
2.2640965 0.082263887 1.993256 -2.6223348e+38
2.2640872 0.078309596 1.993256 -2.622231e+38
2.2640779 0.074355319 1.993256 -2.6222308e+38
2.2640686 0.070401058 1.993256 -2.6222823e+38
2.2510571 0.065598473 1.9885387 -2.62223e+38
2.2510478 0.061668962 1.9885387 -2.6354697e+38
2.2510386 0.057739452 1.9885387 -2.6222288e+38
2.2510293 0.053809941 1.9885387 -2.6222811e+38
2.25102 0.049880415 1.9885387 -2.608989e+38
2.2510107 0.045950912 1.9885387 -2.6089892e+38
2.2510014 0.042021394 1.9885387 -2.6222296e+38
2.2509921 0.038091883 1.9885387 -2.6222296e+38
2.2639844 0.03481257 1.993256 -2.6221777e+38
2.2639749 0.030858301 1.993256 -2.6088339e+38
2.2509642 0.026303343 1.9885387 -2.6088862e+38
2.2639563 0.022949748 1.993256 -2.6088858e+38
2.2509456 0.018444315 1.9885387 -2.5955931e+38
2.2509363 0.014514804 1.9885387 -2.5823008e+38
2.250927 0.010585293 1.9885387 -2.5690083e+38
2.2509177 0.0066557825 1.9885387 -2.5689564e+38
2.2509084 0.0027262643 1.9885387 -2.5557159e+38
2.2508991 -0.0012032464 1.9885387 -2.5424236e+38
2.2508898 -0.0051327646 1.9885387 -2.5423716e+38
2.2508805 -0.0090622716 1.9885387 -2.5556122e+38
2.2508712 -0.01299179 1.9885387 -2.5555603e+38
2.2508619 -0.016921304 1.9885387 -2.5687489e+38
2.2508526 -0.020850819 1.9885387 -2.5555605e+38
2.2508433 -0.024780329 1.9885387 -2.5556645e+38
2.250834 -0.028709844 1.9885387 -2.5423203e+38
2.2508247 -0.032639354 1.9885387 -2.5423203e+38
2.2508154 -0.036568869 1.9885387 -2.5423203e+38
2.2508061 -0.040498383 1.9885387 -2.5422682e+38
2.2507968 -0.044427894 1.9885387 -2.542268e+38
2.2507875 -0.048357405 1.9885387 -2.542268e+38
2.2387779 -0.052384254 1.9841845 -2.5289755e+38
2.2507689 -0.056216434 1.9885387 -2.5289234e+38
2.2507596 -0.060145944 1.9885387 -2.5289232e+38
2.2507503 -0.064075463 1.9885387 -2.5156826e+38
2.2387409 -0.068010874 1.9841845 -2.5156824e+38
2.2387316 -0.071917534 1.9841845 -2.5156826e+38
2.2387226 -0.075824186 1.9841845 -2.5157348e+38
2.2387133 -0.079730846 1.9841845 -2.5158388e+38
2.238704 -0.083637498 1.9841845 -2.515735e+38
2.2386947 -0.087544158 1.9841845 -2.5289759e+38
2.2386856 -0.09145081 1.9841845 -2.5156841e+38
2.2386763 -0.09535747 1.9841845 -2.5156321e+38
2.238667 -0.09926413 1.9841845 -2.5288723e+38
2.2386577 -0.10317078 1.9841845 -2.5554049e+38
2.2506483 -0.1073001 1.9885387 -2.5421646e+38
2.2386394 -0.11098409 1.9841845 -2.5421646e+38
2.2386301 -0.11489075 1.9841845 -2.528924e+38
2.2386208 -0.11879741 1.9841845 -2.5289759e+38
2.2386117 -0.12270406 1.9841845 -2.5289757e+38
2.2386024 -0.12661071 1.9841845 -2.5423197e+38
2.2505925 -0.13087718 1.9885387 -2.5289753e+38
2.2505832 -0.13480669 1.9885387 -2.5289234e+38
2.2505739 -0.13873622 1.9885387 -2.5156309e+38
2.2505646 -0.14266571 1.9885387 -2.5154753e+38
2.2505553 -0.14659524 1.9885387 -2.5021833e+38
2.250546 -0.15052474 1.9885387 -2.5021313e+38
2.2635355 -0.15499263 1.993256 -2.4888391e+38
2.2635262 -0.1589469 1.993256 -2.4889431e+38
2.2755151 -0.16344383 1.9976103 -2.475651e+38
2.2755058 -0.16742097 1.9976103 -2.475547e+38
2.2754962 -0.1713981 1.9976103 -2.4623584e+38
2.2754869 -0.17537522 1.9976103 -2.4623588e+38
2.288476 -0.1800393 2.0023274 -2.4757034e+38
2.2884665 -0.1840412 2.0023274 -2.4757034e+38
2.2884572 -0.18804309 2.0023274 -2.5156321e+38
2.2884476 -0.19204499 2.0023274 -2.5423211e+38
2.2884381 -0.19604687 2.0023274 -2.5688544e+38
2.2884288 -0.20004876 2.0023274 -2.5824582e+38
2.2884192 -0.20405066 2.0023274 -2.6625751e+38
2.2884097 -0.20805256 2.0023274 -2.7430121e+38
2.2884002 -0.21205445 2.0023274 nan
2.2883909 -0.21605633 2.0023274 nan
2.2883813 -0.22005823 2.0023274 nan
2.2883718 -0.22406013 2.0023274 nan
2.4115527 0.27504998 2.0423617 nan
2.3965373 0.26852262 2.0369473 nan
2.3965273 0.26431689 2.0369473 nan
2.3965175 0.26011121 2.0369473 nan
2.3825023 0.25384527 2.0318942 nan
2.369488 0.24777797 2.0272017 nan
2.3554735 0.24161679 2.0221484 -2.9434305e+38
2.3554637 0.23748919 2.0221484 -2.8078021e+38
2.3414495 0.23140803 2.0170951 -2.6619513e+38
2.3554442 0.22923395 2.0221484 -2.6887964e+38
2.3414299 0.22320613 2.0170951 -2.7021402e+38
2.3414204 0.21910518 2.0170951 -2.7154323e+38
2.3414106 0.21500427 2.0170951 -2.7153802e+38
2.3414009 0.21090332 2.0170951 -2.7153283e+38
2.3413913 0.2068024 2.0170951 -2.7020879e+38
2.3283775 0.20106074 2.0124025 -2.6755034e+38
2.3413718 0.1986005 2.0170951 -2.6489186e+38
2.3413622 0.19449955 2.0170951 -2.6622107e+38
2.3153448 0.18726581 2.0077102 -2.6622626e+38
2.3153353 0.1832144 2.0077102 -2.675503e+38
2.3153257 0.17916298 2.0077102 -2.6755032e+38
2.3153162 0.17511156 2.0077102 -2.6887439e+38
2.3023031 0.1695928 2.0030179 -2.688848e+38
2.3022935 0.16556615 2.0030179 -2.6755561e+38
2.302284 0.16153949 2.0030179 -2.6624198e+38
2.2892711 0.15611979 1.9983255 -2.6625756e+38
2.2892616 0.15211788 1.9983255 -2.6492316e+38
2.289252 0.14811599 1.9983255 -2.6625762e+38
2.2892427 0.14411411 1.9983255 -2.6624723e+38
2.2892332 0.14011222 1.9983255 -2.6756088e+38
2.2892237 0.13611032 1.9983255 -2.688953e+38
2.2892141 0.13210842 1.9983255 -2.7021415e+38
2.2892048 0.12810653 1.9983255 -2.7155376e+38
2.2891953 0.12410463 1.9983255 -2.7155376e+38
2.2891858 0.12010275 1.9983255 -2.7022449e+38
2.2891765 0.11610085 1.9983255 -2.7021926e+38
2.2761643 0.11097826 1.993633 -2.7020887e+38
2.2761548 0.10700114 1.993633 -2.7020368e+38
2.2761455 0.10302401 1.993633 -2.6887443e+38
2.2761359 0.099046871 1.993633 -2.6621598e+38
2.2761266 0.095069736 1.993633 -2.6355752e+38
2.2761171 0.091092616 1.993633 -2.6488675e+38
2.264106 0.086218148 1.9893017 -2.6489192e+38
2.2640965 0.082263887 1.9893017 -2.6356269e+38
2.2640872 0.078309596 1.9893017 -2.6222308e+38
2.2640779 0.074355319 1.9893017 -2.6221787e+38
2.2640686 0.070401058 1.9893017 -2.6089898e+38
