# .PCD v0.7 - Point Cloud Data file format
VERSION 0.7
FIELDS x y z rgb
SIZE 4 4 4 4
TYPE F F F F
COUNT 1 1 1 1
WIDTH 1130
HEIGHT 1
VIEWPOINT 0 0 0 1 0 0 0
POINTS 1130
DATA ascii
2.6323526 0.57494849 2.1869178 nan
2.6323411 0.57029516 2.1869178 nan
2.6323297 0.56564182 2.1869178 nan
2.6323183 0.56098855 2.1869178 nan
2.6323068 0.55633521 2.1869178 nan
2.6322954 0.55168188 2.1869178 -3.089541e+38
2.6322839 0.54702854 2.1869178 -2.9284741e+38
2.6322725 0.54237527 2.1869178 -2.7694833e+38
2.632261 0.53772193 2.1869178 -2.7952347e+38
2.6322496 0.5330686 2.1869178 -2.8085268e+38
2.6322381 0.52841526 2.1869178 -2.7687018e+38
2.6152165 0.51964283 2.1803284 -2.7285131e+38
2.6491332 0.48570979 2.1935074 -3.0765608e+38
2.6321125 0.47722876 2.1869178 nan
2.6321011 0.47257543 2.1869178 nan
2.6150804 0.46419156 2.1803284 nan
2.5980599 0.45587236 2.173739 nan
2.6150577 0.45494968 2.1803284 nan
2.5980372 0.44669521 2.173739 nan
2.598026 0.44210666 2.173739 nan
2.5980148 0.43751812 2.173739 nan
2.5980034 0.43292952 2.173739 nan
2.5979922 0.42834103 2.173739 nan
2.597981 0.42375249 2.173739 nan
2.5979698 0.41916394 2.173739 nan
2.5809503 0.41116858 2.1671493 nan
2.5979471 0.40998679 2.173739 nan
2.5809278 0.40205616 2.1671493 nan
2.5809166 0.39750004 2.1671493 nan
2.5809054 0.3929438 2.1671493 nan
2.5808942 0.38838768 2.1671493 nan
2.580883 0.3838315 2.1671493 nan
2.5808718 0.37927532 2.1671493 -3.3955774e+38
2.5808606 0.37471914 2.1671493 -2.9027718e+38
2.5808494 0.37016296 2.1671493 -2.6882216e+38
2.5808382 0.36560678 2.1671493 -2.4757529e+38
2.580827 0.36105061 2.1671493 -2.6220718e+38
2.5808158 0.35649443 2.1671493 -2.7551508e+38
2.5808046 0.35193825 2.1671493 -2.7818396e+38
2.5807934 0.34738207 2.1671493 -2.7952359e+38
2.5807824 0.34282589 2.1671493 -2.7952882e+38
2.5977781 0.34115845 2.173739 -2.7820483e+38
2.58076 0.33371353 2.1671493 -2.7821523e+38
2.5807488 0.32915735 2.1671493 -2.7688087e+38
2.5807376 0.32460117 2.1671493 -2.7554651e+38
2.5807264 0.32004499 2.1671493 -2.7421737e+38
2.5807152 0.31548882 2.1671493 -2.821876e+38
2.5646975 0.30839676 2.1609473 -2.8887017e+38
2.5646865 0.30387104 2.1609473 -2.9419755e+38
2.5476689 0.29671568 2.1543579 -2.9952994e+38
2.5476577 0.29222238 2.1543579 -2.9420254e+38
2.5476468 0.28772902 2.1543579 -2.8763473e+38
2.5476358 0.28323573 2.1543579 -3.3695163e+38
2.564631 0.28124255 2.1609473 nan
2.5806255 0.27903944 2.1671493 nan
2.6486382 0.28422475 2.1935074 nan
2.6486268 0.27953905 2.1935074 nan
2.6316094 0.27248275 2.1869178 nan
2.6486039 0.27016765 2.1935074 nan
2.6145809 0.26087022 2.1803284 nan
2.6145694 0.25624925 2.1803284 nan
2.5975525 0.24938728 2.173739 nan
2.5975413 0.2447987 2.173739 nan
2.5975301 0.24021016 2.173739 nan
2.5975187 0.23562159 2.173739 nan
2.5975075 0.23103304 2.173739 nan
2.6145015 0.22852363 2.1803284 nan
2.61449 0.22390272 2.1803284 nan
2.6144786 0.21928178 2.1803284 nan
2.5974624 0.2126788 2.173739 nan
2.5974512 0.20809023 2.173739 nan
2.6144447 0.20541893 2.1803284 nan
2.6496053 0.67782354 2.1888218 nan
2.632581 0.66801482 2.1822646 nan
2.6325698 0.66336149 2.1822646 nan
2.6325583 0.65870821 2.1822646 nan
2.6325469 0.65405488 2.1822646 nan
2.6325355 0.64940155 2.1822646 nan
2.632524 0.64474821 2.1822646 nan
2.6325126 0.64009494 2.1822646 nan
2.6325011 0.6354416 2.1822646 nan
2.6324897 0.63078833 2.1822646 nan
2.6324782 0.62613499 2.1822646 nan
2.6324668 0.62148172 2.1822646 nan
2.6324553 0.61682838 2.1822646 nan
2.6324439 0.61217505 2.1822646 nan
2.6324325 0.60752171 2.1822646 nan
2.632421 0.60286838 2.1822646 nan
2.6324096 0.5982151 2.1822646 nan
2.6323981 0.59356177 2.1822646 nan
2.6323867 0.58890843 2.1822646 nan
2.6323752 0.5842551 2.1822646 nan
2.632364 0.57960182 2.1822646 nan
2.6323526 0.57494849 2.1822646 nan
2.6323411 0.57029516 2.1822646 nan
2.6323297 0.56564182 2.1822646 -3.342977e+38
2.6323183 0.56098855 2.1822646 -3.2232422e+38
2.6323068 0.55633521 2.1822646 -3.0624364e+38
2.6493061 0.55599535 2.1888218 -2.9017311e+38
2.6322839 0.54702854 2.1822646 -2.8482987e+38
2.6322725 0.54237527 2.1822646 -2.7946629e+38
2.632261 0.53772193 2.1822646 -2.7816826e+38
2.6322496 0.5330686 2.1822646 -2.7817864e+38
2.6322381 0.52841526 2.1822646 -2.7551499e+38
2.6152165 0.51964283 2.1757073 -2.7150654e+38
2.5981951 0.51093501 2.1691504 -2.6883768e+38
2.6491449 0.49039549 2.1888218 -2.3414281e+38
2.6491332 0.48570979 2.1888218 -2.8623772e+38
2.6491218 0.48102415 2.1888218 -3.3830124e+38
2.6321011 0.47257543 2.1822646 nan
2.6320896 0.46792209 2.1822646 nan
2.6150689 0.45957059 2.1757073 nan
2.6150577 0.45494968 2.1757073 nan
2.6150463 0.45032871 2.1757073 nan
2.6150348 0.44570774 2.1757073 nan
2.6150236 0.44108683 2.1757073 nan
2.5980034 0.43292952 2.1691504 nan
2.5979922 0.42834103 2.1691504 nan
2.597981 0.42375249 2.1691504 nan
2.5979698 0.41916394 2.1691504 nan
2.5979583 0.41457534 2.1691504 nan
2.5979471 0.40998679 2.1691504 nan
2.5809278 0.40205616 2.1625931 nan
2.5809166 0.39750004 2.1625931 nan
2.5809054 0.3929438 2.1625931 nan
2.5808942 0.38838768 2.1625931 nan
2.580883 0.3838315 2.1625931 nan
2.5808718 0.37927532 2.1625931 -3.1552736e+38
2.5808606 0.37471914 2.1625931 -2.808944e+38
2.597857 0.37327832 2.1691504 -2.7151155e+38
2.5978456 0.36868978 2.1691504 -2.6351032e+38
2.580827 0.36105061 2.1625931 -2.7151695e+38
2.5808158 0.35649443 2.1625931 -2.7950793e+38
2.5808046 0.35193825 2.1625931 -2.7951836e+38
2.5807934 0.34738207 2.1625931 -2.7952878e+38
2.5977893 0.34574699 2.1691504 -2.7952882e+38
2.5977781 0.34115845 2.1691504 -2.7953408e+38
2.58076 0.33371353 2.1625931 -2.7820491e+38
2.5807488 0.32915735 2.1625931 -2.7820495e+38
2.5807376 0.32460117 2.1625931 -2.7687057e+38
2.5807264 0.32004499 2.1625931 -2.7686542e+38
2.5807152 0.31548882 2.1625931 -2.8220314e+38
2.5646975 0.30839676 2.1564217 -2.8754605e+38
2.5646865 0.30387104 2.1564217 -2.9287339e+38
2.5476689 0.29671568 2.1498647 -2.9954533e+38
2.5476577 0.29222238 2.1498647 -2.9287307e+38
2.5476468 0.28772902 2.1498647 -2.8755664e+38
2.5476358 0.28323573 2.1498647 -3.2629685e+38
2.564631 0.28124255 2.1564217 nan
2.5806255 0.27903944 2.1625931 nan
2.6316323 0.28178936 2.1822646 nan
2.6316209 0.27713603 2.1822646 nan
2.6316094 0.27248275 2.1822646 nan
2.631598 0.26782942 2.1822646 nan
2.6145809 0.26087022 2.1757073 nan
2.6145694 0.25624925 2.1757073 nan
2.5975525 0.24938728 2.1691504 nan
2.5975413 0.2447987 2.1691504 nan
2.5975301 0.24021016 2.1691504 nan
2.5975187 0.23562159 2.1691504 nan
2.5975075 0.23103304 2.1691504 nan
2.6145015 0.22852363 2.1757073 nan
2.5974851 0.22185592 2.1691504 nan
2.5974736 0.21726735 2.1691504 nan
2.5974624 0.2126788 2.1691504 nan
2.5974512 0.20809023 2.1691504 nan
2.6144447 0.20541893 2.1757073 nan
2.5974286 0.19891314 2.1691504 nan
2.5974174 0.1943246 2.1691504 nan
2.5974061 0.18973602 2.1691504 nan
2.632581 0.66801482 2.1776114 nan
2.6325698 0.66336149 2.1776114 nan
2.6325583 0.65870821 2.1776114 nan
2.6325469 0.65405488 2.1776114 nan
2.6325355 0.64940155 2.1776114 nan
2.6155117 0.6397872 2.1710863 nan
2.6325126 0.64009494 2.1776114 nan
2.6325011 0.6354416 2.1776114 nan
2.6154776 0.62592435 2.1710863 nan
2.6324782 0.62613499 2.1776114 nan
2.6324668 0.62148172 2.1776114 nan
2.6324553 0.61682838 2.1776114 nan
2.6324439 0.61217505 2.1776114 nan
2.6324325 0.60752171 2.1776114 nan
2.632421 0.60286838 2.1776114 nan
2.6324096 0.5982151 2.1776114 nan
2.6323981 0.59356177 2.1776114 nan
2.6323867 0.58890843 2.1776114 nan
2.6323752 0.5842551 2.1776114 nan
2.632364 0.57960182 2.1776114 -3.2623408e+38
2.6323526 0.57494849 2.1776114 -2.9814357e+38
2.6323411 0.57029516 2.1776114 -2.6898349e+38
2.6323297 0.56564182 2.1776114 -2.6486586e+38
2.6323183 0.56098855 2.1776114 -2.5962162e+38
2.6323068 0.55633521 2.1776114 -2.6489699e+38
2.6322954 0.55168188 2.1776114 -2.7021376e+38
2.6322839 0.54702854 2.1776114 -2.7549421e+38
2.6322725 0.54237527 2.1776114 -2.8081633e+38
2.632261 0.53772193 2.1776114 -2.7816307e+38
2.6322496 0.5330686 2.1776114 -2.7550461e+38
2.6322381 0.52841526 2.1776114 -2.7283575e+38
2.6152165 0.51964283 2.1710863 -2.7017727e+38
2.5981951 0.51093501 2.1645617 -2.6751362e+38
2.5811741 0.5022921 2.1580369 -2.6483951e+38
2.6321354 0.48653537 2.1776114 -2.4350947e+38
2.6491332 0.48570979 2.1841359 -2.6352594e+38
2.6491218 0.48102415 2.1841359 -2.8364668e+38
2.6321011 0.47257543 2.1776114 nan
2.6320896 0.46792209 2.1776114 nan
2.6320782 0.46326882 2.1776114 nan
2.6320667 0.45861548 2.1776114 nan
2.6320553 0.45396215 2.1776114 nan
2.6150348 0.44570774 2.1710863 nan
2.6320324 0.44465554 2.1776114 nan
2.6150122 0.43646592 2.1710863 nan
2.615001 0.43184495 2.1710863 nan
2.6149895 0.42722398 2.1710863 nan
2.6149781 0.42260307 2.1710863 nan
2.5979583 0.41457534 2.1645617 nan
2.5979471 0.40998679 2.1645617 nan
2.5979359 0.40539825 2.1645617 nan
2.5979245 0.40080971 2.1645617 nan
2.5979133 0.3962211 2.1645617 nan
2.5979021 0.39163256 2.1645617 nan
2.5978909 0.38704401 2.1645617 -3.1018447e+38
2.5808718 0.37927532 2.1580369 -2.913776e+38
2.5808606 0.37471914 2.1580369 -2.7149616e+38
2.597857 0.37327832 2.1645617 -2.7546814e+38
2.5978456 0.36868978 2.1645617 -2.7814743e+38
2.5978343 0.36410123 2.1645617 -2.8083193e+38
2.5808158 0.35649443 2.1580369 -2.8216637e+38
2.5808046 0.35193825 2.1580369 -2.8084756e+38
2.5807934 0.34738207 2.1580369 -2.7952357e+38
2.5977893 0.34574699 2.1645617 -2.8085282e+38
2.5807712 0.33826971 2.1580369 -2.8085807e+38
2.58076 0.33371353 2.1580369 -2.7952888e+38
2.5647421 0.32649952 2.151896 -2.7820489e+38
2.5807376 0.32460117 2.1580369 -2.7819974e+38
2.5647199 0.31744814 2.151896 -2.7820497e+38
2.5647087 0.31292242 2.151896 -2.8220827e+38
2.5476909 0.30570227 2.1453712 -2.8620119e+38
2.5476799 0.30120897 2.1453712 -2.9285775e+38
2.5316627 0.29424065 2.1392303 -2.9817974e+38
2.5476577 0.29222238 2.1453712 -2.9284712e+38
2.5476468 0.28772902 2.1453712 -2.875981e+38
2.5476358 0.28323573 2.1453712 -3.1431804e+38
2.564631 0.28124255 2.151896 nan
2.5806255 0.27903944 2.1580369 nan
2.6146262 0.27935398 2.1710863 nan
2.614615 0.27473301 2.1710863 nan
2.6146035 0.2701121 2.1710863 nan
2.6145923 0.26549113 2.1710863 nan
2.5975752 0.25856441 2.1645617 nan
2.5975637 0.25397587 2.1645617 nan
2.5975525 0.24938728 2.1645617 nan
2.5975413 0.2447987 2.1645617 nan
2.5805249 0.23803382 2.1580369 nan
2.5805137 0.23347767 2.1580369 nan
2.5805025 0.22892146 2.1580369 nan
2.5974963 0.22644447 2.1645617 nan
2.5974851 0.22185592 2.1645617 nan
2.5974736 0.21726735 2.1645617 nan
2.5804577 0.21069677 2.1580369 nan
2.5974512 0.20809023 2.1645617 nan
2.5974398 0.20350172 2.1645617 nan
2.5974286 0.19891314 2.1645617 nan
2.5974174 0.1943246 2.1645617 nan
2.5804017 0.18791588 2.1580369 nan
2.5973947 0.18514748 2.1645617 nan
2.5973835 0.18055889 2.1645617 nan
2.632581 0.66801482 2.1729579 nan
2.6325698 0.66336149 2.1729579 nan
2.6325583 0.65870821 2.1729579 nan
2.6325469 0.65405488 2.1729579 nan
2.6325355 0.64940155 2.1729579 nan
2.632524 0.64474821 2.1729579 nan
2.6325126 0.64009494 2.1729579 nan
2.6325011 0.6354416 2.1729579 nan
2.6324897 0.63078833 2.1729579 nan
2.6324782 0.62613499 2.1729579 nan
2.6324668 0.62148172 2.1729579 nan
2.6324553 0.61682838 2.1729579 nan
2.6324439 0.61217505 2.1729579 nan
2.6324325 0.60752171 2.1729579 nan
2.632421 0.60286838 2.1729579 nan
2.6324096 0.5982151 2.1729579 nan
2.6153867 0.58895689 2.1664655 nan
2.6323867 0.58890843 2.1729579 -3.2499837e+38
2.6153641 0.57971501 2.1664655 -3.0491402e+38
2.632364 0.57960182 2.1729579 -2.8625786e+38
2.6323526 0.57494849 2.1729579 -2.795284e+38
2.6323411 0.57029516 2.1729579 -2.7414401e+38
2.6323297 0.56564182 2.1729579 -2.7282518e+38
2.6323183 0.56098855 2.1729579 -2.7014598e+38
2.6323068 0.55633521 2.1729579 -2.7152715e+38
2.6322954 0.55168188 2.1729579 -2.7422207e+38
2.6322839 0.54702854 2.1729579 -2.7551506e+38
2.6322725 0.54237527 2.1729579 -2.7817349e+38
2.632261 0.53772193 2.1729579 -2.7550461e+38
2.6322496 0.5330686 2.1729579 -2.7417017e+38
2.6322381 0.52841526 2.1729579 -2.715065e+38
2.6152165 0.51964283 2.1664655 -2.7017206e+38
2.5981951 0.51093501 2.1599731 -2.6750839e+38
2.5811741 0.5022921 2.1534808 -2.6616872e+38
2.6321239 0.4818821 2.1729579 -2.4486933e+38
2.6321125 0.47722876 2.1729579 -2.4096034e+38
2.6321011 0.47257543 2.1729579 -2.9826853e+38
2.6320896 0.46792209 2.1729579 nan
2.6320782 0.46326882 2.1729579 nan
2.6320667 0.45861548 2.1729579 nan
2.6320553 0.45396215 2.1729579 nan
2.6320438 0.44930881 2.1729579 nan
2.6320324 0.44465554 2.1729579 nan
2.632021 0.4400022 2.1729579 nan
2.6320095 0.43534887 2.1729579 nan
2.6149895 0.42722398 2.1664655 nan
2.6149781 0.42260307 2.1664655 nan
2.6149669 0.41798216 2.1664655 nan
2.6149554 0.41336119 2.1664655 nan
2.6149442 0.40874028 2.1664655 nan
2.5979245 0.40080971 2.1599731 nan
2.5979133 0.3962211 2.1599731 nan
2.5979021 0.39163256 2.1599731 -3.2080783e+38
2.5978909 0.38704401 2.1599731 -2.9017293e+38
2.5978794 0.38245541 2.1599731 -2.8344337e+38
2.5978682 0.37786686 2.1599731 -2.7678175e+38
2.597857 0.37327832 2.1599731 -2.7813702e+38
2.5978456 0.36868978 2.1599731 -2.7949225e+38
2.5978343 0.36410123 2.1599731 -2.7950268e+38
2.5808158 0.35649443 2.1534808 -2.8083714e+38
2.5808046 0.35193825 2.1534808 -2.781839e+38
2.5807934 0.34738207 2.1534808 -2.7685469e+38
2.5807824 0.34282589 2.1534808 -2.7686509e+38
2.5807712 0.33826971 2.1534808 -2.7819955e+38
2.58076 0.33371353 2.1534808 -2.7687556e+38
2.5807488 0.32915735 2.1534808 -2.768756e+38
2.5647309 0.32197386 2.1473703 -2.7819966e+38
2.5647199 0.31744814 2.1473703 -2.7953412e+38
2.5647087 0.31292242 2.1473703 -2.8219781e+38
2.5476909 0.30570227 2.140878 -2.8618555e+38
2.5476799 0.30120897 2.140878 -2.9018366e+38
2.5316627 0.29424065 2.1347675 -2.9550049e+38
2.5476577 0.29222238 2.140878 -2.9285234e+38
2.5476468 0.28772902 2.140878 -2.9022532e+38
2.5476358 0.28323573 2.140878 -3.1431784e+38
2.564631 0.28124255 2.1473703 -3.3830155e+38
2.5806255 0.27903944 2.1534808 nan
2.6146262 0.27935398 2.1664655 nan
2.614615 0.27473301 2.1664655 nan
2.6146035 0.2701121 2.1664655 -3.3180631e+38
2.6145923 0.26549113 2.1664655 -3.3570595e+38
2.5975752 0.25856441 2.1599731 nan
2.5975637 0.25397587 2.1599731 -3.3303139e+38
2.5975525 0.24938728 2.1599731 -3.2511851e+38
2.5975413 0.2447987 2.1599731 -3.236856e+38
2.5805249 0.23803382 2.1534808 -3.2242364e+38
2.5805137 0.23347767 2.1534808 -3.3432936e+38
2.5805025 0.22892146 2.1534808 nan
2.5974963 0.22644447 2.1599731 nan
2.5974851 0.22185592 2.1599731 nan
2.5974736 0.21726735 2.1599731 nan
2.5804577 0.21069677 2.1534808 nan
2.5974512 0.20809023 2.1599731 nan
2.5974398 0.20350172 2.1599731 nan
2.5804241 0.1970282 2.1534808 nan
2.5804129 0.19247206 2.1534808 nan
2.5804017 0.18791588 2.1534808 nan
2.5973947 0.18514748 2.1599731 nan
2.5973835 0.18055889 2.1599731 nan
2.632581 0.66801482 2.1683044 nan
2.6325698 0.66336149 2.1683044 nan
2.6325583 0.65870821 2.1683044 nan
2.6325469 0.65405488 2.1683044 -3.316707e+38
2.6325355 0.64940155 2.1683044 nan
2.632524 0.64474821 2.1683044 nan
2.6325126 0.64009494 2.1683044 nan
2.6325011 0.6354416 2.1683044 nan
2.6154776 0.62592435 2.1618445 nan
2.6324782 0.62613499 2.1683044 nan
2.6154549 0.61668253 2.1618445 nan
2.6324553 0.61682838 2.1683044 nan
2.6324439 0.61217505 2.1683044 nan
2.6324325 0.60752171 2.1683044 nan
2.6154096 0.59819877 2.1618445 nan
2.6324096 0.5982151 2.1683044 -3.2490485e+38
2.6153867 0.58895689 2.1618445 -2.834598e+38
2.6153755 0.58433592 2.1618445 -2.4102301e+38
2.6153641 0.57971501 2.1618445 -2.436346e+38
2.632364 0.57960182 2.1683044 -2.4497922e+38
2.6323526 0.57494849 2.1683044 -2.6223304e+38
2.6323411 0.57029516 2.1683044 -2.7948704e+38
2.6323297 0.56564182 2.1683044 -2.8080586e+38
2.6323183 0.56098855 2.1683044 -2.8081106e+38
2.6323068 0.55633521 2.1683044 -2.7950262e+38
2.6322954 0.55168188 2.1683044 -2.768442e+38
2.6322839 0.54702854 2.1683044 -2.7550463e+38
2.6322725 0.54237527 2.1683044 -2.7417538e+38
2.632261 0.53772193 2.1683044 -2.7284613e+38
2.6322496 0.5330686 2.1683044 -2.7151169e+38
2.6322381 0.52841526 2.1683044 -2.7017206e+38
2.6152165 0.51964283 2.1618445 -2.688376e+38
2.5981951 0.51093501 2.1553845 -2.6750316e+38
2.5811741 0.5022921 2.1489246 -2.6616349e+38
2.6321125 0.47722876 2.1683044 -1.9702817e+38
2.6321011 0.47257543 2.1683044 -2.5554575e+38
2.6320896 0.46792209 2.1683044 -3.1420868e+38
2.6320782 0.46326882 2.1683044 -3.3960976e+38
2.6320667 0.45861548 2.1683044 nan
2.6320553 0.45396215 2.1683044 nan
2.6320438 0.44930881 2.1683044 nan
2.6320324 0.44465554 2.1683044 nan
2.632021 0.4400022 2.1683044 nan
2.6320095 0.43534887 2.1683044 nan
2.6319981 0.43069553 2.1683044 nan
2.6319866 0.4260422 2.1683044 nan
2.6319752 0.42138892 2.1683044 nan
2.6319637 0.41673565 2.1683044 nan
2.6149442 0.40874028 2.1618445 -3.3548675e+38
2.6149328 0.40411931 2.1618445 -3.2614044e+38
2.5979133 0.3962211 2.1553845 -3.1679933e+38
2.5979021 0.39163256 2.1553845 -2.9404135e+38
2.5978909 0.38704401 2.1553845 -2.7015661e+38
2.5978794 0.38245541 2.1553845 -2.754422e+38
2.5978682 0.37786686 2.1553845 -2.8079031e+38
2.597857 0.37327832 2.1553845 -2.808111e+38
2.5978456 0.36868978 2.1553845 -2.7949227e+38
2.5978343 0.36410123 2.1553845 -2.795027e+38
2.5808158 0.35649443 2.1489246 -2.7817868e+38
2.5808046 0.35193825 2.1489246 -2.7685467e+38
2.5807934 0.34738207 2.1489246 -2.742014e+38
2.5807824 0.34282589 2.1489246 -2.742066e+38
2.5807712 0.33826971 2.1489246 -2.7421181e+38
2.5647533 0.33102524 2.1428447 -2.7554625e+38
2.5647421 0.32649952 2.1428447 -2.755411e+38
2.547724 0.31918228 2.1363845 -2.781944e+38
2.547713 0.31468892 2.1363845 -2.7952884e+38
2.5477018 0.31019562 2.1363845 -2.8218734e+38
2.5476909 0.30570227 2.1363845 -2.8485103e+38
2.5476799 0.30120897 2.1363845 -2.8883875e+38
2.5316627 0.29424065 2.1303046 -2.9283157e+38
2.5316517 0.28977787 2.1303046 -2.9283153e+38
2.5316408 0.28531498 2.1303046 -2.9162732e+38
2.5476358 0.28323573 2.1363845 -3.1308751e+38
2.564631 0.28124255 2.1428447 -3.3429305e+38
2.5806255 0.27903944 2.1489246 -3.315777e+38
2.6146262 0.27935398 2.1618445 -3.2890327e+38
2.614615 0.27473301 2.1618445 -2.9273853e+38
2.6146035 0.2701121 2.1618445 -2.5566557e+38
2.6145923 0.26549113 2.1618445 -2.5686503e+38
2.5975752 0.25856441 2.1553845 -2.5698957e+38
2.5975637 0.25397587 2.1553845 -2.5687004e+38
2.5975525 0.24938728 2.1553845 -2.5698444e+38
2.5975413 0.2447987 2.1553845 -2.4888462e+38
2.5805249 0.23803382 2.1489246 -2.4101295e+38
2.5975187 0.23562159 2.1553845 -2.6084219e+38
2.5805025 0.22892146 2.1489246 -2.809783e+38
2.5974963 0.22644447 2.1553845 -2.8091638e+38
2.5974851 0.22185592 2.1553845 -2.7973771e+38
2.5974736 0.21726735 2.1553845 -2.9427091e+38
2.5974624 0.2126788 2.1553845 -3.0778682e+38
2.5974512 0.20809023 2.1553845 nan
2.5804353 0.20158441 2.1489246 nan
2.5804241 0.1970282 2.1489246 nan
2.5804129 0.19247206 2.1489246 nan
2.5804017 0.18791588 2.1489246 nan
2.5803905 0.1833597 2.1489246 nan
2.5803792 0.17880352 2.1489246 nan
2.5803683 0.17424734 2.1489246 nan
2.5803571 0.16969116 2.1489246 nan
2.6155684 0.66289186 2.1572237 nan
2.6325698 0.66336149 2.1636512 nan
2.6325583 0.65870821 2.1636512 -3.3957319e+38
2.6325469 0.65405488 2.1636512 -3.1963498e+38
2.6325355 0.64940155 2.1636512 -3.2092287e+38
2.632524 0.64474821 2.1636512 -3.2238703e+38
2.6325126 0.64009494 2.1636512 -3.2496233e+38
2.6325011 0.6354416 2.1636512 -3.2768314e+38
2.6324897 0.63078833 2.1636512 -3.3160853e+38
2.6324782 0.62613499 2.1636512 -3.3565863e+38
2.6154549 0.61668253 2.1572237 -3.3961526e+38
2.6154437 0.61206156 2.1572237 nan
2.6324439 0.61217505 2.1636512 -3.3162419e+38
2.6324325 0.60752171 2.1636512 -3.2102615e+38
2.632421 0.60286838 2.1636512 -3.0620674e+38
2.6324096 0.5982151 2.1636512 -2.928053e+38
2.6153867 0.58895689 2.1572237 -2.7550443e+38
2.6323867 0.58890843 2.1636512 -2.5821953e+38
2.6323752 0.5842551 2.1636512 -2.5824057e+38
2.632364 0.57960182 2.1636512 -2.5824047e+38
2.6323526 0.57494849 2.1636512 -2.6753975e+38
2.6323411 0.57029516 2.1636512 -2.7682873e+38
2.6323297 0.56564182 2.1636512 -2.7682869e+38
2.6323183 0.56098855 2.1636512 -2.7683388e+38
2.6323068 0.55633521 2.1636512 -2.7682867e+38
2.6322954 0.55168188 2.1636512 -2.7814749e+38
2.6322839 0.54702854 2.1636512 -2.7682343e+38
2.6322725 0.54237527 2.1636512 -2.7682343e+38
2.632261 0.53772193 2.1636512 -2.7417015e+38
2.6322496 0.5330686 2.1636512 -2.7017725e+38
2.6322381 0.52841526 2.1636512 -2.688376e+38
2.6152165 0.51964283 2.1572237 -2.6616355e+38
2.5981951 0.51093501 2.1507959 -2.6616351e+38
2.5811741 0.5022921 2.1443684 -2.6615825e+38
2.6321125 0.47722876 2.1636512 -2.2493665e+38
2.6321011 0.47257543 2.1636512 -2.4753866e+38
2.6320896 0.46792209 2.1636512 -2.715224e+38
2.6320782 0.46326882 2.1636512 -2.9687689e+38
2.6320667 0.45861548 2.1636512 -3.2354962e+38
2.6320553 0.45396215 2.1636512 -3.2884564e+38
2.6320438 0.44930881 2.1636512 -3.3416262e+38
2.6320324 0.44465554 2.1636512 -3.3017499e+38
2.632021 0.4400022 2.1636512 -3.2622889e+38
2.6320095 0.43534887 2.1636512 -3.3421468e+38
2.6319981 0.43069553 2.1636512 nan
2.6319866 0.4260422 2.1636512 -3.3683136e+38
2.6319752 0.42138892 2.1636512 -3.3151454e+38
2.6319637 0.41673565 2.1636512 -3.2216849e+38
2.6149442 0.40874028 2.1572237 -3.1148753e+38
2.6149328 0.40411931 2.1572237 -2.9947213e+38
2.6149213 0.3994984 2.1572237 -2.8612801e+38
2.5979021 0.39163256 2.1507959 -2.7813195e+38
2.6148987 0.39025652 2.1572237 -2.7015661e+38
2.6148872 0.38563555 2.1572237 -2.7149103e+38
2.5978682 0.37786686 2.1507959 -2.7417023e+38
2.6148646 0.37639368 2.1572237 -2.7417538e+38
2.5978456 0.36868978 2.1507959 -2.7550982e+38
2.5978343 0.36410123 2.1507959 -2.7551501e+38
2.5978231 0.35951269 2.1507959 -2.7418581e+38
2.5978119 0.35492408 2.1507959 -2.7287218e+38
2.5807934 0.34738207 2.1443684 -2.7155331e+38
2.5807824 0.34282589 2.1443684 -2.7288252e+38
2.5807712 0.33826971 2.1443684 -2.7554098e+38
2.5647533 0.33102524 2.1383188 -2.7686499e+38
2.5647421 0.32649952 2.1383188 -2.7819428e+38
2.5317175 0.3165549 2.1258416 -2.7952355e+38
2.5317066 0.31209207 2.1258416 -2.8084763e+38
2.5316956 0.30762923 2.1258416 -2.8485091e+38
2.5316846 0.30316639 2.1258416 -2.888438e+38
2.5316737 0.29870355 2.1258416 -2.9016267e+38
2.5316627 0.29424065 2.1258416 -2.9283149e+38
2.5316517 0.28977787 2.1258416 -2.9689704e+38
2.5316408 0.28531498 2.1258416 -3.009424e+38
2.5476358 0.28323573 2.1318913 -3.1299429e+38
2.564631 0.28124255 2.1383188 -3.262917e+38
2.5806255 0.27903944 2.1443684 -3.2493645e+38
2.5976202 0.27691859 2.1507959 -3.2492546e+38
2.597609 0.27233005 2.1507959 -3.0485662e+38
2.5975976 0.2677415 2.1507959 -2.8480385e+38
2.5975864 0.26315296 2.1507959 -2.8350044e+38
2.5975752 0.25856441 2.1507959 -2.8343822e+38
2.5975637 0.25397587 2.1507959 -2.8347984e+38
2.5975525 0.24938728 2.1507959 -2.8345923e+38
2.5975413 0.2447987 2.1507959 -2.7817361e+38
2.5805249 0.23803382 2.1443684 -2.7279952e+38
2.5805137 0.23347767 2.1443684 -3.0217227e+38
2.5805025 0.22892146 2.1443684 -3.3147293e+38
2.5974963 0.22644447 2.1507959 -3.3287018e+38
2.5974851 0.22185592 2.1507959 -3.3550243e+38
2.5974736 0.21726735 2.1507959 -3.3287487e+38
2.5804577 0.21069677 2.1443684 -3.3017548e+38
2.5974512 0.20809023 2.1507959 nan
2.5804353 0.20158441 2.1443684 nan
2.5804241 0.1970282 2.1443684 nan
2.5804129 0.19247206 2.1443684 nan
2.5804017 0.18791588 2.1443684 nan
2.5803905 0.1833597 2.1443684 nan
2.5803792 0.17880352 2.1443684 nan
2.5803683 0.17424734 2.1443684 nan
2.5803571 0.16969116 2.1443684 nan
2.632581 0.66801482 2.158998 nan
2.6325698 0.66336149 2.158998 nan
2.6325583 0.65870821 2.158998 -3.3283323e+38
2.6325469 0.65405488 2.158998 -3.0750003e+38
2.6325355 0.64940155 2.158998 -2.8068703e+38
2.632524 0.64474821 2.158998 -2.5426345e+38
2.6325126 0.64009494 2.158998 -2.6079538e+38
2.6325011 0.6354416 2.158998 -2.6756616e+38
2.6324897 0.63078833 2.158998 -2.5687006e+38
2.6324782 0.62613499 2.158998 -2.4632982e+38
2.6324668 0.62148172 2.158998 -2.5815281e+38
2.6324553 0.61682838 2.158998 -2.6890581e+38
2.6324439 0.61217505 2.158998 -2.5680751e+38
2.6324325 0.60752171 2.158998 -2.44969e+38
2.632421 0.60286838 2.158998 -2.5283524e+38
2.6324096 0.5982151 2.158998 -2.6087286e+38
2.6323981 0.59356177 2.158998 -2.6885853e+38
2.6323867 0.58890843 2.158998 -2.7550998e+38
2.6323752 0.5842551 2.158998 -2.7419128e+38
2.632364 0.57960182 2.158998 -2.7152751e+38
2.6323526 0.57494849 2.158998 -2.7284626e+38
2.6323411 0.57029516 2.158998 -2.7417546e+38
2.6323297 0.56564182 2.158998 -2.7284624e+38
2.6323183 0.56098855 2.158998 -2.7151177e+38
2.6323068 0.55633521 2.158998 -2.7549425e+38
2.6322954 0.55168188 2.158998 -2.7815268e+38
2.6322839 0.54702854 2.158998 -2.7948189e+38
2.6322725 0.54237527 2.158998 -2.7948189e+38
2.632261 0.53772193 2.158998 -2.7416496e+38
2.6322496 0.5330686 2.158998 -2.6884283e+38
2.6322381 0.52841526 2.158998 -2.6617395e+38
2.6152165 0.51964283 2.1526027 -2.6351028e+38
2.6321011 0.47257543 2.158998 -2.3946989e+38
2.6320896 0.46792209 2.158998 -2.2757452e+38
2.6320782 0.46326882 2.158998 -2.5548849e+38
2.6320667 0.45861548 2.158998 -2.8219259e+38
2.6320553 0.45396215 2.158998 -2.9287327e+38
2.6320438 0.44930881 2.158998 -3.0351235e+38
2.6320324 0.44465554 2.158998 -3.0611377e+38
2.632021 0.4400022 2.158998 -3.0885534e+38
2.6320095 0.43534887 2.158998 -3.1553268e+38
2.6319981 0.43069553 2.158998 -3.2215797e+38
2.6319866 0.4260422 2.158998 -3.154235e+38
2.6319752 0.42138892 2.158998 -3.0883968e+38
2.6319637 0.41673565 2.158998 -2.9821109e+38
2.6319523 0.41208231 2.158998 -2.8753027e+38
2.6149328 0.40411931 2.1526027 -2.7148062e+38
2.6149213 0.3994984 2.1526027 -2.5555067e+38
2.6149101 0.39487743 2.1526027 -2.6352608e+38
2.6148987 0.39025652 2.1526027 -2.7017741e+38
2.6148872 0.38563555 2.1526027 -2.6885338e+38
2.614876 0.38101465 2.1526027 -2.6620007e+38
2.6148646 0.37639368 2.1526027 -2.688637e+38
2.5978456 0.36868978 2.1462073 -2.7152735e+38
2.5978343 0.36410123 2.1462073 -2.7152737e+38
2.5978231 0.35951269 2.1462073 -2.7020336e+38
2.5978119 0.35492408 2.1462073 -2.7021895e+38
2.5978005 0.35033554 2.1462073 -2.6888451e+38
2.5977893 0.34574699 2.1462073 -2.7287739e+38
2.5807712 0.33826971 2.1398122 -2.7553582e+38
2.5647533 0.33102524 2.1337931 -2.7818388e+38
2.5316517 0.28977787 2.1213789 -3.0098875e+38
2.5316408 0.28531498 2.1213789 -3.0895931e+38
2.5476358 0.28323573 2.127398 -3.1431295e+38
2.564631 0.28124255 2.1337931 -3.182954e+38
2.5806255 0.27903944 2.1398122 -3.1961423e+38
2.5976202 0.27691859 2.1462073 -3.1961903e+38
2.597609 0.27233005 2.1462073 -3.1695502e+38
2.5975976 0.2677415 2.1462073 -3.1287897e+38
2.5975864 0.26315296 2.1462073 -3.1154962e+38
2.5975752 0.25856441 2.1462073 -3.0881332e+38
2.5975637 0.25397587 2.1462073 -3.0881338e+38
2.5805473 0.24714617 2.1398122 -3.0883427e+38
2.5975413 0.2447987 2.1462073 -3.075571e+38
2.5805249 0.23803382 2.1398122 -3.0490396e+38
2.5805137 0.23347767 2.1398122 nan
2.5805025 0.22892146 2.1398122 nan
2.5804913 0.22436531 2.1398122 nan
2.5804801 0.2198091 2.1398122 nan
2.5974736 0.21726735 2.1462073 nan
2.5804577 0.21069677 2.1398122 nan
2.5974512 0.20809023 2.1462073 -3.0489952e+38
2.5804353 0.20158441 2.1398122 -2.559105e+38
2.5804241 0.1970282 2.1398122 -3.318793e+38
2.5804129 0.19247206 2.1398122 nan
2.5804017 0.18791588 2.1398122 nan
2.5803905 0.1833597 2.1398122 nan
2.5803792 0.17880352 2.1398122 nan
2.5803683 0.17424734 2.1398122 nan
2.5803571 0.16969116 2.1398122 nan
2.632581 0.66801482 2.1543446 nan
2.6325698 0.66336149 2.1543446 nan
2.6325583 0.65870821 2.1543446 nan
2.6325469 0.65405488 2.1543446 -3.3804576e+38
2.6325355 0.64940155 2.1543446 -2.9275839e+38
2.632524 0.64474821 2.1543446 -2.4754918e+38
2.6325126 0.64009494 2.1543446 -2.5950714e+38
2.6325011 0.6354416 2.1543446 -2.7142868e+38
2.6324897 0.63078833 2.1543446 -2.6618967e+38
2.6324782 0.62613499 2.1543446 -2.6091444e+38
2.6324668 0.62148172 2.1543446 -2.6752437e+38
2.6324553 0.61682838 2.1543446 -2.7548376e+38
2.6324439 0.61217505 2.1543446 -2.6750797e+38
2.6324325 0.60752171 2.1543446 -2.5953822e+38
2.632421 0.60286838 2.1543446 -2.635315e+38
2.6324096 0.5982151 2.1543446 -2.6753995e+38
2.6323981 0.59356177 2.1543446 -2.7152242e+38
2.6323867 0.58890843 2.1543446 -2.7551011e+38
2.6153641 0.57971501 2.1479816 -2.7284644e+38
2.5983417 0.57058626 2.1416187 -2.7151711e+38
2.5983303 0.56599772 2.1416187 -2.7018778e+38
2.5983191 0.56140918 2.1416187 -2.701878e+38
2.5983078 0.55682063 2.1416187 -2.6885338e+38
2.6323183 0.56098855 2.1543446 -2.6884815e+38
2.6323068 0.55633521 2.1543446 -2.7150656e+38
2.6322954 0.55168188 2.1543446 -2.7549423e+38
2.6152732 0.5427475 2.1479816 -2.7548901e+38
2.615262 0.53812659 2.1479816 -2.7681824e+38
2.6152506 0.53350562 2.1479816 -2.7416496e+38
2.6152391 0.52888465 2.1479816 -2.7017206e+38
2.6322381 0.52841526 2.1543446 -2.6750837e+38
2.6322267 0.52376199 2.1543446 -2.6351547e+38
2.6321011 0.47257543 2.1543446 -2.4882647e+38
2.6320896 0.46792209 2.1543446 -2.4217497e+38
2.6320782 0.46326882 2.1543446 -2.5947554e+38
2.6320667 0.45861548 2.1543446 -2.7678703e+38
2.6320553 0.45396215 2.1543446 -2.8751468e+38
2.6490529 0.45290989 2.1607075 -2.9817974e+38
2.6320324 0.44465554 2.1543446 -3.0347594e+38
2.632021 0.4400022 2.1543446 -3.0881368e+38
2.6320095 0.43534887 2.1543446 -3.141514e+38
2.6319981 0.43069553 2.1543446 -3.1945791e+38
2.6319866 0.4260422 2.1543446 -3.1413577e+38
2.6319752 0.42138892 2.1543446 -3.0882403e+38
2.6319637 0.41673565 2.1543446 -2.9820057e+38
2.6319523 0.41208231 2.1543446 -2.8887508e+38
2.6319408 0.40742898 2.1543446 -2.7419114e+38
2.6149213 0.3994984 2.1479816 -2.5955406e+38
2.6149101 0.39487743 2.1479816 -2.6354172e+38
2.6148987 0.39025652 2.1479816 -2.6620535e+38
2.6148872 0.38563555 2.1479816 -2.6619494e+38
2.614876 0.38101465 2.1479816 -2.6620012e+38
2.6148646 0.37639368 2.1479816 -2.675345e+38
2.6148534 0.37177277 2.1479816 -2.7020336e+38
2.5978343 0.36410123 2.1416187 -2.7019818e+38
2.5978231 0.35951269 2.1416187 -2.702034e+38
2.5978119 0.35492408 2.1416187 -2.6887419e+38
2.5978005 0.35033554 2.1416187 -2.68869e+38
2.5977893 0.34574699 2.1416187 -2.7153782e+38
2.5807712 0.33826971 2.1352561 -2.7420144e+38
2.5647533 0.33102524 2.1292675 -2.7685467e+38
2.5316517 0.28977787 2.1169159 -2.9829932e+38
2.5316408 0.28531498 2.1169159 -3.0363201e+38
2.5476358 0.28323573 2.1229045 -3.0764067e+38
2.5806367 0.28359562 2.1352561 -3.1296277e+38
2.5806255 0.27903944 2.1352561 -3.1430236e+38
2.5976202 0.27691859 2.1416187 -3.1564186e+38
2.597609 0.27233005 2.1416187 -3.1296249e+38
2.5975976 0.2677415 2.1416187 -3.1161241e+38
2.5975864 0.26315296 2.1416187 -3.1024154e+38
2.5975752 0.25856441 2.1416187 -3.1017406e+38
2.5975637 0.25397587 2.1416187 -3.0888637e+38
2.5805473 0.24714617 2.1352561 -3.0891246e+38
2.5975413 0.2447987 2.1416187 -3.1027296e+38
2.5805249 0.23803382 2.1352561 -3.1296807e+38
2.5805137 0.23347767 2.1352561 -3.396256e+38
2.5805025 0.22892146 2.1352561 nan
2.5804913 0.22436531 2.1352561 nan
2.5804801 0.2198091 2.1352561 nan
2.5974736 0.21726735 2.1416187 nan
2.5804577 0.21069677 2.1352561 nan
2.5974512 0.20809023 2.1416187 -3.3160304e+38
2.5804353 0.20158441 2.1352561 -3.0486829e+38
2.5804241 0.1970282 2.1352561 -3.2767324e+38
2.5804129 0.19247206 2.1352561 nan
2.5804017 0.18791588 2.1352561 nan
2.5803905 0.1833597 2.1352561 nan
2.5803792 0.17880352 2.1352561 nan
2.5803683 0.17424734 2.1352561 nan
2.5803571 0.16969116 2.1352561 nan
2.5643418 0.16357431 2.1292675 nan
2.632581 0.66801482 2.1496911 nan
2.6325698 0.66336149 2.1496911 nan
2.6325583 0.65870821 2.1496911 nan
2.6495593 0.65908074 2.1560216 nan
2.6325355 0.64940155 2.1496911 -3.0475789e+38
2.632524 0.64474821 2.1496911 -2.4092391e+38
2.6325126 0.64009494 2.1496911 -2.5824556e+38
2.6325011 0.6354416 2.1496911 -2.7417033e+38
2.6324897 0.63078833 2.1496911 -2.7554112e+38
2.6324782 0.62613499 2.1496911 -2.7553599e+38
2.6324668 0.62148172 2.1496911 -2.7819972e+38
2.6324553 0.61682838 2.1496911 -2.8084235e+38
2.6324439 0.61217505 2.1496911 -2.7819402e+38
2.6324325 0.60752171 2.1496911 -2.7419098e+38
2.632421 0.60286838 2.1496911 -2.7420159e+38
2.6324096 0.5982151 2.1496911 -2.7285678e+38
2.6323981 0.59356177 2.1496911 -2.7417043e+38
2.6323867 0.58890843 2.1496911 -2.7417043e+38
2.6153641 0.57971501 2.1433606 -2.7283082e+38
2.6153529 0.57509404 2.1433606 -2.7018267e+38
2.5983303 0.56599772 2.1370301 -2.6885338e+38
2.5983191 0.56140918 2.1370301 -2.661949e+38
2.5983078 0.55682063 2.1370301 -2.661949e+38
2.6323183 0.56098855 2.1496911 -2.6486565e+38
2.6323068 0.55633521 2.1496911 -2.6884815e+38
2.6322954 0.55168188 2.1496911 -2.7150656e+38
2.6152732 0.5427475 2.1433606 -2.7282538e+38
2.615262 0.53812659 2.1433606 -2.7417019e+38
2.6152506 0.53350562 2.1433606 -2.7284617e+38
2.6152391 0.52888465 2.1433606 -2.7151173e+38
2.6152279 0.52426368 2.1433606 -2.6751884e+38
2.6152165 0.51964283 2.1433606 -2.6352075e+38
2.6321011 0.47257543 2.1496911 -2.5683295e+38
2.6490989 0.47165269 2.1560216 -2.5681733e+38
2.6490872 0.46696699 2.1560216 -2.6477708e+38
2.6320667 0.45861548 2.1496911 -2.7149614e+38
2.6320553 0.45396215 2.1496911 -2.8221847e+38
2.6490529 0.45290989 2.1560216 -2.9150753e+38
2.6490412 0.44822419 2.1560216 -2.9946219e+38
2.632021 0.4400022 2.1496911 -3.0747914e+38
2.6320095 0.43534887 2.1496911 -3.128013e+38
2.6490066 0.43416709 2.1560216 -3.1680974e+38
2.6319866 0.4260422 2.1496911 -3.128272e+38
2.6319752 0.42138892 2.1496911 -3.0751546e+38
2.6319637 0.41673565 2.1496911 -2.9954527e+38
2.6319523 0.41208231 2.1496911 -2.9019386e+38
2.6319408 0.40742898 2.1496911 -2.7685998e+38
2.6149213 0.3994984 2.1433606 -2.6354689e+38
2.6149101 0.39487743 2.1433606 -2.6354168e+38
2.6148987 0.39025652 2.1433606 -2.6220205e+38
2.6148872 0.38563555 2.1433606 -2.6485012e+38
2.614876 0.38101465 2.1433606 -2.6618971e+38
2.6148646 0.37639368 2.1433606 -2.6752411e+38
2.6148534 0.37177277 2.1433606 -2.675293e+38
2.6148419 0.3671518 2.1433606 -2.6885336e+38
2.5978231 0.35951269 2.1370301 -2.6886374e+38
2.5978119 0.35492408 2.1370301 -2.6886376e+38
2.6148078 0.35328895 2.1433606 -2.6753975e+38
2.6147966 0.34866804 2.1433606 -2.7019822e+38
2.5977781 0.34115845 2.1370301 -2.715326e+38
2.58076 0.33371353 2.1306996 -2.7552025e+38
2.5317285 0.32101774 2.112453 -2.7817872e+38
2.5317175 0.3165549 2.112453 -2.7949759e+38
2.5316408 0.28531498 2.112453 -2.9832048e+38
2.5476358 0.28323573 2.1184111 -3.0231858e+38
2.5806367 0.28359562 2.1306996 -3.0632182e+38
2.5976315 0.28150719 2.1370301 -3.0898543e+38
2.5976202 0.27691859 2.1370301 -3.10299e+38
2.597609 0.27233005 2.1370301 -3.1028854e+38
2.5975976 0.2677415 2.1370301 -3.1028846e+38
2.5975864 0.26315296 2.1370301 -3.1029359e+38
2.5975752 0.25856441 2.1370301 -3.1026765e+38
2.5975637 0.25397587 2.1370301 -3.102988e+38
2.5805473 0.24714617 2.1306996 -3.089645e+38
2.5975413 0.2447987 2.1370301 -3.143023e+38
2.5805249 0.23803382 2.1306996 -3.1961942e+38
2.5805137 0.23347767 2.1306996 -3.3424634e+38
2.5805025 0.22892146 2.1306996 nan
2.5804913 0.22436531 2.1306996 nan
2.5804801 0.2198091 2.1306996 nan
2.5974736 0.21726735 2.1370301 nan
2.5804577 0.21069677 2.1306996 nan
2.5974512 0.20809023 2.1370301 nan
2.5804353 0.20158441 2.1306996 nan
2.5804241 0.1970282 2.1306996 -3.235294e+38
2.5804129 0.19247206 2.1306996 -2.9306632e+38
2.5804017 0.18791588 2.1306996 -3.2901788e+38
2.5803905 0.1833597 2.1306996 nan
2.5803792 0.17880352 2.1306996 nan
2.5803683 0.17424734 2.1306996 nan
2.5803571 0.16969116 2.1306996 nan
2.5803459 0.16513498 2.1306996 nan
2.632581 0.66801482 2.1450379 nan
2.6325698 0.66336149 2.1450379 nan
2.6325583 0.65870821 2.1450379 nan
2.6495593 0.65908074 2.151336 nan
2.6325355 0.64940155 2.1450379 -3.114768e+38
2.632524 0.64474821 2.1450379 -2.4619422e+38
2.6325126 0.64009494 2.1450379 -2.6086779e+38
2.6325011 0.6354416 2.1450379 -2.7684968e+38
2.6324897 0.63078833 2.1450379 -2.7685487e+38
2.6324782 0.62613499 2.1450379 -2.768497e+38
2.6324668 0.62148172 2.1450379 -2.7686008e+38
2.6324553 0.61682838 2.1450379 -2.7686e+38
2.6324439 0.61217505 2.1450379 -2.7420144e+38
2.6324325 0.60752171 2.1450379 -2.7153782e+38
2.632421 0.60286838 2.1450379 -2.7153264e+38
2.6324096 0.5982151 2.1450379 -2.7284632e+38
2.6323981 0.59356177 2.1450379 -2.7284112e+38
2.6323867 0.58890843 2.1450379 -2.7284114e+38
2.6153641 0.57971501 2.1387398 -2.7150672e+38
2.6153529 0.57509404 2.1387398 -2.7017746e+38
2.5983303 0.56599772 2.1324418 -2.6618973e+38
2.5983191 0.56140918 2.1324418 -2.6220203e+38
2.5983078 0.55682063 2.1324418 -2.622072e+38
2.6323183 0.56098855 2.1450379 -2.6087799e+38
2.6323068 0.55633521 2.1450379 -2.6486567e+38
2.6322954 0.55168188 2.1450379 -2.6885851e+38
2.6152732 0.5427475 2.1387398 -2.7019289e+38
2.615262 0.53812659 2.1387398 -2.7286696e+38
2.6152506 0.53350562 2.1387398 -2.7152737e+38
2.6152391 0.52888465 2.1387398 -2.7019295e+38
2.6322381 0.52841526 2.1450379 -2.6752411e+38
2.6152165 0.51964283 2.1387398 -2.6485006e+38
2.6491103 0.47633839 2.151336 -2.5550368e+38
2.6490989 0.47165269 2.151336 -2.5683818e+38
2.6490872 0.46696699 2.151336 -2.6215515e+38
2.6320667 0.45861548 2.1450379 -2.6883776e+38
2.6320553 0.45396215 2.1450379 -2.7417554e+38
2.6320438 0.44930881 2.1450379 -2.8085286e+38
2.6490412 0.44822419 2.151336 -2.9419189e+38
2.6490297 0.44353855 2.151336 -3.0618616e+38
2.6320095 0.43534887 2.1450379 -3.1016352e+38
2.6490066 0.43416709 2.151336 -3.1549598e+38
2.6319866 0.4260422 2.1450379 -3.1019461e+38
2.6319752 0.42138892 2.1450379 -3.0488287e+38
2.6319637 0.41673565 2.1450379 -2.9820034e+38
2.6319523 0.41208231 2.1450379 -2.9150745e+38
2.6319408 0.40742898 2.1450379 -2.7951323e+38
2.6319296 0.40277565 2.1450379 -2.688534e+38
2.6319182 0.39812237 2.1450379 -2.6618971e+38
2.6319067 0.39346904 2.1450379 -2.6352087e+38
2.6148872 0.38563555 2.1387398 -2.6352085e+38
2.614876 0.38101465 2.1387398 -2.6352085e+38
2.6148646 0.37639368 2.1387398 -2.6486046e+38
2.5978456 0.36868978 2.1324418 -2.6619488e+38
2.6148419 0.3671518 2.1387398 -2.675189e+38
2.6148305 0.36253083 2.1387398 -2.6885334e+38
2.6148193 0.35790992 2.1387398 -2.6885853e+38
2.6148078 0.35328895 2.1387398 -2.6886376e+38
2.6147966 0.34866804 2.1387398 -2.7019822e+38
2.5977781 0.34115845 2.1324418 -2.7152222e+38
2.58076 0.33371353 2.1261435 -2.7286179e+38
2.547735 0.32367557 2.1139178 -2.7552546e+38
2.5317175 0.3165549 2.1079903 -2.7685471e+38
2.5316517 0.28977787 2.1079903 -2.9297267e+38
2.5476468 0.28772902 2.1139178 -2.9563103e+38
2.564642 0.28576821 2.1202159 -2.9965496e+38
2.5806367 0.28359562 2.1261435 -3.0234453e+38
2.5976315 0.28150719 2.1324418 -3.0630099e+38
2.5976202 0.27691859 2.1324418 -3.1160229e+38
2.597609 0.27233005 2.1324418 -3.1160744e+38
2.5975976 0.2677415 2.1324418 -3.1294182e+38
2.5975864 0.26315296 2.1324418 -3.1428139e+38
2.5975752 0.25856441 2.1324418 -3.1695025e+38
2.5975637 0.25397587 2.1324418 -3.1695025e+38
2.5805473 0.24714617 2.1261435 -3.1695557e+38
2.5975413 0.2447987 2.1324418 -3.1961413e+38
2.5805249 0.23803382 2.1261435 -3.2360195e+38
2.5805137 0.23347767 2.1261435 -3.3288071e+38
2.5805025 0.22892146 2.1261435 nan
2.5974963 0.22644447 2.1324418 -3.3422036e+38
2.5974851 0.22185592 2.1324418 -3.2626089e+38
2.5974736 0.21726735 2.1324418 -3.383281e+38
2.5974624 0.2126788 2.1324418 nan
2.5804465 0.20614056 2.1261435 nan
2.5804353 0.20158441 2.1261435 nan
2.5804241 0.1970282 2.1261435 -3.3292707e+38
2.5804129 0.19247206 2.1261435 -3.1684647e+38
2.5804017 0.18791588 2.1261435 -3.2891331e+38
2.5803905 0.1833597 2.1261435 nan
2.5803792 0.17880352 2.1261435 nan
2.5803683 0.17424734 2.1261435 nan
2.5973608 0.17138177 2.1324418 nan
2.632581 0.66801482 2.1403847 nan
2.6495821 0.66845208 2.1466503 nan
2.6495707 0.66376638 2.1466503 nan
2.6495593 0.65908074 2.1466503 nan
2.6495478 0.65439504 2.1466503 -3.1809195e+38
2.6495361 0.64970928 2.1466503 -2.5025449e+38
2.6495247 0.64502358 2.1466503 -2.6483438e+38
2.6495132 0.64033794 2.1466503 -2.7816832e+38
2.6324897 0.63078833 2.1403847 -2.7818402e+38
2.6324782 0.62613499 2.1403847 -2.7685479e+38
2.6324668 0.62148172 2.1403847 -2.7419116e+38
2.6324553 0.61682838 2.1403847 -2.7153786e+38
2.6324439 0.61217505 2.1403847 -2.7020342e+38
2.6324325 0.60752171 2.1403847 -2.688794e+38
2.632421 0.60286838 2.1403847 -2.7020346e+38
2.6324096 0.5982151 2.1403847 -2.715223e+38
2.6323981 0.59356177 2.1403847 -2.7150672e+38
2.6323867 0.58890843 2.1403847 -2.715067e+38
2.6323752 0.5842551 2.1403847 -2.7017228e+38
2.632364 0.57960182 2.1403847 -2.6884301e+38
2.6153414 0.57047313 2.1341188 -2.6352087e+38
2.61533 0.56585217 2.1341188 -2.5821434e+38
2.5983078 0.55682063 2.1278532 -2.5821953e+38
2.6153073 0.55661029 2.1341188 -2.5689031e+38
2.6152961 0.55198938 2.1341188 -2.608728e+38
2.6322954 0.55168188 2.1403847 -2.6487083e+38
2.6152732 0.5427475 2.1341188 -2.6886887e+38
2.615262 0.53812659 2.1341188 -2.7153254e+38
2.6152506 0.53350562 2.1341188 -2.7020855e+38
2.6152391 0.52888465 2.1341188 -2.6886374e+38
2.6322381 0.52841526 2.1403847 -2.6752415e+38
2.6322267 0.52376199 2.1403847 -2.6618452e+38
2.6321125 0.47722876 2.1403847 -2.5018671e+38
2.6321011 0.47257543 2.1403847 -2.5284516e+38
2.6490989 0.47165269 2.1466503 -2.5549849e+38
2.6490872 0.46696699 2.1466503 -2.6081548e+38
2.6490757 0.46228135 2.1466503 -2.6481365e+38
2.6320553 0.45396215 2.1403847 -2.6745663e+38
2.6490529 0.45290989 2.1466503 -2.7020857e+38
2.6490412 0.44822419 2.1466503 -2.876028e+38
2.6490297 0.44353855 2.1466503 -3.0485167e+38
2.6320095 0.43534887 2.1403847 -3.0883425e+38
2.6490066 0.43416709 2.1466503 -3.1285311e+38
2.6319866 0.4260422 2.1403847 -3.0756218e+38
2.6319752 0.42138892 2.1403847 -3.0221407e+38
2.6319637 0.41673565 2.1403847 -2.9685558e+38
2.6319523 0.41208231 2.1403847 -2.9149709e+38
2.6319408 0.40742898 2.1403847 -2.8348533e+38
2.6319296 0.40277565 2.1403847 -2.7416512e+38
2.6319182 0.39812237 2.1403847 -2.7016182e+38
2.6319067 0.39346904 2.1403847 -2.648501e+38
2.6318953 0.3888157 2.1403847 -2.6219162e+38
2.6318839 0.38416237 2.1403847 -2.5953836e+38
2.6148646 0.37639368 2.1341188 -2.6219683e+38
2.6148534 0.37177277 2.1341188 -2.6352604e+38
2.6148419 0.3671518 2.1341188 -2.6617929e+38
2.6148305 0.36253083 2.1341188 -2.6752409e+38
2.6148193 0.35790992 2.1341188 -2.6885334e+38
2.6148078 0.35328895 2.1341188 -2.7019295e+38
2.6147966 0.34866804 2.1341188 -2.7020336e+38
2.5977781 0.34115845 2.1278532 -2.7020336e+38
2.58076 0.33371353 2.1215873 -2.7154297e+38
2.547735 0.32367557 2.1094246 -2.7287222e+38
2.5317175 0.3165549 2.1035275 -2.7420666e+38
2.5316517 0.28977787 2.1035275 -2.9027771e+38
2.5476468 0.28772902 2.1094246 -2.9296211e+38
2.564642 0.28576821 2.1156902 -2.9565689e+38
2.5806367 0.28359562 2.1215873 -2.9831532e+38
2.5806255 0.27903944 2.1215873 -3.049251e+38
2.5976202 0.27691859 2.1278532 -3.1158679e+38
2.597609 0.27233005 2.1278532 -3.1424521e+38
2.5975976 0.2677415 2.1278532 -3.1558999e+38
2.5975864 0.26315296 2.1278532 -3.1959841e+38
2.5975752 0.25856441 2.1278532 -3.2226727e+38
2.5975637 0.25397587 2.1278532 -3.2360173e+38
2.5805473 0.24714617 2.1215873 -3.2359662e+38
2.5975413 0.2447987 2.1278532 -3.2625515e+38
2.5805249 0.23803382 2.1215873 -3.2755846e+38
2.5805137 0.23347767 2.1215873 -3.3152024e+38
2.5975075 0.23103304 2.1278532 -3.3552872e+38
2.5974963 0.22644447 2.1278532 -3.1959358e+38
2.5974851 0.22185592 2.1278532 -3.0233447e+38
2.5974736 0.21726735 2.1278532 -3.1963009e+38
2.5804577 0.21069677 2.1215873 -3.3700374e+38
2.5804465 0.20614056 2.1215873 nan
2.5804353 0.20158441 2.1215873 nan
2.5804241 0.1970282 2.1215873 nan
2.5804129 0.19247206 2.1215873 nan
2.5804017 0.18791588 2.1215873 -3.2886678e+38
2.5803905 0.1833597 2.1215873 -3.1694549e+38
2.5803792 0.17880352 2.1215873 -3.2089707e+38
2.5803683 0.17424734 2.1215873 -3.2509275e+38
2.5803571 0.16969116 2.1215873 nan
2.632581 0.66801482 2.1357312 nan
2.6495821 0.66845208 2.1419644 nan
2.6325583 0.65870821 2.1357312 nan
2.6325469 0.65405488 2.1357312 nan
2.6495478 0.65439504 2.1419644 nan
2.6495361 0.64970928 2.1419644 -3.2077099e+38
2.6495247 0.64502358 2.1419644 -2.9145496e+38
2.6495132 0.64033794 2.1419644 -2.6089334e+38
2.6324897 0.63078833 2.1357312 -2.6622608e+38
2.6324782 0.62613499 2.1357312 -2.7287222e+38
2.6324668 0.62148172 2.1357312 -2.715378e+38
2.6324553 0.61682838 2.1357312 -2.7020861e+38
2.6324439 0.61217505 2.1357312 -2.6755017e+38
2.6324325 0.60752171 2.1357312 -2.6622616e+38
2.632421 0.60286838 2.1357312 -2.6621579e+38
2.6494212 0.60285228 2.1419644 -2.662106e+38
2.6323981 0.59356177 2.1357312 -2.6752425e+38
2.6493981 0.59348094 2.1419644 -2.6884306e+38
2.6493866 0.58879519 2.1419644 -2.6751379e+38
2.649375 0.58410949 2.1419644 -2.6617415e+38
2.6493635 0.57942384 2.1419644 -2.6219681e+38
2.6493521 0.57473814 2.1419644 -2.5954357e+38
2.5983078 0.55682063 2.1232646 -2.5821953e+38
2.6323183 0.56098855 2.1357312 -2.5821953e+38
2.6152961 0.55198938 2.129498 -2.6087797e+38
2.6322954 0.55168188 2.1357312 -2.6486563e+38
2.6152732 0.5427475 2.129498 -2.6753445e+38
2.615262 0.53812659 2.129498 -2.7020334e+38
2.6152506 0.53350562 2.129498 -2.6886896e+38
2.6152391 0.52888465 2.129498 -2.6620014e+38
2.6152279 0.52426368 2.129498 -2.6618975e+38
2.6152165 0.51964283 2.129498 -2.6485014e+38
2.6321125 0.47722876 2.1357312 -2.5284512e+38
2.6321011 0.47257543 2.1357312 -2.5416914e+38
2.6490989 0.47165269 2.1419644 -2.5548804e+38
2.6490872 0.46696699 2.1419644 -2.608154e+38
2.6490757 0.46228135 2.1419644 -2.6612722e+38
2.6320553 0.45396215 2.1357312 -2.6614809e+38
2.6320438 0.44930881 2.1357312 -2.6619486e+38
2.6320324 0.44465554 2.1357312 -2.8885926e+38
2.6490297 0.44353855 2.1419644 -3.1145624e+38
2.6320095 0.43534887 2.1357312 -3.1150305e+38
2.6319981 0.43069553 2.1357312 -3.1153947e+38
2.6319866 0.4260422 2.1357312 -3.0755704e+38
2.6319752 0.42138892 2.1357312 -3.022193e+38
2.6319637 0.41673565 2.1357312 -2.9686079e+38
2.6319523 0.41208231 2.1357312 -2.9148672e+38
2.6319408 0.40742898 2.1357312 -2.8348014e+38
2.6319296 0.40277565 2.1357312 -2.76808e+38
2.6149101 0.39487743 2.129498 -2.7149105e+38
2.6319067 0.39346904 2.1357312 -2.6750336e+38
2.6148872 0.38563555 2.129498 -2.6352085e+38
2.614876 0.38101465 2.129498 -2.6086761e+38
2.6148646 0.37639368 2.129498 -2.6352606e+38
2.6148534 0.37177277 2.129498 -2.6485527e+38
2.6148419 0.3671518 2.129498 -2.6618965e+38
2.6148305 0.36253083 2.129498 -2.6752928e+38
2.6148193 0.35790992 2.129498 -2.688637e+38
2.6148078 0.35328895 2.129498 -2.7019293e+38
2.6147966 0.34866804 2.129498 -2.702033e+38
2.5977781 0.34115845 2.1232646 -2.7153256e+38
2.58076 0.33371353 2.1170311 -2.715378e+38
2.547735 0.32367557 2.1049314 -2.7286185e+38
2.5317175 0.3165549 2.0990646 -2.7419629e+38
2.5316517 0.28977787 2.0990646 -2.8893272e+38
2.5476468 0.28772902 2.1049314 -2.9161722e+38
2.564642 0.28576821 2.1111646 -2.9429651e+38
2.5806367 0.28359562 2.1170311 -2.9697056e+38
2.5806255 0.27903944 2.1170311 -3.0359593e+38
2.5976202 0.27691859 2.1232646 -3.1024724e+38
2.597609 0.27233005 2.1232646 -3.1157645e+38
2.5975976 0.2677415 2.1232646 -3.1291604e+38
2.5975864 0.26315296 2.1232646 -3.1694005e+38
2.5975752 0.25856441 2.1232646 -3.2094855e+38
2.5975637 0.25397587 2.1232646 -3.2226743e+38
2.5805473 0.24714617 2.1170311 -3.2492075e+38
2.5975413 0.2447987 2.1232646 -3.2755848e+38
2.5805249 0.23803382 2.1170311 -3.3019096e+38
2.5805137 0.23347767 2.1170311 -3.3153055e+38
2.5975075 0.23103304 2.1232646 -3.3288057e+38
2.5974963 0.22644447 2.1232646 -3.2359155e+38
2.5804801 0.2198091 2.1170311 -3.1430239e+38
2.5974736 0.21726735 2.1232646 -3.2494124e+38
2.5804577 0.21069677 2.1170311 -3.3556517e+38
2.5804465 0.20614056 2.1170311 nan
2.5804353 0.20158441 2.1170311 nan
2.5804241 0.1970282 2.1170311 nan
2.5804129 0.19247206 2.1170311 nan
2.5804017 0.18791588 2.1170311 -3.3960463e+38
2.5803905 0.1833597 2.1170311 -3.3824922e+38
2.5803792 0.17880352 2.1170311 nan
2.5803683 0.17424734 2.1170311 nan
2.5803571 0.16969116 2.1170311 nan
2.6495821 0.66845208 2.1372788 nan
2.6495707 0.66376638 2.1372788 nan
2.6495593 0.65908074 2.1372788 nan
2.6495478 0.65439504 2.1372788 nan
2.6495361 0.64970928 2.1372788 nan
2.6495247 0.64502358 2.1372788 -3.1798222e+38
2.6495132 0.64033794 2.1372788 -2.4358215e+38
2.6495016 0.63565224 2.1372788 -2.5560785e+38
2.6324782 0.62613499 2.1310778 -2.675553e+38
2.6324668 0.62148172 2.1310778 -2.6754492e+38
