# .PCD v0.7 - Point Cloud Data file format
VERSION 0.7
FIELDS x y z rgb
SIZE 4 4 4 4
TYPE F F F F
COUNT 1 1 1 1
WIDTH 1074
HEIGHT 1
VIEWPOINT 0 0 0 1 0 0 0
POINTS 1074
DATA ascii
1.8621248 -0.33913159 1.3562778 -2.1822293e+38
1.8621174 -0.34231821 1.3562778 -2.2087615e+38
1.8621101 -0.34550488 1.3562778 -2.2353463e+38
1.8621029 -0.34869155 1.3562778 -2.2486388e+38
1.8620956 -0.3518782 1.3562778 -2.2618791e+38
1.8620882 -0.35506487 1.3562778 -2.2751712e+38
1.8700778 -0.35963365 1.3568341 -2.2884117e+38
1.8620737 -0.36143818 1.3562778 -2.2885675e+38
1.8700632 -0.36603743 1.3568341 -2.2886194e+38
1.8700558 -0.36923933 1.3568341 -2.2887231e+38
1.8700485 -0.37244126 1.3568341 -2.2887231e+38
1.8790374 -0.37728378 1.3574598 -2.2888269e+38
1.87903 -0.38050282 1.3574598 -2.2888799e+38
1.8790226 -0.38372189 1.3574598 -2.3022249e+38
1.8870119 -0.38844493 1.3580159 -2.3156218e+38
1.8870044 -0.39167923 1.3580159 -2.3289668e+38
1.886997 -0.39491349 1.3580159 -2.3556552e+38
1.8869896 -0.39814776 1.3580159 -2.3824475e+38
1.8869822 -0.40138206 1.3580159 -2.4225322e+38
1.8869748 -0.40461633 1.3580159 -2.4093438e+38
1.8949636 -0.40944606 1.3585721 -2.409448e+38
1.8949561 -0.41269559 1.3585721 -2.4093446e+38
1.9039445 -0.41777435 1.3591979 -2.4092931e+38
1.9119333 -0.42268217 1.359754 -2.4225858e+38
1.9209217 -0.42782754 1.3603797 -2.4492229e+38
1.9209141 -0.43112659 1.3603797 -2.4492752e+38
1.9209065 -0.43442562 1.3603797 -2.4626723e+38
1.9208989 -0.43772465 1.3603797 -2.5292903e+38
1.9208914 -0.44102371 1.3603797 -2.5961156e+38
1.9298793 -0.44627196 1.3610054 -2.6627849e+38
1.9298718 -0.44958815 1.3610054 -2.7296061e+38
1.9388596 -0.45488778 1.3616312 -2.3701397e+38
1.938852 -0.45822111 1.3616312 -2.0101671e+38
1.9568352 -0.46558997 1.3628826 -3.1707586e+38
1.9658227 -0.47099251 1.3635083 nan
1.9748104 -0.47642931 1.3641341 nan
1.6756022 -0.13064148 1.3404464 -2.4604865e+38
1.6755958 -0.13347195 1.3404464 -2.902154e+38
1.6755892 -0.13630241 1.3404464 nan
1.6755828 -0.13913289 1.3404464 nan
1.6755762 -0.14196336 1.3404464 nan
1.6755698 -0.14479384 1.3404464 nan
1.6755632 -0.1476243 1.3404464 nan
1.6755568 -0.15045476 1.3404464 nan
1.669551 -0.15294576 1.3400407 nan
1.6695446 -0.15576482 1.3400407 nan
1.6625391 -0.15816113 1.3395673 nan
1.6625327 -0.16096684 1.3395673 nan
1.6624169 -0.21146956 1.3395673 nan
1.6624105 -0.21427527 1.3395673 nan
1.6694024 -0.21778367 1.3400407 nan
1.887338 -0.24613674 1.3547816 nan
1.8873307 -0.24937101 1.3547816 -2.8053556e+38
1.8873233 -0.25260529 1.3547816 -2.1017485e+38
1.8953137 -0.25671887 1.3553226 -2.1956783e+38
1.8873085 -0.25907385 1.3547816 -2.2752754e+38
1.887301 -0.26230812 1.3547816 -2.2619306e+38
1.8872936 -0.26554239 1.3547816 -2.2352416e+38
1.8872862 -0.26877668 1.3547816 -2.2086045e+38
1.8872788 -0.27201095 1.3547816 -2.1820196e+38
1.8872714 -0.27524522 1.3547816 -2.1953116e+38
1.8792661 -0.27749354 1.3542407 -2.2085514e+38
1.8792588 -0.28071257 1.3542407 -2.1952068e+38
1.8792514 -0.28393161 1.3542407 -2.1685703e+38
1.879244 -0.28715068 1.3542407 -2.1684664e+38
1.8792366 -0.29036969 1.3542407 -2.1551744e+38
1.8792292 -0.29358876 1.3542407 -2.168519e+38
1.8792218 -0.2968078 1.3542407 -2.1818634e+38
1.8792145 -0.30002683 1.3542407 -2.1818117e+38
1.8792071 -0.30324584 1.3542407 -2.1818636e+38
1.8791997 -0.30646491 1.3542407 -2.1818119e+38
1.8871897 -0.31082228 1.3547816 -2.1818642e+38
1.8871824 -0.31405658 1.3547816 -2.1818648e+38
1.8791776 -0.31612203 1.3542407 -2.1819167e+38
1.8791702 -0.31934106 1.3542407 -2.1952611e+38
1.8791628 -0.3225601 1.3542407 -2.1953131e+38
1.8791554 -0.32577917 1.3542407 -2.2086053e+38
1.8701513 -0.32761469 1.3536321 -2.2219495e+38
1.8701439 -0.33081657 1.3536321 -2.2219497e+38
1.8621393 -0.33275825 1.3530911 -2.2220536e+38
1.8621321 -0.33594492 1.3530911 -2.2088134e+38
1.8621248 -0.33913159 1.3530911 -2.195469e+38
1.8621174 -0.34231821 1.3530911 -2.235242e+38
1.8621101 -0.34550488 1.3530911 -2.2618787e+38
1.8621029 -0.34869155 1.3530911 -2.261827e+38
1.8620956 -0.3518782 1.3530911 -2.261827e+38
1.8620882 -0.35506487 1.3530911 -2.2751195e+38
1.8700778 -0.35963365 1.3536321 -2.2885673e+38
1.8700705 -0.36283556 1.3536321 -2.2887231e+38
1.8700632 -0.36603743 1.3536321 -2.2754308e+38
1.8700558 -0.36923933 1.3536321 -2.2887231e+38
1.8790448 -0.37406477 1.3542407 -2.2887752e+38
1.8790374 -0.37728378 1.3542407 -2.2888275e+38
1.8870267 -0.3819764 1.3547816 -2.2888801e+38
1.8870193 -0.38521069 1.3547816 -2.3021732e+38
1.8870119 -0.38844493 1.3547816 -2.3023297e+38
1.8870044 -0.39167923 1.3547816 -2.3157267e+38
1.886997 -0.39491349 1.3547816 -2.3292266e+38
1.8869896 -0.39814776 1.3547816 -2.3693112e+38
1.8869822 -0.40138206 1.3547816 -2.3959998e+38
1.894971 -0.40619656 1.3553226 -2.3962077e+38
1.8949636 -0.40944606 1.3553226 -2.3961558e+38
1.8949561 -0.41269559 1.3553226 -2.4093963e+38
1.9039445 -0.41777435 1.3559312 -2.4226369e+38
1.9119333 -0.42268217 1.3564721 -2.4491699e+38
1.9209217 -0.42782754 1.3570807 -2.4625665e+38
1.9209141 -0.43112659 1.3570807 -2.4758591e+38
1.9209065 -0.43442562 1.3570807 -2.4760161e+38
1.9208989 -0.43772465 1.3570807 -2.5425828e+38
1.9298869 -0.44295576 1.3576893 -2.6092525e+38
1.9298793 -0.44627196 1.3576893 -2.7290913e+38
1.9298718 -0.44958815 1.3576893 -2.8358419e+38
1.9388596 -0.45488778 1.3582978 -2.3572129e+38
1.938852 -0.45822111 1.3582978 -1.8786489e+38
1.9568352 -0.46558997 1.359515 -3.2666638e+38
1.9658227 -0.47099251 1.3601235 nan
1.9748104 -0.47642931 1.3607321 nan
1.6756022 -0.13064148 1.337616 -2.6480298e+38
1.6815952 -0.13373142 1.3380102 -3.3798962e+38
1.6755892 -0.13630241 1.337616 nan
1.6755828 -0.13913289 1.337616 nan
1.6815757 -0.14225711 1.3380102 nan
1.6755698 -0.14479384 1.337616 nan
1.6755632 -0.1476243 1.337616 nan
1.6755568 -0.15045476 1.337616 nan
1.669551 -0.15294576 1.3372216 nan
1.6695446 -0.15576482 1.3372216 nan
1.6625391 -0.15816113 1.3367616 nan
1.6625327 -0.16096684 1.3367616 nan
1.6624298 -0.20585816 1.3367616 nan
1.6624234 -0.20866385 1.3367616 nan
1.6624169 -0.21146956 1.3367616 nan
1.6624105 -0.21427527 1.3367616 nan
1.6694024 -0.21778367 1.3372216 nan
1.8953362 -0.24697031 1.3520731 -3.3683641e+38
1.8873307 -0.24937101 1.3515474 -2.7403992e+38
1.8953212 -0.25346935 1.3520731 -2.1149882e+38
1.8953137 -0.25671887 1.3520731 -2.195366e+38
1.8953063 -0.25996837 1.3520731 -2.2752231e+38
1.887301 -0.26230812 1.3515474 -2.2486381e+38
1.8872936 -0.26554239 1.3515474 -2.2219493e+38
1.8872862 -0.26877668 1.3515474 -2.2086564e+38
1.8872788 -0.27201095 1.3515474 -2.1953116e+38
1.8872714 -0.27524522 1.3515474 -2.1952589e+38
1.8792661 -0.27749354 1.3510216 -2.1952587e+38
1.8792588 -0.28071257 1.3510216 -2.1818624e+38
1.8792514 -0.28393161 1.3510216 -2.168466e+38
1.879244 -0.28715068 1.3510216 -2.1551734e+38
1.8792366 -0.29036969 1.3510216 -2.155174e+38
1.8792292 -0.29358876 1.3510216 -2.1685188e+38
1.8792218 -0.2968078 1.3510216 -2.1818113e+38
1.8792145 -0.30002683 1.3510216 -2.1818113e+38
1.8792071 -0.30324584 1.3510216 -2.1818634e+38
1.8791997 -0.30646491 1.3510216 -2.1685713e+38
1.8871897 -0.31082228 1.3515474 -2.1685719e+38
1.8871824 -0.31405658 1.3515474 -2.1686244e+38
1.887175 -0.31729084 1.3515474 -2.1686766e+38
1.8791702 -0.31934106 1.3510216 -2.1820208e+38
1.8791628 -0.3225601 1.3510216 -2.1820727e+38
1.8791554 -0.32577917 1.3510216 -2.195365e+38
1.8701513 -0.32761469 1.3504303 -2.2087094e+38
1.8701439 -0.33081657 1.3504303 -2.2087094e+38
1.8621393 -0.33275825 1.3499045 -2.2087611e+38
1.8621321 -0.33594492 1.3499045 -2.208709e+38
1.8621248 -0.33913159 1.3499045 -2.2086571e+38
1.8621174 -0.34231821 1.3499045 -2.2352935e+38
1.8621101 -0.34550488 1.3499045 -2.2618783e+38
1.8621029 -0.34869155 1.3499045 -2.2618266e+38
1.8620956 -0.3518782 1.3499045 -2.261827e+38
1.8620882 -0.35506487 1.3499045 -2.261931e+38
1.8700778 -0.35963365 1.3504303 -2.2620866e+38
1.8700705 -0.36283556 1.3504303 -2.2621383e+38
1.8700632 -0.36603743 1.3504303 -2.2754308e+38
1.8790522 -0.37084571 1.3510216 -2.2754308e+38
1.8790448 -0.37406477 1.3510216 -2.2754833e+38
1.8870341 -0.3787421 1.3515474 -2.2755357e+38
1.8870267 -0.3819764 1.3515474 -2.2756401e+38
1.8870193 -0.38521069 1.3515474 -2.2889328e+38
1.8870119 -0.38844493 1.3515474 -2.3023297e+38
1.8870044 -0.39167923 1.3515474 -2.3157786e+38
1.886997 -0.39491349 1.3515474 -2.3292788e+38
1.8869896 -0.39814776 1.3515474 -2.3693114e+38
1.8869822 -0.40138206 1.3515474 -2.4092923e+38
1.894971 -0.40619656 1.3520731 -2.4093444e+38
1.8949636 -0.40944606 1.3520731 -2.4226367e+38
1.8949561 -0.41269559 1.3520731 -2.4359288e+38
1.9039445 -0.41777435 1.3526645 -2.4491693e+38
1.9119333 -0.42268217 1.3531902 -2.4625135e+38
1.9209217 -0.42782754 1.3537816 -2.47591e+38
1.9209141 -0.43112659 1.3537816 -2.4892547e+38
1.9209065 -0.43442562 1.3537816 -2.5027043e+38
1.9298946 -0.4396396 1.3543731 -2.5558751e+38
1.9298869 -0.44295576 1.3543731 -2.6090452e+38
1.9298793 -0.44627196 1.3543731 -2.6761307e+38
1.9388672 -0.45155448 1.3549645 -2.7565569e+38
1.947855 -0.45687127 1.3555559 -2.3559686e+38
1.9568429 -0.4622224 1.3561473 -1.9673359e+38
1.9568352 -0.46558997 1.3561473 nan
1.9658227 -0.47099251 1.3567388 nan
1.6755958 -0.13347195 1.3347855 nan
1.6755892 -0.13630241 1.3347855 nan
1.6755828 -0.13913289 1.3347855 nan
1.6815757 -0.14225711 1.3351684 nan
1.6815691 -0.14509901 1.3351684 nan
1.6755632 -0.1476243 1.3347855 nan
1.6755568 -0.15045476 1.3347855 nan
1.6755503 -0.15328524 1.3347855 nan
1.6755438 -0.15611571 1.3347855 nan
1.669538 -0.15858385 1.3344026 nan
1.6625327 -0.16096684 1.3339559 nan
1.6624362 -0.20305243 1.3339559 nan
1.6624298 -0.20585816 1.3339559 nan
1.6624234 -0.20866385 1.3339559 nan
1.6694152 -0.2121456 1.3344026 nan
1.6694088 -0.21496464 1.3344026 nan
1.6694024 -0.21778367 1.3344026 nan
1.8953362 -0.24697031 1.3488235 -3.2209002e+38
1.8953286 -0.25021982 1.3488235 -2.6728462e+38
1.8953212 -0.25346935 1.3488235 -2.128487e+38
1.8953137 -0.25671887 1.3488235 -2.2089171e+38
1.8953063 -0.25996837 1.3488235 -2.2752742e+38
1.887301 -0.26230812 1.3483131 -2.2486373e+38
1.8872936 -0.26554239 1.3483131 -2.2087082e+38
1.8872862 -0.26877668 1.3483131 -2.2086558e+38
1.8872788 -0.27201095 1.3483131 -2.1952593e+38
1.8792735 -0.27427453 1.3478026 -2.1818628e+38
1.8792661 -0.27749354 1.3478026 -2.1685182e+38
1.8792588 -0.28071257 1.3478026 -2.1684141e+38
1.8792514 -0.28393161 1.3478026 -2.168466e+38
1.879244 -0.28715068 1.3478026 -2.1551738e+38
1.8792366 -0.29036969 1.3478026 -2.1418817e+38
1.8792292 -0.29358876 1.3478026 -2.1551742e+38
1.8792218 -0.2968078 1.3478026 -2.1685184e+38
1.8792145 -0.30002683 1.3478026 -2.1685186e+38
1.8792071 -0.30324584 1.3478026 -2.1685711e+38
1.8791997 -0.30646491 1.3478026 -2.1552277e+38
1.8871897 -0.31082228 1.3483131 -2.1420397e+38
1.8871824 -0.31405658 1.3483131 -2.1553843e+38
1.887175 -0.31729084 1.3483131 -2.1553841e+38
1.8791702 -0.31934106 1.3478026 -2.1687283e+38
1.8791628 -0.3225601 1.3478026 -2.16878e+38
1.8791554 -0.32577917 1.3478026 -2.1820723e+38
1.8701513 -0.32761469 1.3472283 -2.1821242e+38
1.8701439 -0.33081657 1.3472283 -2.1821242e+38
1.8621393 -0.33275825 1.3467178 -2.1821244e+38
1.8621321 -0.33594492 1.3467178 -2.2086573e+38
1.8621248 -0.33913159 1.3467178 -2.2220015e+38
1.8621174 -0.34231821 1.3467178 -2.2485862e+38
1.8621101 -0.34550488 1.3467178 -2.2617749e+38
1.8621029 -0.34869155 1.3467178 -2.2616714e+38
1.8620956 -0.3518782 1.3467178 -2.2485351e+38
1.8700851 -0.35643175 1.3472283 -2.2353986e+38
1.8700778 -0.35963365 1.3472283 -2.22221e+38
1.8700705 -0.36283556 1.3472283 -2.2487943e+38
1.8790596 -0.36762667 1.3478026 -2.2621385e+38
1.8790522 -0.37084571 1.3478026 -2.2621383e+38
1.8870414 -0.37550783 1.3483131 -2.2488986e+38
1.8870341 -0.3787421 1.3483131 -2.2621913e+38
1.8870267 -0.3819764 1.3483131 -2.2623476e+38
1.8870193 -0.38521069 1.3483131 -2.2756403e+38
1.8870119 -0.38844493 1.3483131 -2.2890892e+38
1.8870044 -0.39167923 1.3483131 -2.3157784e+38
1.886997 -0.39491349 1.3483131 -2.3292268e+38
1.8869896 -0.39814776 1.3483131 -2.3692599e+38
1.8869822 -0.40138206 1.3483131 -2.4092405e+38
1.894971 -0.40619656 1.3488235 -2.435877e+38
1.8949636 -0.40944606 1.3488235 -2.4491693e+38
1.8949561 -0.41269559 1.3488235 -2.4625133e+38
1.8949487 -0.41594511 1.3488235 -2.4758056e+38
1.903937 -0.42104098 1.3493978 -2.4758058e+38
1.9209217 -0.42782754 1.3504826 -2.47591e+38
1.9209141 -0.43112659 1.3504826 -2.5025471e+38
1.9209065 -0.43442562 1.3504826 -2.5159968e+38
1.9298946 -0.4396396 1.3510568 -2.5558753e+38
1.9298869 -0.44295576 1.3510568 -2.5960651e+38
1.9388748 -0.44822115 1.3516312 -2.6363068e+38
1.9388672 -0.45155448 1.3516312 -2.6760755e+38
1.947855 -0.45687127 1.3522054 -2.3693625e+38
1.9568429 -0.4622224 1.3527797 -2.0512974e+38
1.9568352 -0.46558997 1.3527797 nan
1.9658227 -0.47099251 1.353354 nan
1.6755892 -0.13630241 1.331955 nan
1.6755828 -0.13913289 1.331955 nan
1.6815757 -0.14225711 1.3323264 nan
1.6815691 -0.14509901 1.3323264 nan
1.6755632 -0.1476243 1.331955 nan
1.6755568 -0.15045476 1.331955 nan
1.6755503 -0.15328524 1.331955 nan
1.6755438 -0.15611571 1.331955 nan
1.669538 -0.15858385 1.3315835 nan
1.6625327 -0.16096684 1.3311502 nan
1.6624427 -0.20024674 1.3311502 nan
1.6694347 -0.20368849 1.3315835 nan
1.6694282 -0.20650752 1.3315835 nan
1.6624234 -0.20866385 1.3311502 nan
1.6624169 -0.21146956 1.3311502 nan
1.8953435 -0.2437208 1.345574 -3.2486818e+38
1.8953362 -0.24697031 1.345574 -2.5562836e+38
1.8953286 -0.25021982 1.345574 -2.3815571e+38
1.8953212 -0.25346935 1.345574 -2.2083954e+38
1.8953137 -0.25671887 1.345574 -2.2220526e+38
1.8953063 -0.25996837 1.345574 -2.2486367e+38
1.887301 -0.26230812 1.3450788 -2.2220518e+38
1.8872936 -0.26554239 1.3450788 -2.1954151e+38
1.8872862 -0.26877668 1.3450788 -2.1820187e+38
1.8872788 -0.27201095 1.3450788 -2.1819147e+38
1.8792735 -0.27427453 1.3445835 -2.1552261e+38
1.8792661 -0.27749354 1.3445835 -2.1418298e+38
1.8792588 -0.28071257 1.3445835 -2.1418813e+38
1.8792514 -0.28393161 1.3445835 -2.1551218e+38
1.879244 -0.28715068 1.3445835 -2.1285894e+38
1.8792366 -0.29036969 1.3445835 -2.1152969e+38
1.8792292 -0.29358876 1.3445835 -2.1418813e+38
1.8792218 -0.2968078 1.3445835 -2.168466e+38
1.8792145 -0.30002683 1.3445835 -2.1419334e+38
1.8792071 -0.30324584 1.3445835 -2.1286943e+38
1.8791997 -0.30646491 1.3445835 -2.1286955e+38
1.8871897 -0.31082228 1.3450788 -2.1420399e+38
1.8871824 -0.31405658 1.3450788 -2.1420401e+38
1.8791776 -0.31612203 1.3445835 -2.1552802e+38
1.8791702 -0.31934106 1.3445835 -2.1686762e+38
1.8791628 -0.3225601 1.3445835 -2.1687798e+38
1.8791554 -0.32577917 1.3445835 -2.1820717e+38
1.8701513 -0.32761469 1.3440264 -2.1821236e+38
1.8701439 -0.33081657 1.3440264 -2.1954157e+38
1.8621393 -0.33275825 1.3435311 -2.2220011e+38
1.8621321 -0.33594492 1.3435311 -2.2220536e+38
1.8621248 -0.33913159 1.3435311 -2.235398e+38
1.8621174 -0.34231821 1.3435311 -2.2485345e+38
1.8621101 -0.34550488 1.3435311 -2.2617235e+38
1.8621029 -0.34869155 1.3435311 -2.2351913e+38
1.8700925 -0.35322985 1.3440264 -2.221899e+38
1.8700851 -0.35643175 1.3440264 -2.2088142e+38
1.8700778 -0.35963365 1.3440264 -2.2089179e+38
1.8700705 -0.36283556 1.3440264 -2.22221e+38
1.8790596 -0.36762667 1.3445835 -2.2488462e+38
1.8790522 -0.37084571 1.3445835 -2.2488458e+38
1.8870414 -0.37550783 1.3450788 -2.2622426e+38
1.8870341 -0.3787421 1.3450788 -2.2622949e+38
1.8870267 -0.3819764 1.3450788 -2.2756916e+38
1.8870193 -0.38521069 1.3450788 -2.275692e+38
1.8870119 -0.38844493 1.3450788 -2.2891928e+38
1.8870044 -0.39167923 1.3450788 -2.3157782e+38
1.886997 -0.39491349 1.3450788 -2.3424674e+38
1.8869896 -0.39814776 1.3450788 -2.3692083e+38
1.8949785 -0.40294704 1.345574 -2.4091888e+38
1.894971 -0.40619656 1.345574 -2.4358251e+38
1.8949636 -0.40944606 1.345574 -2.4623577e+38
1.8949561 -0.41269559 1.345574 -2.4757537e+38
1.9039445 -0.41777435 1.3461312 -2.4890459e+38
1.903937 -0.42104098 1.3461312 -2.4890459e+38
1.9119258 -0.42596406 1.3466264 -2.5024427e+38
1.9209141 -0.43112659 1.3471836 -2.5158394e+38
1.9299022 -0.4363234 1.3477407 -2.5293931e+38
1.9298946 -0.4396396 1.3477407 -2.5693754e+38
1.9298869 -0.44295576 1.3477407 -2.6228579e+38
1.9388748 -0.44822115 1.3482978 -2.6893731e+38
1.9478627 -0.4535208 1.348855 -2.7692766e+38
1.9568506 -0.45885476 1.3494121 -2.5287116e+38
1.9568429 -0.4622224 1.3494121 -2.2881201e+38
1.9568352 -0.46558997 1.3494121 nan
1.6815691 -0.14509901 1.3294845 nan
1.6815627 -0.1479409 1.3294845 nan
1.6755568 -0.15045476 1.3291245 nan
1.6755503 -0.15328524 1.3291245 nan
1.6755438 -0.15611571 1.3291245 nan
1.669538 -0.15858385 1.3287644 nan
1.6625327 -0.16096684 1.3283445 nan
1.6625262 -0.16377255 1.3283445 nan
1.6624556 -0.19463532 1.3283445 nan
1.6624491 -0.19744103 1.3283445 nan
1.6694411 -0.20086944 1.3287644 nan
1.6694347 -0.20368849 1.3287644 nan
1.6694282 -0.20650752 1.3287644 nan
1.6624234 -0.20866385 1.3283445 nan
1.9123472 -0.24217786 1.3433444 nan
1.9043415 -0.24464142 1.3428645 -2.9148161e+38
1.9043339 -0.24790807 1.3428645 -1.8771839e+38
1.8953286 -0.25021982 1.3423245 -2.0753704e+38
1.8953212 -0.25346935 1.3423245 -2.275118e+38
1.8953137 -0.25671887 1.3423245 -2.2487414e+38
1.8953063 -0.25996837 1.3423245 -2.2221043e+38
1.887301 -0.26230812 1.3418444 -2.2087597e+38
1.8872936 -0.26554239 1.3418444 -2.1820187e+38
1.8872862 -0.26877668 1.3418444 -2.1686222e+38
1.8872788 -0.27201095 1.3418444 -2.1552778e+38
1.8792735 -0.27427453 1.3413645 -2.1418817e+38
1.8792661 -0.27749354 1.3413645 -2.1152969e+38
1.8792588 -0.28071257 1.3413645 -2.1286411e+38
1.8792514 -0.28393161 1.3413645 -2.1285894e+38
1.879244 -0.28715068 1.3413645 -2.1152971e+38
1.8792366 -0.29036969 1.3413645 -2.0887128e+38
1.8792292 -0.29358876 1.3413645 -2.1285898e+38
1.8792218 -0.2968078 1.3413645 -2.1551744e+38
1.8792145 -0.30002683 1.3413645 -2.1285898e+38
1.8792071 -0.30324584 1.3413645 -2.0887142e+38
1.8791997 -0.30646491 1.3413645 -2.1152998e+38
1.8871897 -0.31082228 1.3418444 -2.1286959e+38
1.8871824 -0.31405658 1.3418444 -2.1419362e+38
1.8791776 -0.31612203 1.3413645 -2.1552802e+38
1.8791702 -0.31934106 1.3413645 -2.1686242e+38
1.8791628 -0.3225601 1.3413645 -2.1687277e+38
1.8791554 -0.32577917 1.3413645 -2.1820715e+38
1.879148 -0.32899818 1.3413645 -2.1821234e+38
1.8701439 -0.33081657 1.3408245 -2.2220524e+38
1.8621393 -0.33275825 1.3403444 -2.2486373e+38
1.8621321 -0.33594492 1.3403444 -2.2486377e+38
1.8621248 -0.33913159 1.3403444 -2.2352937e+38
1.8621174 -0.34231821 1.3403444 -2.2484304e+38
1.8621101 -0.34550488 1.3403444 -2.2485347e+38
1.8621029 -0.34869155 1.3403444 -2.2220544e+38
1.8620956 -0.3518782 1.3403444 -2.1954694e+38
1.8700851 -0.35643175 1.3408245 -2.1955211e+38
1.8700778 -0.35963365 1.3408245 -2.1822806e+38
1.8790668 -0.36440763 1.3413645 -2.2089171e+38
1.8790596 -0.36762667 1.3413645 -2.2222094e+38
1.8790522 -0.37084571 1.3413645 -2.2487939e+38
1.8870414 -0.37550783 1.3418444 -2.2621902e+38
1.8870341 -0.3787421 1.3418444 -2.2755348e+38
1.8870267 -0.3819764 1.3418444 -2.2755874e+38
1.8870193 -0.38521069 1.3418444 -2.2888803e+38
1.8870119 -0.38844493 1.3418444 -2.2890368e+38
1.8950008 -0.39319849 1.3423245 -2.3156741e+38
1.8949934 -0.39644802 1.3423245 -2.342467e+38
1.8869896 -0.39814776 1.3418444 -2.3691562e+38
1.8949785 -0.40294704 1.3423245 -2.3958444e+38
1.894971 -0.40619656 1.3423245 -2.4357732e+38
1.8949636 -0.40944606 1.3423245 -2.4623577e+38
1.8949561 -0.41269559 1.3423245 -2.4757017e+38
1.8949487 -0.41594511 1.3423245 -2.4889421e+38
1.903937 -0.42104098 1.3428645 -2.5021303e+38
1.9119258 -0.42596406 1.3433444 -2.5156307e+38
1.9209141 -0.43112659 1.3438845 -2.5290274e+38
1.9299022 -0.4363234 1.3444245 -2.5293406e+38
1.9388901 -0.44155452 1.3449645 -2.5827192e+38
1.9388825 -0.44488782 1.3449645 -2.6360453e+38
1.9478704 -0.45017034 1.3455045 -2.7423848e+38
1.9568583 -0.45548716 1.3460445 -2.8483561e+38
1.9568506 -0.45885476 1.3460445 -2.6880663e+38
1.9568429 -0.4622224 1.3460445 -2.5187118e+38
1.9568352 -0.46558997 1.3460445 nan
1.6885684 -0.14545506 1.3270493 -3.1009577e+38
1.6815627 -0.1479409 1.3266426 nan
1.6815561 -0.15078279 1.3266426 nan
1.6815495 -0.1536247 1.3266426 nan
1.6815431 -0.1564666 1.3266426 nan
1.6755373 -0.15894617 1.3262941 nan
1.6695316 -0.16140288 1.3259455 nan
1.6625262 -0.16377255 1.3255388 nan
1.6625198 -0.16657826 1.3255388 nan
1.6625134 -0.16938396 1.3255388 nan
1.6624749 -0.1862182 1.3255388 nan
1.6624684 -0.18902391 1.3255388 nan
1.662462 -0.19182962 1.3255388 nan
1.6624556 -0.19463532 1.3255388 nan
1.6694475 -0.19805041 1.3259455 nan
1.67544 -0.20140319 1.3262941 nan
1.6754335 -0.20423368 1.3262941 nan
1.675427 -0.20706414 1.3262941 nan
1.9213603 -0.23648328 1.3405855 nan
1.9123547 -0.23889597 1.3400626 nan
1.9213452 -0.24308136 1.3405855 nan
1.9043415 -0.24464142 1.3395978 -2.8482499e+38
1.9043339 -0.24790807 1.3395978 -1.823185e+38
1.8953286 -0.25021982 1.339075 -2.0359637e+38
1.8953212 -0.25346935 1.339075 -2.2622428e+38
1.8953137 -0.25671887 1.339075 -2.2221051e+38
1.8953063 -0.25996837 1.339075 -2.1821757e+38
1.887301 -0.26230812 1.3386102 -2.1820713e+38
1.8872936 -0.26554239 1.3386102 -2.1952072e+38
1.8872862 -0.26877668 1.3386102 -2.1685699e+38
1.8872788 -0.27201095 1.3386102 -2.1552257e+38
1.8792735 -0.27427453 1.3381455 -2.1419332e+38
1.8792661 -0.27749354 1.3381455 -2.1286411e+38
1.8792588 -0.28071257 1.3381455 -2.1285894e+38
1.8792514 -0.28393161 1.3381455 -2.1152971e+38
1.879244 -0.28715068 1.3381455 -2.1020048e+38
1.8792366 -0.29036969 1.3381455 -2.0887132e+38
1.8792292 -0.29358876 1.3381455 -2.1020059e+38
1.8792218 -0.2968078 1.3381455 -2.1285904e+38
1.8792145 -0.30002683 1.3381455 -2.1020059e+38
1.8792071 -0.30324584 1.3381455 -2.0886627e+38
1.8791997 -0.30646491 1.3381455 -2.1153521e+38
1.8871897 -0.31082228 1.3386102 -2.1419884e+38
1.8871824 -0.31405658 1.3386102 -2.1552802e+38
1.8791776 -0.31612203 1.3381455 -2.1686244e+38
1.8791702 -0.31934106 1.3381455 -2.1819165e+38
1.8791628 -0.3225601 1.3381455 -2.2086043e+38
1.8791554 -0.32577917 1.3381455 -2.2086556e+38
1.879148 -0.32899818 1.3381455 -2.2219483e+38
1.8701439 -0.33081657 1.3376226 -2.248585e+38
1.8621393 -0.33275825 1.3371578 -2.2618775e+38
1.8621321 -0.33594492 1.3371578 -2.2618256e+38
1.8621248 -0.33913159 1.3371578 -2.2484818e+38
1.8621174 -0.34231821 1.3371578 -2.248482e+38
1.8621101 -0.34550488 1.3371578 -2.2485343e+38
1.8621029 -0.34869155 1.3371578 -2.2353461e+38
1.8620956 -0.3518782 1.3371578 -2.2220534e+38
1.8700851 -0.35643175 1.3376226 -2.1955201e+38
1.8700778 -0.35963365 1.3376226 -2.18228e+38
1.8790668 -0.36440763 1.3381455 -2.2088645e+38
1.8790596 -0.36762667 1.3381455 -2.2355014e+38
1.8790522 -0.37084571 1.3381455 -2.2488458e+38
1.8870414 -0.37550783 1.3386102 -2.2621381e+38
1.8870341 -0.3787421 1.3386102 -2.262242e+38
1.8870267 -0.3819764 1.3386102 -2.275587e+38
1.8870193 -0.38521069 1.3386102 -2.288932e+38
1.8870119 -0.38844493 1.3386102 -2.3023289e+38
1.8870044 -0.39167923 1.3386102 -2.3157257e+38
1.8949934 -0.39644802 1.339075 -2.3424668e+38
1.8869896 -0.39814776 1.3386102 -2.3824481e+38
1.8949785 -0.40294704 1.339075 -2.422429e+38
1.894971 -0.40619656 1.339075 -2.4623577e+38
1.8949636 -0.40944606 1.339075 -2.5022346e+38
1.8949561 -0.41269559 1.339075 -2.5022344e+38
1.9039445 -0.41777435 1.3395978 -2.5154745e+38
1.903937 -0.42104098 1.3395978 -2.5287666e+38
1.9119258 -0.42596406 1.3400626 -2.542267e+38
1.9209141 -0.43112659 1.3405855 -2.5557152e+38
1.9388978 -0.43822116 1.3416312 -2.569269e+38
1.9658771 -0.44729924 1.3431997 -2.6225957e+38
1.9478781 -0.44681987 1.342154 -2.6627327e+38
1.956866 -0.45211956 1.3426769 -2.6491815e+38
1.9568583 -0.45548716 1.3426769 -2.6354726e+38
1.9568506 -0.45885476 1.3426769 -3.0094206e+38
1.6885749 -0.14259982 1.324194 -2.993678e+38
1.6885684 -0.14545506 1.324194 -2.5696841e+38
1.6885618 -0.14831027 1.324194 -3.3171763e+38
1.6815561 -0.15078279 1.3238007 nan
1.6815495 -0.1536247 1.3238007 nan
1.6815431 -0.1564666 1.3238007 nan
1.6755373 -0.15894617 1.3234636 nan
1.6695316 -0.16140288 1.3231264 nan
1.6695251 -0.16422193 1.3231264 nan
1.6625198 -0.16657826 1.322733 nan
1.6625134 -0.16938396 1.322733 nan
1.6624813 -0.18341249 1.322733 nan
1.6694734 -0.18677425 1.3231264 nan
1.669467 -0.18959329 1.3231264 nan
1.6754595 -0.1929118 1.3234636 nan
1.6754529 -0.19574226 1.3234636 nan
1.6814454 -0.19909507 1.3238007 nan
1.921383 -0.22658616 1.3372864 nan
1.9213754 -0.22988519 1.3372864 nan
1.9213679 -0.23318425 1.3372864 nan
1.9213603 -0.23648328 1.3372864 nan
1.9213527 -0.23978232 1.3372864 nan
1.9213452 -0.24308136 1.3372864 nan
1.9123396 -0.24545977 1.3367807 -2.7790325e+38
1.9043339 -0.24790807 1.3363311 -1.7694425e+38
1.9043264 -0.25117475 1.3363311 -2.0095347e+38
1.8953212 -0.25346935 1.3358254 -2.2353988e+38
1.8953137 -0.25671887 1.3358254 -2.1953135e+38
1.8953063 -0.25996837 1.3358254 -2.1421435e+38
1.887301 -0.26230812 1.3353759 -2.1686236e+38
1.8872936 -0.26554239 1.3353759 -2.1951555e+38
1.8872862 -0.26877668 1.3353759 -2.1818104e+38
1.8872788 -0.27201095 1.3353759 -2.155174e+38
1.8792735 -0.27427453 1.3349264 -2.1552259e+38
1.8792661 -0.27749354 1.3349264 -2.1418819e+38
1.8792588 -0.28071257 1.3349264 -2.1285379e+38
1.8792514 -0.28393161 1.3349264 -2.1019537e+38
1.879244 -0.28715068 1.3349264 -2.1019541e+38
1.8792366 -0.29036969 1.3349264 -2.088714e+38
1.8792292 -0.29358876 1.3349264 -2.0887663e+38
1.8792218 -0.2968078 1.3349264 -2.0887663e+38
1.8792145 -0.30002683 1.3349264 -2.0887663e+38
1.8792071 -0.30324584 1.3349264 -2.0887665e+38
1.8791997 -0.30646491 1.3349264 -2.1153515e+38
1.8871897 -0.31082228 1.3353759 -2.141988e+38
1.8871824 -0.31405658 1.3353759 -2.1552804e+38
1.8791776 -0.31612203 1.3349264 -2.1686246e+38
1.8791702 -0.31934106 1.3349264 -2.2084496e+38
1.8791628 -0.3225601 1.3349264 -2.2351376e+38
1.8791554 -0.32577917 1.3349264 -2.2485335e+38
1.879148 -0.32899818 1.3349264 -2.2618258e+38
1.8701439 -0.33081657 1.3344207 -2.275118e+38
1.8621393 -0.33275825 1.3339711 -2.2750659e+38
1.8621321 -0.33594492 1.3339711 -2.2750657e+38
1.8621248 -0.33913159 1.3339711 -2.2617736e+38
1.8621174 -0.34231821 1.3339711 -2.261774e+38
1.8621101 -0.34550488 1.3339711 -2.2485339e+38
1.8621029 -0.34869155 1.3339711 -2.2486379e+38
1.8620956 -0.3518782 1.3339711 -2.2486377e+38
1.8700851 -0.35643175 1.3344207 -2.2087607e+38
1.8700778 -0.35963365 1.3344207 -2.1689362e+38
1.8790668 -0.36440763 1.3349264 -2.2088132e+38
1.8790596 -0.36762667 1.3349264 -2.235502e+38
1.8790522 -0.37084571 1.3349264 -2.2488464e+38
1.8870414 -0.37550783 1.3353759 -2.2488984e+38
1.8870341 -0.3787421 1.3353759 -2.2622424e+38
1.8870267 -0.3819764 1.3353759 -2.262347e+38
1.8870193 -0.38521069 1.3353759 -2.2889322e+38
1.8870119 -0.38844493 1.3353759 -2.3023808e+38
1.8950008 -0.39319849 1.3358254 -2.3290701e+38
1.8949934 -0.39644802 1.3358254 -2.3424668e+38
1.8949859 -0.39969751 1.3358254 -2.3956887e+38
1.8949785 -0.40294704 1.3358254 -2.4489614e+38
1.894971 -0.40619656 1.3358254 -2.4888902e+38
1.8949636 -0.40944606 1.3358254 -2.5288187e+38
1.8949561 -0.41269559 1.3358254 -2.542111e+38
1.9039445 -0.41777435 1.3363311 -2.5420072e+38
1.903937 -0.42104098 1.3363311 -2.5551956e+38
1.9119258 -0.42596406 1.3367807 -2.5555073e+38
1.9209141 -0.43112659 1.3372864 -2.5822479e+38
1.9388978 -0.43822116 1.3382978 -2.6089898e+38
1.9478858 -0.44346938 1.3388035 -2.6489721e+38
1.9478781 -0.44681987 1.3388035 -2.6891078e+38
1.956866 -0.45211956 1.3393092 -2.5560803e+38
1.9568583 -0.45548716 1.3393092 -2.4238386e+38
1.9658461 -0.46083826 1.339815 -3.3434524e+38
1.6955675 -0.14581111 1.3217188 -2.4886346e+38
1.6885618 -0.14831027 1.3213388 -3.3032113e+38
1.6885552 -0.15116552 1.3213388 nan
1.6885487 -0.15402074 1.3213388 nan
1.6885421 -0.15687597 1.3213388 nan
1.6815366 -0.15930849 1.3209587 nan
1.6755308 -0.16177663 1.3206331 nan
1.6755244 -0.16460711 1.3206331 nan
1.6625198 -0.16657826 1.3199273 nan
1.6625134 -0.16938396 1.3199273 nan
1.6624877 -0.18060678 1.3199273 nan
1.6754789 -0.18442039 1.3206331 nan
1.6814715 -0.18772747 1.3209587 nan
1.6814649 -0.19056937 1.3209587 nan
1.688457 -0.19399399 1.3213388 nan
1.9303963 -0.22077158 1.3344759 nan
1.9213905 -0.22328714 1.3339874 nan
1.921383 -0.22658616 1.3339874 nan
1.9213754 -0.22988519 1.3339874 nan
1.9213679 -0.23318425 1.3339874 nan
1.9213603 -0.23648328 1.3339874 nan
1.9213527 -0.23978232 1.3339874 nan
1.9213452 -0.24308136 1.3339874 -3.0364708e+38
1.9123396 -0.24545977 1.3334987 -2.5144807e+38
1.9043339 -0.24790807 1.3330644 -2.0079224e+38
1.9043264 -0.25117475 1.3330644 -2.1154052e+38
1.9043189 -0.25444138 1.3330644 -2.2219507e+38
1.8953137 -0.25671887 1.3325759 -2.1820735e+38
1.8953063 -0.25996837 1.3325759 -2.1554364e+38
1.887301 -0.26230812 1.3321416 -2.1819163e+38
1.8872936 -0.26554239 1.3321416 -2.1951037e+38
1.8872862 -0.26877668 1.3321416 -2.1684662e+38
1.8792809 -0.27105546 1.3317074 -2.1550703e+38
1.8792735 -0.27427453 1.3317074 -2.1418302e+38
1.8792661 -0.27749354 1.3317074 -2.1418304e+38
1.8792588 -0.28071257 1.3317074 -2.1152458e+38
1.8792514 -0.28393161 1.3317074 -2.0886623e+38
1.879244 -0.28715068 1.3317074 -2.0753708e+38
1.8792366 -0.29036969 1.3317074 -2.0620785e+38
1.8792292 -0.29358876 1.3317074 -2.088715e+38
1.8792218 -0.2968078 1.3317074 -2.1152996e+38
1.8792145 -0.30002683 1.3317074 -2.1286438e+38
1.8792071 -0.30324584 1.3317074 -2.1419876e+38
1.8791997 -0.30646491 1.3317074 -2.1419352e+38
1.8871897 -0.31082228 1.3321416 -2.15528e+38
1.8871824 -0.31405658 1.3321416 -2.1686246e+38
1.8791776 -0.31612203 1.3317074 -2.1686768e+38
1.8791702 -0.31934106 1.3317074 -2.1819691e+38
1.8791628 -0.3225601 1.3317074 -2.2085538e+38
1.8791554 -0.32577917 1.3317074 -2.221898e+38
1.879148 -0.32899818 1.3317074 -2.2484824e+38
1.8701439 -0.33081657 1.3312187 -2.2483781e+38
1.8621393 -0.33275825 1.3307844 -2.2483256e+38
1.8621321 -0.33594492 1.3307844 -2.2483769e+38
1.8621248 -0.33913159 1.3307844 -2.2484292e+38
1.8621174 -0.34231821 1.3307844 -2.2351891e+38
1.8621101 -0.34550488 1.3307844 -2.2219489e+38
1.8621029 -0.34869155 1.3307844 -2.2087605e+38
1.8700925 -0.35322985 1.3312187 -2.2087607e+38
1.8700851 -0.35643175 1.3312187 -2.1955205e+38
1.8700778 -0.35963365 1.3312187 -2.1955211e+38
1.8790668 -0.36440763 1.3317074 -2.2088658e+38
1.8790596 -0.36762667 1.3317074 -2.2355546e+38
1.8790522 -0.37084571 1.3317074 -2.2356067e+38
1.8870414 -0.37550783 1.3321416 -2.2490026e+38
1.8870341 -0.3787421 1.3321416 -2.2623466e+38
1.8870267 -0.3819764 1.3321416 -2.2756914e+38
1.8870193 -0.38521069 1.3321416 -2.2890362e+38
1.8870119 -0.38844493 1.3321416 -2.3157253e+38
1.8950008 -0.39319849 1.3325759 -2.3423623e+38
1.8949934 -0.39644802 1.3325759 -2.3690516e+38
1.8869896 -0.39814776 1.3321416 -2.408929e+38
1.8949785 -0.40294704 1.3325759 -2.4488576e+38
1.894971 -0.40619656 1.3325759 -2.4756494e+38
1.8949636 -0.40944606 1.3325759 -2.5022859e+38
1.903952 -0.41450766 1.3330644 -2.5155263e+38
1.9039445 -0.41777435 1.3330644 -2.528611e+38
1.903937 -0.42104098 1.3330644 -2.5420074e+38
1.9209217 -0.42782754 1.3339874 -2.5687998e+38
1.9299097 -0.43300721 1.3344759 -2.5954882e+38
1.9478934 -0.44011894 1.335453 -2.6354703e+38
1.9568815 -0.44538432 1.3359417 -2.6623679e+38
1.9568738 -0.44875196 1.3359417 -2.7026059e+38
1.956866 -0.45211956 1.3359417 -2.462979e+38
1.9658538 -0.45745349 1.3364302 -2.2236275e+38
1.9658461 -0.46083826 1.3364302 nan
1.6885618 -0.14831027 1.3184836 -3.2774551e+38
1.6885552 -0.15116552 1.3184836 nan
1.6885487 -0.15402074 1.3184836 nan
1.6885421 -0.15687597 1.3184836 nan
1.6815366 -0.15930849 1.3181169 nan
1.6755308 -0.16177663 1.3178025 nan
1.6755244 -0.16460711 1.3178025 nan
1.6695187 -0.16704097 1.3174883 nan
1.6625134 -0.16938396 1.3171216 nan
1.6625069 -0.17218967 1.3171216 nan
1.6625006 -0.17499538 1.3171216 nan
1.6624942 -0.17780107 1.3171216 nan
1.6624877 -0.18060678 1.3171216 nan
1.6814779 -0.18488556 1.3181169 nan
1.6814649 -0.19056937 1.3181169 nan
1.9574065 -0.21638682 1.332574 nan
1.9304039 -0.2174554 1.3311597 nan
1.9303963 -0.22077158 1.3311597 nan
1.9213905 -0.22328714 1.3306882 nan
1.921383 -0.22658616 1.3306882 nan
1.9213754 -0.22988519 1.3306882 nan
1.9213679 -0.23318425 1.3306882 nan
1.9213603 -0.23648328 1.3306882 nan
1.9123547 -0.23889597 1.3302169 -3.0613435e+38
1.9213452 -0.24308136 1.3306882 -2.2760044e+38
1.9123396 -0.24545977 1.3302169 -2.2609944e+38
1.9043339 -0.24790807 1.3297979 -2.2480666e+38
1.9043264 -0.25117475 1.3297979 -2.2221061e+38
1.9043189 -0.25444138 1.3297979 -2.1954692e+38
1.8953137 -0.25671887 1.3293264 -2.1821246e+38
1.8953063 -0.25996837 1.3293264 -2.1687283e+38
1.887301 -0.26230812 1.3289074 -2.1819163e+38
1.8872936 -0.26554239 1.3289074 -2.1951041e+38
1.8872862 -0.26877668 1.3289074 -2.1684151e+38
1.8792809 -0.27105546 1.3284883 -2.1418306e+38
1.8792735 -0.27427453 1.3284883 -2.1418304e+38
1.8792661 -0.27749354 1.3284883 -2.1284862e+38
1.8792588 -0.28071257 1.3284883 -2.1018497e+38
1.8792514 -0.28393161 1.3284883 -2.0753694e+38
1.879244 -0.28715068 1.3284883 -2.0620775e+38
1.8792366 -0.29036969 1.3284883 -2.0355451e+38
1.8792292 -0.29358876 1.3284883 -2.0887665e+38
1.8792218 -0.2968078 1.3284883 -2.1286427e+38
1.8792145 -0.30002683 1.3284883 -2.155175e+38
1.8792071 -0.30324584 1.3284883 -2.1818113e+38
1.8791997 -0.30646491 1.3284883 -2.1817591e+38
1.8871897 -0.31082228 1.3289074 -2.1685713e+38
1.8871824 -0.31405658 1.3289074 -2.1686758e+38
1.8791776 -0.31612203 1.3284883 -2.1686764e+38
1.8791702 -0.31934106 1.3284883 -2.168677e+38
1.8791628 -0.3225601 1.3284883 -2.1686253e+38
1.8791554 -0.32577917 1.3284883 -2.2085021e+38
1.879148 -0.32899818 1.3284883 -2.2350345e+38
1.8701439 -0.33081657 1.3280169 -2.2349307e+38
1.8621393 -0.33275825 1.3275979 -2.2217936e+38
1.8701292 -0.33722037 1.3280169 -2.2350335e+38
1.8701218 -0.34042227 1.3280169 -2.2351895e+38
1.8621174 -0.34231821 1.3275979 -2.2219495e+38
1.8621101 -0.34550488 1.3275979 -2.1954169e+38
1.8621029 -0.34869155 1.3275979 -2.1821765e+38
1.8700925 -0.35322985 1.3280169 -2.155592e+38
1.8700851 -0.35643175 1.3280169 -2.1822287e+38
1.8700778 -0.35963365 1.3280169 -2.2088136e+38
1.8790668 -0.36440763 1.3284883 -2.2221584e+38
1.8790596 -0.36762667 1.3284883 -2.2222627e+38
1.8790522 -0.37084571 1.3284883 -2.2356592e+38
1.8870414 -0.37550783 1.3289074 -2.2490551e+38
1.8870341 -0.3787421 1.3289074 -2.2623994e+38
1.8870267 -0.3819764 1.3289074 -2.2757436e+38
1.8870193 -0.38521069 1.3289074 -2.3023802e+38
1.8870119 -0.38844493 1.3289074 -2.3290171e+38
1.8950008 -0.39319849 1.3293264 -2.3556023e+38
1.8949934 -0.39644802 1.3293264 -2.3821877e+38
1.8949859 -0.39969751 1.3293264 -2.4087732e+38
1.8949785 -0.40294704 1.3293264 -2.4356691e+38
1.894971 -0.40619656 1.3293264 -2.4492208e+38
1.8949636 -0.40944606 1.3293264 -2.462461e+38
1.903952 -0.41450766 1.3297979 -2.4890455e+38
1.9039445 -0.41777435 1.3297979 -2.5155265e+38
1.9119333 -0.42268217 1.3302169 -2.5420595e+38
1.9209217 -0.42782754 1.3306882 -2.5688522e+38
1.9299097 -0.43300721 1.3311597 -2.6087294e+38
1.9388978 -0.43822116 1.3316312 -2.6489182e+38
1.9478858 -0.44346938 1.3321025 -2.675711e+38
1.9568738 -0.44875196 1.332574 -2.7023443e+38
1.956866 -0.45211956 1.332574 -2.3562225e+38
1.6955609 -0.14867967 1.3159816 -3.1961932e+38
1.6955544 -0.15154824 1.3159816 nan
1.701547 -0.15475626 1.3162845 nan
1.6955413 -0.15728536 1.3159816 nan
1.6885356 -0.15973121 1.3156283 nan
1.68153 -0.16215038 1.315275 nan
1.6755244 -0.16460711 1.3149722 nan
1.6695123 -0.16986001 1.3146693 nan
1.6625069 -0.17218967 1.3143159 nan
1.6625006 -0.17499538 1.3143159 nan
1.9844328 -0.20495827 1.3305693 nan
1.9754266 -0.20767953 1.330115 nan
1.9754187 -0.21108143 1.330115 nan
1.9664125 -0.21375126 1.3296607 nan
1.9574065 -0.21638682 1.3292063 nan
1.9484004 -0.21898808 1.3287522 nan
1.9393945 -0.22155505 1.3282979 nan
1.9303887 -0.22408774 1.3278435 nan
1.9303811 -0.22740394 1.3278435 nan
1.9213754 -0.22988519 1.3273892 -3.2237117e+38
1.9213679 -0.23318425 1.3273892 -3.062283e+38
1.9213603 -0.23648328 1.3273892 -2.9163217e+38
1.9123547 -0.23889597 1.3269349 -2.5816721e+38
1.9123472 -0.24217786 1.3269349 -2.2605285e+38
1.9123396 -0.24545977 1.3269349 -2.2480151e+38
1.9043339 -0.24790807 1.3265312 -2.2220017e+38
1.9043264 -0.25117475 1.3265312 -2.208813e+38
1.9043189 -0.25444138 1.3265312 -2.1955203e+38
1.8953137 -0.25671887 1.3260769 -2.1954161e+38
1.8953063 -0.25996837 1.3260769 -2.1820721e+38
1.887301 -0.26230812 1.3256731 -2.1819163e+38
1.8872936 -0.26554239 1.3256731 -2.1950526e+38
1.8872862 -0.26877668 1.3256731 -2.1684159e+38
1.8792809 -0.27105546 1.3252692 -2.1551233e+38
1.8792735 -0.27427453 1.3252692 -2.1285383e+38
1.8792661 -0.27749354 1.3252692 -2.1151941e+38
1.8792588 -0.28071257 1.3252692 -2.1019016e+38
1.8792514 -0.28393161 1.3252692 -2.0886612e+38
1.879244 -0.28715068 1.3252692 -2.088713e+38
1.8792366 -0.29036969 1.3252692 -2.1020578e+38
1.8792292 -0.29358876 1.3252692 -2.1153505e+38
1.8792218 -0.2968078 1.3252692 -2.1419342e+38
1.8792145 -0.30002683 1.3252692 -2.1551736e+38
1.8792071 -0.30324584 1.3252692 -2.1817581e+38
1.8791997 -0.30646491 1.3252692 -2.1685176e+38
1.8871897 -0.31082228 1.3256731 -2.1685703e+38
1.8871824 -0.31405658 1.3256731 -2.1419863e+38
1.8791776 -0.31612203 1.3252692 -2.1286953e+38
1.8791702 -0.31934106 1.3252692 -2.1419888e+38
1.8791628 -0.3225601 1.3252692 -2.1685735e+38
1.8791554 -0.32577917 1.3252692 -2.1818658e+38
1.879148 -0.32899818 1.3252692 -2.1951062e+38
1.8791406 -0.33221722 1.3252692 -2.19521e+38
1.8701365 -0.33401847 1.3248149 -2.1953656e+38
1.8701292 -0.33722037 1.3248149 -2.2086055e+38
1.8621248 -0.33913159 1.3244112 -2.2086577e+38
1.8621174 -0.34231821 1.3244112 -2.2087617e+38
1.8621101 -0.34550488 1.3244112 -2.2087617e+38
1.8621029 -0.34869155 1.3244112 -2.2087617e+38
1.8700925 -0.35322985 1.3248149 -2.2087098e+38
1.8700851 -0.35643175 1.3248149 -2.2220538e+38
1.8700778 -0.35963365 1.3248149 -2.2353467e+38
1.8790668 -0.36440763 1.3252692 -2.2355031e+38
1.8790596 -0.36762667 1.3252692 -2.2355556e+38
1.8790522 -0.37084571 1.3252692 -2.249004e+38
1.8870414 -0.37550783 1.3256731 -2.2624002e+38
1.8870341 -0.3787421 1.3256731 -2.2757442e+38
1.8870267 -0.3819764 1.3256731 -2.2890882e+38
1.8870193 -0.38521069 1.3256731 -2.3157242e+38
1.8950083 -0.38994896 1.3260769 -2.328965e+38
1.8950008 -0.39319849 1.3260769 -2.3555498e+38
1.8949934 -0.39644802 1.3260769 -2.3820836e+38
1.8949859 -0.39969751 1.3260769 -2.4088769e+38
1.8949785 -0.40294704 1.3260769 -2.4225326e+38
1.894971 -0.40619656 1.3260769 -2.4491691e+38
1.8949636 -0.40944606 1.3260769 -2.4625131e+38
1.903952 -0.41450766 1.3265312 -2.4890973e+38
1.9039445 -0.41777435 1.3265312 -2.5156824e+38
1.9119333 -0.42268217 1.3269349 -2.5423193e+38
1.9209217 -0.42782754 1.3273892 -2.5823525e+38
1.9209141 -0.43112659 1.3273892 -2.62223e+38
1.9299022 -0.4363234 1.3278435 -2.6756583e+38
1.9388901 -0.44155452 1.3282979 -2.6491253e+38
1.9478781 -0.44681987 1.3287522 -2.6228482e+38
1.7085462 -0.15515232 1.3137445 nan
1.6955413 -0.15728536 1.3131131 nan
1.6955346 -0.16015393 1.3131131 nan
2.1044707 -0.18850008 1.3329787 nan
2.1044624 -0.19214769 1.3329787 nan
2.104454 -0.1957953 1.3329787 nan
2.0834489 -0.19801477 1.3319588 nan
2.0834405 -0.20162238 1.3319588 nan
2.0724342 -0.20444001 1.3314245 nan
2.0724261 -0.20802666 1.3314245 nan
1.9844328 -0.20495827 1.3271502 nan
1.9844249 -0.2083773 1.3271502 nan
1.9754187 -0.21108143 1.3267131 nan
1.9664125 -0.21375126 1.3262759 nan
1.9574065 -0.21638682 1.3258388 nan
1.9484004 -0.21898808 1.3254017 nan
1.9303963 -0.22077158 1.3245274 nan
1.9213905 -0.22328714 1.3240902 nan
1.921383 -0.22658616 1.3240902 -3.0609282e+38
1.9213754 -0.22988519 1.3240902 -2.5686962e+38
1.9123697 -0.23233217 1.3236531 -2.2737717e+38
1.9123622 -0.23561406 1.3236531 -1.9695542e+38
1.9123547 -0.23889597 1.3236531 -2.1150418e+38
1.9123472 -0.24217786 1.3236531 -2.2481197e+38
1.9123396 -0.24545977 1.3236531 -2.2220019e+38
1.9043339 -0.24790807 1.3232645 -2.195469e+38
1.9043264 -0.25117475 1.3232645 -2.1955207e+38
1.9043189 -0.25444138 1.3232645 -2.1954682e+38
1.9043115 -0.25770807 1.3232645 -2.1954159e+38
1.8953063 -0.25996837 1.3228273 -2.1953118e+38
1.8952988 -0.2632179 1.3228273 -2.1951561e+38
1.8952914 -0.26646739 1.3228273 -2.1818119e+38
1.8872862 -0.26877668 1.3224387 -2.1684157e+38
1.8792809 -0.27105546 1.3220502 -2.155123e+38
1.8792735 -0.27427453 1.3220502 -2.1285383e+38
1.8792661 -0.27749354 1.3220502 -2.1019537e+38
1.8792588 -0.28071257 1.3220502 -2.1019537e+38
1.8792514 -0.28393161 1.3220502 -2.1019537e+38
1.879244 -0.28715068 1.3220502 -2.1285381e+38
1.8792366 -0.29036969 1.3220502 -2.1551746e+38
1.8792292 -0.29358876 1.3220502 -2.1551746e+38
1.8792218 -0.2968078 1.3220502 -2.155174e+38
1.8792145 -0.30002683 1.3220502 -2.168362e+38
1.8792071 -0.30324584 1.3220502 -2.1684139e+38
1.8791997 -0.30646491 1.3220502 -2.1684658e+38
1.8871897 -0.31082228 1.3224387 -2.1552261e+38
1.8871824 -0.31405658 1.3224387 -2.1152981e+38
1.8791776 -0.31612203 1.3220502 -2.075474e+38
1.8791702 -0.31934106 1.3220502 -2.1153517e+38
1.8791628 -0.3225601 1.3220502 -2.1552806e+38
1.8791554 -0.32577917 1.3220502 -2.155281e+38
1.879148 -0.32899818 1.3220502 -2.1419888e+38
1.8701439 -0.33081657 1.3216131 -2.1553851e+38
1.8621393 -0.33275825 1.3212245 -2.1687289e+38
1.8621321 -0.33594492 1.3212245 -2.182021e+38
1.8621248 -0.33913159 1.3212245 -2.1821252e+38
1.8621174 -0.34231821 1.3212245 -2.2088658e+38
1.8621101 -0.34550488 1.3212245 -2.2221059e+38
1.8621029 -0.34869155 1.3212245 -2.2352941e+38
1.8700925 -0.35322985 1.3216131 -2.2486381e+38
1.8700851 -0.35643175 1.3216131 -2.2486899e+38
1.8700778 -0.35963365 1.3216131 -2.2487426e+38
1.8700705 -0.36283556 1.3216131 -2.2488471e+38
1.8790596 -0.36762667 1.3220502 -2.2489513e+38
1.8790522 -0.37084571 1.3220502 -2.262348e+38
1.8870414 -0.37550783 1.3224387 -2.2756922e+38
1.8870341 -0.3787421 1.3224387 -2.2890886e+38
1.8870267 -0.3819764 1.3224387 -2.3024326e+38
1.8870193 -0.38521069 1.3224387 -2.3157768e+38
1.8950083 -0.38994896 1.3228273 -2.3289654e+38
1.8950008 -0.39319849 1.3228273 -2.3554463e+38
1.8949934 -0.39644802 1.3228273 -2.3821873e+38
1.8949859 -0.39969751 1.3228273 -2.3955842e+38
1.8949785 -0.40294704 1.3228273 -2.4090844e+38
1.894971 -0.40619656 1.3228273 -2.4357213e+38
1.8949636 -0.40944606 1.3228273 -2.4624612e+38
1.903952 -0.41450766 1.3232645 -2.4891494e+38
1.9039445 -0.41777435 1.3232645 -2.5024936e+38
1.9119333 -0.42268217 1.3236531 -2.5557668e+38
1.9209217 -0.42782754 1.3240902 -2.5956446e+38
1.9209141 -0.43112659 1.3240902 -2.6487628e+38
1.9299022 -0.4363234 1.3245274 -2.6887425e+38
1.9298946 -0.4396396 1.3245274 -2.6088842e+38
1.9298869 -0.44295576 1.3245274 -2.5284561e+38
2.1144695 -0.189123 1.3297979 nan
2.1044624 -0.19214769 1.3293312 nan
2.104454 -0.1957953 1.3293312 -3.0507608e+38
2.0934474 -0.19869484 1.3288178 nan
2.0834405 -0.20162238 1.3283511 nan
2.0724342 -0.20444001 1.3278378 nan
2.0724261 -0.20802666 1.3278378 nan
1.9934312 -0.2056389 1.3241512 -3.3023229e+38
1.9844249 -0.2083773 1.3237312 -3.0635328e+38
1.9754187 -0.21108143 1.3233112 -3.1828555e+38
1.9664125 -0.21375126 1.3228911 -3.317542e+38
1.9574065 -0.21638682 1.3224711 -3.1430271e+38
1.9573988 -0.21975443 1.3224711 -2.9834619e+38
1.9393945 -0.22155505 1.3216312 -2.8754044e+38
1.9303887 -0.22408774 1.3212111 -2.7825131e+38
1.921383 -0.22658616 1.3207911 -2.634843e+38
1.9213754 -0.22988519 1.3207911 -2.4873777e+38
1.9213679 -0.23318425 1.3207911 -2.3143661e+38
1.9123622 -0.23561406 1.3203712 -2.1414673e+38
1.9123547 -0.23889597 1.3203712 -2.1951601e+38
1.9123472 -0.24217786 1.3203712 -2.2487436e+38
1.9123396 -0.24545977 1.3203712 -2.2353982e+38
1.9043339 -0.24790807 1.3199978 -2.2088134e+38
1.9043264 -0.25117475 1.3199978 -2.2087611e+38
1.9043189 -0.25444138 1.3199978 -2.2086566e+38
1.9043115 -0.25770807 1.3199978 -2.2086558e+38
1.8953063 -0.25996837 1.3195778 -2.2085518e+38
1.8952988 -0.2632179 1.3195778 -2.1952072e+38
1.8872936 -0.26554239 1.3192044 -2.1818632e+38
1.8872862 -0.26877668 1.3192044 -2.1685192e+38
1.8792809 -0.27105546 1.3188312 -2.155175e+38
1.8792735 -0.27427453 1.3188312 -2.1285383e+38
1.8792661 -0.27749354 1.3188312 -2.1019539e+38
1.8792588 -0.28071257 1.3188312 -2.101902e+38
1.8792514 -0.28393161 1.3188312 -2.1152462e+38
1.879244 -0.28715068 1.3188312 -2.1285383e+38
1.8792366 -0.29036969 1.3188312 -2.1418302e+38
1.8792292 -0.29358876 1.3188312 -2.1418296e+38
1.8792218 -0.2968078 1.3188312 -2.1418294e+38
1.8792145 -0.30002683 1.3188312 -2.1417772e+38
1.8792071 -0.30324584 1.3188312 -2.1418294e+38
1.8791997 -0.30646491 1.3188312 -2.128589e+38
1.8871897 -0.31082228 1.3192044 -2.1285898e+38
1.8871824 -0.31405658 1.3192044 -2.1285904e+38
1.887175 -0.31729084 1.3192044 -2.1153507e+38
1.8871676 -0.32052511 1.3192044 -2.1286434e+38
1.8871602 -0.32375941 1.3192044 -2.1552283e+38
1.8791554 -0.32577917 1.3188312 -2.1419884e+38
1.879148 -0.32899818 1.3188312 -2.1286963e+38
1.8791406 -0.33221722 1.3188312 -2.1420926e+38
1.8701365 -0.33401847 1.3184111 -2.1554366e+38
1.8701292 -0.33722037 1.3184111 -2.1688325e+38
1.8701218 -0.34042227 1.3184111 -2.1821771e+38
1.8701146 -0.34362417 1.3184111 -2.1954698e+38
1.8701072 -0.34682608 1.3184111 -2.2088136e+38
1.8700999 -0.35002798 1.3184111 -2.2220534e+38
1.8700925 -0.35322985 1.3184111 -2.2486897e+38
1.8700851 -0.35643175 1.3184111 -2.2486895e+38
1.8700778 -0.35963365 1.3184111 -2.2619825e+38
1.8700705 -0.36283556 1.3184111 -2.2620872e+38
1.8790596 -0.36762667 1.3188312 -2.2755357e+38
1.8790522 -0.37084571 1.3188312 -2.2888803e+38
1.8870414 -0.37550783 1.3192044 -2.3155691e+38
1.8870341 -0.3787421 1.3192044 -2.3156731e+38
1.8870267 -0.3819764 1.3192044 -2.3290695e+38
1.8870193 -0.38521069 1.3192044 -2.3290177e+38
1.8950083 -0.38994896 1.3195778 -2.34231e+38
1.8950008 -0.39319849 1.3195778 -2.3422581e+38
1.8949934 -0.39644802 1.3195778 -2.3556546e+38
1.8949859 -0.39969751 1.3195778 -2.3823434e+38
1.9039744 -0.4047077 1.3199978 -2.4223247e+38
1.903967 -0.40797436 1.3199978 -2.4489616e+38
1.9039595 -0.41124099 1.3199978 -2.4757537e+38
1.903952 -0.41450766 1.3199978 -2.4890975e+38
1.9119408 -0.41940027 1.3203712 -2.5157857e+38
1.9119333 -0.42268217 1.3203712 -2.5291816e+38
1.9209217 -0.42782754 1.3207911 -2.5425272e+38
1.9209141 -0.43112659 1.3207911 -2.4358787e+38
1.9209065 -0.43442562 1.3207911 -2.3298507e+38
1.9208989 -0.43772465 1.3207911 -2.2353495e+38
1.9208914 -0.44102371 1.3207911 -2.1283418e+38
2.1144779 -0.18545635 1.3261311 nan
2.1144695 -0.189123 1.3261311 nan
2.1044624 -0.19214769 1.3256836 -2.9010034e+38
2.104454 -0.1957953 1.3256836 -2.0508206e+38
2.0934474 -0.19869484 1.3251911 -2.7165809e+38
2.0934391 -0.20232148 1.3251911 -3.3819729e+38
2.0834324 -0.20523 1.3247435 -3.3421991e+38
2.0934224 -0.2095748 1.3251911 -3.2879893e+38
1.9934312 -0.2056389 1.320715 -2.7804401e+38
1.9844249 -0.2083773 1.3203121 -2.2764778e+38
1.9844171 -0.21179636 1.3203121 -2.4618969e+38
1.9754109 -0.21448332 1.3199092 -2.635629e+38
1.9664048 -0.21713603 1.3195064 -2.3551908e+38
1.9573988 -0.21975443 1.3191035 -2.0762573e+38
1.9393945 -0.22155505 1.3182979 -2.0474368e+38
1.9303887 -0.22408774 1.3178949 -2.0093266e+38
1.921383 -0.22658616 1.3174921 -2.2085562e+38
1.9213754 -0.22988519 1.3174921 -2.4079899e+38
1.9213679 -0.23318425 1.3174921 -2.3682145e+38
1.9123622 -0.23561406 1.3170892 -2.3149438e+38
1.9123547 -0.23889597 1.3170892 -2.2886209e+38
1.9123472 -0.24217786 1.3170892 -2.2487432e+38
1.9123396 -0.24545977 1.3170892 -2.2353982e+38
1.9043339 -0.24790807 1.3167312 -2.2221053e+38
1.9043264 -0.25117475 1.3167312 -2.222053e+38
1.9043189 -0.25444138 1.3167312 -2.2220006e+38
1.9043115 -0.25770807 1.3167312 -2.2219485e+38
1.8953063 -0.25996837 1.3163283 -2.2218445e+38
1.8952988 -0.2632179 1.3163283 -2.1951561e+38
1.8872936 -0.26554239 1.3159702 -2.1685715e+38
1.8872862 -0.26877668 1.3159702 -2.1685194e+38
1.8792809 -0.27105546 1.3156121 -2.155123e+38
1.8792735 -0.27427453 1.3156121 -2.1283827e+38
1.8792661 -0.27749354 1.3156121 -2.1018499e+38
1.8792588 -0.28071257 1.3156121 -2.1150383e+38
1.8792514 -0.28393161 1.3156121 -2.1151418e+38
1.879244 -0.28715068 1.3156121 -2.1284336e+38
1.8792366 -0.29036969 1.3156121 -2.1284336e+38
1.8792292 -0.29358876 1.3156121 -2.1284334e+38
1.8792218 -0.2968078 1.3156121 -2.1151411e+38
1.8792145 -0.30002683 1.3156121 -2.1151409e+38
1.8792071 -0.30324584 1.3156121 -2.1019008e+38
