# .PCD v0.7 - Point Cloud Data file format
VERSION 0.7
FIELDS x y z rgb
SIZE 4 4 4 4
TYPE F F F F
COUNT 1 1 1 1
WIDTH 1059
HEIGHT 1
VIEWPOINT 0 0 0 1 0 0 0
POINTS 1059
DATA ascii
7.176609 -1.3168226 1.9791188 -2.5423187e+38
7.1765761 -1.3301407 1.9791188 -2.5423189e+38
7.3214774 -1.3699212 1.9944475 -2.5289751e+38
7.3214436 -1.3835154 1.9944475 -2.5156311e+38
7.3214092 -1.3971096 1.9944475 -2.5688006e+38
7.1764426 -1.3834128 1.9791188 -2.6086264e+38
7.1764097 -1.3967309 1.9791188 -2.6351598e+38
7.1763763 -1.4100491 1.9791188 -2.6616387e+38
7.176343 -1.423367 1.9791188 -2.2621418e+38
7.1763096 -1.4366851 1.9791188 -1.8653051e+38
7.3212056 -1.4786751 1.9944475 -3.1060671e+38
7.3211718 -1.4922693 1.9944475 nan
7.3224969 -0.96209377 1.9808531 -2.6883764e+38
7.322463 -0.9756881 1.9808531 -2.6482389e+38
7.3224287 -0.98928231 1.9808531 -2.6216532e+38
7.4723458 -1.0225371 1.9964246 -2.5951213e+38
7.322361 -1.0164708 1.9808531 -2.5686414e+38
7.3223267 -1.0300651 1.9808531 -2.5420056e+38
7.3222928 -1.0436592 1.9808531 -2.541954e+38
7.3222589 -1.0572535 1.9808531 -2.5419021e+38
7.3222251 -1.0708477 1.9808531 -2.5551942e+38
7.3221908 -1.084442 1.9808531 -2.5552463e+38
7.3221569 -1.0980363 1.9808531 -2.568435e+38
7.3221231 -1.1116304 1.9808531 -2.568435e+38
7.3220892 -1.1252247 1.9808531 -2.5817792e+38
7.3220549 -1.138819 1.9808531 -2.5950714e+38
7.322021 -1.1524132 1.9808531 -2.5951234e+38
7.3219872 -1.1660075 1.9808531 -2.5951755e+38
7.3219533 -1.1796018 1.9808531 -2.5819873e+38
7.321919 -1.1931959 1.9808531 -2.568799e+38
7.3218851 -1.2067902 1.9808531 -2.568799e+38
7.3218513 -1.2203844 1.9808531 -2.5687471e+38
7.3218174 -1.2339786 1.9808531 -2.5555065e+38
7.3217831 -1.247573 1.9808531 -2.5554546e+38
7.3217492 -1.2611672 1.9808531 -2.5555065e+38
7.3217154 -1.2747614 1.9808531 -2.5422664e+38
7.3216815 -1.2883557 1.9808531 -2.5289222e+38
7.3216472 -1.3019499 1.9808531 -2.5156299e+38
7.3216133 -1.3155441 1.9808531 -2.5289741e+38
7.1766424 -1.3035045 1.9658008 -2.5422666e+38
7.3215456 -1.3427327 1.9808531 -2.5290262e+38
7.3215113 -1.3563269 1.9808531 -2.5290788e+38
7.3214774 -1.3699212 1.9808531 -2.5290272e+38
7.3214436 -1.3835154 1.9808531 -2.542268e+38
7.3214092 -1.3971096 1.9808531 -2.5820412e+38
7.1764426 -1.3834128 1.9658008 -2.6218669e+38
7.3213415 -1.424298 1.9808531 -2.6618484e+38
7.1763763 -1.4100491 1.9658008 -2.7151202e+38
7.3212733 -1.4514866 1.9808531 -2.4487539e+38
7.3212395 -1.4650809 1.9808531 -2.183491e+38
7.3212056 -1.4786751 1.9808531 -3.2383694e+38
7.1762433 -1.4633212 1.9658008 nan
7.3224969 -0.96209377 1.9672588 -2.6884291e+38
7.322463 -0.9756881 1.9672588 -2.6483434e+38
7.3224287 -0.98928231 1.9672588 -2.6217578e+38
7.4723458 -1.0225371 1.9825445 -2.5819333e+38
7.472311 -1.036417 1.9825445 -2.5554532e+38
7.4722762 -1.050297 1.9825445 -2.5152648e+38
7.4722419 -1.0641769 1.9825445 -2.5285571e+38
7.3222589 -1.0572535 1.9672588 -2.5285569e+38
7.3222251 -1.0708477 1.9672588 -2.5419011e+38
7.3221908 -1.084442 1.9672588 -2.5550378e+38
7.3221569 -1.0980363 1.9672588 -2.5682784e+38
7.3221231 -1.1116304 1.9672588 -2.5682784e+38
7.3220892 -1.1252247 1.9672588 -2.5816228e+38
7.3220549 -1.138819 1.9672588 -2.5949674e+38
7.322021 -1.1524132 1.9672588 -2.5950716e+38
7.3219872 -1.1660075 1.9672588 -2.5818317e+38
7.3219533 -1.1796018 1.9672588 -2.5818321e+38
7.321919 -1.1931959 1.9672588 -2.5686956e+38
7.1769423 -1.183642 1.9524827 -2.5687477e+38
7.3218513 -1.2203844 1.9672588 -2.5687477e+38
7.3218174 -1.2339786 1.9672588 -2.5687477e+38
7.1768422 -1.2235962 1.9524827 -2.5554554e+38
7.3217492 -1.2611672 1.9672588 -2.5555071e+38
7.3217154 -1.2747614 1.9672588 -2.5421627e+38
7.3216815 -1.2883557 1.9672588 -2.5288183e+38
7.3216472 -1.3019499 1.9672588 -2.5023376e+38
7.3216133 -1.3155441 1.9672588 -2.515682e+38
7.3215795 -1.3291384 1.9672588 -2.5289743e+38
7.3215456 -1.3427327 1.9672588 -2.5157342e+38
7.3215113 -1.3563269 1.9672588 -2.5024423e+38
7.3214774 -1.3699212 1.9672588 -2.5289751e+38
7.3214436 -1.3835154 1.9672588 -2.555508e+38
7.3214092 -1.3971096 1.9672588 -2.5952292e+38
7.1764426 -1.3834128 1.9524827 -2.6352109e+38
7.1764097 -1.3967309 1.9524827 -2.7017255e+38
7.1763763 -1.4100491 1.9524827 -2.7547378e+38
7.3212733 -1.4514866 1.9672588 -2.6210354e+38
7.3212395 -1.4650809 1.9672588 -2.4904079e+38
7.3212056 -1.4786751 1.9672588 -3.3729014e+38
7.1762433 -1.4633212 1.9524827 nan
7.3224969 -0.96209377 1.9536645 -2.6217607e+38
7.322463 -0.9756881 1.9536645 -2.6084154e+38
7.3224287 -0.98928231 1.9536645 -2.6350507e+38
7.3223948 -1.0028765 1.9536645 -2.6483432e+38
7.322361 -1.0164708 1.9536645 -2.6217069e+38
7.4722762 -1.050297 1.9686645 -2.5945508e+38
7.3222928 -1.0436592 1.9536645 -2.5949658e+38
7.3222589 -1.0572535 1.9536645 -2.6081021e+38
7.3222251 -1.0708477 1.9536645 -2.621498e+38
7.1772418 -1.0637796 1.9391645 -2.6477712e+38
7.3221569 -1.0980363 1.9536645 -2.648031e+38
7.3221231 -1.1116304 1.9536645 -2.6478757e+38
7.3220892 -1.1252247 1.9536645 -2.6214471e+38
7.3220549 -1.138819 1.9536645 -2.6081037e+38
7.322021 -1.1524132 1.9536645 -2.5951238e+38
7.3219872 -1.1660075 1.9536645 -2.5951244e+38
7.3219533 -1.1796018 1.9536645 -2.5819363e+38
7.1769753 -1.170324 1.9391645 -2.5687481e+38
7.1769423 -1.183642 1.9391645 -2.5687483e+38
7.176909 -1.1969601 1.9391645 -2.581937e+38
7.1768756 -1.2102782 1.9391645 -2.5820408e+38
7.1768422 -1.2235962 1.9391645 -2.595229e+38
7.3217492 -1.2611672 1.9536645 -2.5819885e+38
7.3217154 -1.2747614 1.9536645 -2.5819359e+38
7.3216815 -1.2883557 1.9536645 -2.5687469e+38
7.3216472 -1.3019499 1.9536645 -2.5687471e+38
7.3216133 -1.3155441 1.9536645 -2.5821434e+38
7.3215795 -1.3291384 1.9536645 -2.5820917e+38
7.3215456 -1.3427327 1.9536645 -2.5687996e+38
7.3215113 -1.3563269 1.9536645 -2.5555076e+38
7.3214774 -1.3699212 1.9536645 -2.5687998e+38
7.3214436 -1.3835154 1.9536645 -2.5821442e+38
7.3214092 -1.3971096 1.9536645 -2.608625e+38
7.3213754 -1.4107039 1.9536645 -2.6353148e+38
7.1764097 -1.3967309 1.9391645 -2.688537e+38
7.3213077 -1.4378924 1.9536645 -2.7418615e+38
7.3212733 -1.4514866 1.9536645 -2.6347957e+38
7.3212395 -1.4650809 1.9536645 -2.5285715e+38
7.1762762 -1.4500031 1.9391645 nan
7.1762433 -1.4633212 1.9391645 nan
7.3224969 -0.96209377 1.9400703 -2.5548301e+38
7.322463 -0.9756881 1.9400703 -2.5683824e+38
7.3224287 -0.98928231 1.9400703 -2.6483442e+38
7.3223948 -1.0028765 1.9400703 -2.715065e+38
7.322361 -1.0164708 1.9400703 -2.6884285e+38
7.3223267 -1.0300651 1.9400703 -2.6617943e+38
7.3222928 -1.0436592 1.9400703 -2.6752448e+38
7.3222589 -1.0572535 1.9400703 -2.6751924e+38
7.3222251 -1.0708477 1.9400703 -2.7148614e+38
7.1772418 -1.0637796 1.9258465 -2.7415486e+38
7.1772084 -1.0770977 1.9258465 -2.7280993e+38
7.3221231 -1.1116304 1.9400703 -2.7149121e+38
7.3220892 -1.1252247 1.9400703 -2.6614846e+38
7.3220549 -1.138819 1.9400703 -2.608626e+38
7.322021 -1.1524132 1.9400703 -2.6086771e+38
7.3219872 -1.1660075 1.9400703 -2.5952814e+38
7.3219533 -1.1796018 1.9400703 -2.5820414e+38
7.1769753 -1.170324 1.9258465 -2.5687493e+38
7.1769423 -1.183642 1.9258465 -2.5820939e+38
7.176909 -1.1969601 1.9258465 -2.5821459e+38
7.1768756 -1.2102782 1.9258465 -2.6087823e+38
7.1768422 -1.2235962 1.9258465 -2.6219706e+38
7.3217492 -1.2611672 1.9400703 -2.6219184e+38
7.3217154 -1.2747614 1.9400703 -2.6086777e+38
7.3216815 -1.2883557 1.9400703 -2.6219696e+38
7.3216472 -1.3019499 1.9400703 -2.6353138e+38
7.3216133 -1.3155441 1.9400703 -2.6353657e+38
7.3215795 -1.3291384 1.9400703 -2.635261e+38
7.3215456 -1.3427327 1.9400703 -2.6218122e+38
7.3215113 -1.3563269 1.9400703 -2.5953315e+38
7.3214774 -1.3699212 1.9400703 -2.608572e+38
7.3214436 -1.3835154 1.9400703 -2.6086239e+38
7.3214092 -1.3971096 1.9400703 -2.6218124e+38
7.3213754 -1.4107039 1.9400703 -2.6352099e+38
7.3212733 -1.4514866 1.9400703 -2.6477236e+38
7.3212395 -1.4650809 1.9400703 -2.5705776e+38
7.1762762 -1.4500031 1.9258465 nan
7.3224969 -0.96209377 1.926476 -3.0606619e+38
7.322463 -0.9756881 1.926476 -3.1397943e+38
7.177475 -0.97055328 1.9125283 -3.0207887e+38
7.1774416 -0.98387134 1.9125283 -2.9017289e+38
7.472311 -1.036417 1.9409046 -2.7419615e+38
7.3223267 -1.0300651 1.926476 -2.5958556e+38
7.3222928 -1.0436592 1.926476 -2.6758739e+38
7.3222589 -1.0572535 1.926476 -2.7690752e+38
7.1772752 -1.0504616 1.9125283 -2.7689708e+38
7.1772418 -1.0637796 1.9125283 -2.7690201e+38
7.1772084 -1.0770977 1.9125283 -2.7290367e+38
7.177175 -1.0904157 1.9125283 -2.7025583e+38
7.1771417 -1.1037338 1.9125283 -2.662424e+38
7.3220549 -1.138819 1.926476 -2.6358888e+38
7.322021 -1.1524132 1.926476 -2.6220744e+38
7.177042 -1.1436878 1.9125283 -2.6219191e+38
7.1770086 -1.1570059 1.9125283 -2.5953868e+38
7.1769423 -1.183642 1.9125283 -2.5821471e+38
7.176909 -1.1969601 1.9125283 -2.5822509e+38
7.1768756 -1.2102782 1.9125283 -2.6089391e+38
7.1768422 -1.2235962 1.9125283 -2.6221274e+38
7.3217492 -1.2611672 1.926476 -2.6489194e+38
7.3217154 -1.2747614 1.926476 -2.6886405e+38
7.3216815 -1.2883557 1.926476 -2.675348e+38
7.3216472 -1.3019499 1.926476 -2.6619517e+38
7.3216133 -1.3155441 1.926476 -2.7154319e+38
7.3215795 -1.3291384 1.926476 -2.7549437e+38
7.3215456 -1.3427327 1.926476 -2.7419611e+38
7.3215113 -1.3563269 1.926476 -2.7150131e+38
7.3214774 -1.3699212 1.926476 -2.7017208e+38
7.3214436 -1.3835154 1.926476 -2.6751362e+38
7.3214092 -1.3971096 1.926476 -2.6352592e+38
7.3213754 -1.4107039 1.926476 -2.5952801e+38
7.3224969 -0.96209377 1.9128816 nan
7.472415 -0.9947772 1.9270246 nan
7.177475 -0.97055328 1.8992102 -3.3933368e+38
7.1774416 -0.98387134 1.8992102 -3.0745302e+38
7.322361 -1.0164708 1.9128816 -2.795185e+38
7.3223267 -1.0300651 1.9128816 -2.5163635e+38
7.3222928 -1.0436592 1.9128816 -2.689843e+38
7.3222589 -1.0572535 1.9128816 -2.8494023e+38
7.3222251 -1.0708477 1.9128816 -2.8229216e+38
7.1772418 -1.0637796 1.8992102 -2.7829391e+38
7.3221569 -1.0980363 1.9128816 -2.7431123e+38
7.3221231 -1.1116304 1.9128816 -2.6897876e+38
7.1771417 -1.1037338 1.8992102 -2.67634e+38
7.3220549 -1.138819 1.9128816 -2.6492859e+38
7.322021 -1.1524132 1.9128816 -2.6484531e+38
7.177042 -1.1436878 1.8992102 -2.6354724e+38
7.1770086 -1.1570059 1.8992102 -2.6221801e+38
7.1769753 -1.170324 1.8992102 -2.5954921e+38
7.1769423 -1.183642 1.8992102 -2.5955444e+38
7.176909 -1.1969601 1.8992102 -2.582512e+38
7.1768756 -1.2102782 1.8992102 -2.6093046e+38
7.1768422 -1.2235962 1.8992102 -2.6228056e+38
7.3217492 -1.2611672 1.9128816 -2.6895793e+38
7.3217154 -1.2747614 1.9128816 -2.7557288e+38
7.3216815 -1.2883557 1.9128816 -2.7288842e+38
7.3216472 -1.3019499 1.9128816 -2.6893197e+38
7.3216133 -1.3155441 1.9128816 -2.7828859e+38
7.3215795 -1.3291384 1.9128816 -2.8759826e+38
7.3215456 -1.3427327 1.9128816 -2.8627412e+38
7.3215113 -1.3563269 1.9128816 -2.8352178e+38
7.3214774 -1.3699212 1.9128816 -2.7948177e+38
7.3214436 -1.3835154 1.9128816 -2.7419086e+38
7.4724498 -0.98089719 1.9131446 nan
7.3224287 -0.98928231 1.8992875 nan
7.3223948 -1.0028765 1.8992875 -3.207818e+38
7.322361 -1.0164708 1.8992875 -2.9016814e+38
7.3223267 -1.0300651 1.8992875 -2.5959637e+38
7.3222928 -1.0436592 1.8992875 -2.7832023e+38
7.3222589 -1.0572535 1.8992875 -2.9827946e+38
7.3222251 -1.0708477 1.8992875 -2.9831585e+38
7.3221908 -1.084442 1.8992875 -2.9828462e+38
7.3221569 -1.0980363 1.8992875 -2.9166434e+38
7.3221231 -1.1116304 1.8992875 -2.8630572e+38
7.1771417 -1.1037338 1.8858922 -2.8363151e+38
7.3220549 -1.138819 1.8992875 -2.822606e+38
7.322021 -1.1524132 1.8992875 -2.7423317e+38
7.177042 -1.1436878 1.8858922 -2.6626295e+38
7.1770086 -1.1570059 1.8858922 -2.6356811e+38
7.176909 -1.1969601 1.8858922 -2.6093578e+38
7.1768756 -1.2102782 1.8858922 -2.6229105e+38
7.1768422 -1.2235962 1.8858922 -2.6366202e+38
7.1768088 -1.2369143 1.8858922 -2.7031874e+38
7.1767755 -1.2502323 1.8858922 -2.7695961e+38
7.3216815 -1.2883557 1.8992875 -2.7564068e+38
7.3216472 -1.3019499 1.8992875 -2.7563572e+38
7.3216133 -1.3155441 1.8992875 -2.9035089e+38
7.3215795 -1.3291384 1.8992875 -3.0634831e+38
7.3215456 -1.3427327 1.8992875 -2.8761964e+38
7.3215113 -1.3563269 1.8992875 -2.6891098e+38
7.3214774 -1.3699212 1.8992875 -3.0215123e+38
7.3214436 -1.3835154 1.8992875 -3.3539761e+38
7.3224287 -0.98928231 1.8856931 nan
7.3223948 -1.0028765 1.8856931 -3.3278155e+38
7.322361 -1.0164708 1.8856931 -3.0077617e+38
7.3223267 -1.0300651 1.8856931 -2.676498e+38
7.3222928 -1.0436592 1.8856931 -2.8908411e+38
7.3222589 -1.0572535 1.8856931 -3.103518e+38
7.3222251 -1.0708477 1.8856931 -3.1440704e+38
7.3221908 -1.084442 1.8856931 -3.1703948e+38
7.3221569 -1.0980363 1.8856931 -3.1041406e+38
7.3221231 -1.1116304 1.8856931 -3.0367945e+38
7.3220892 -1.1252247 1.8856931 -3.0098962e+38
7.3220549 -1.138819 1.8856931 -2.9826348e+38
7.1770754 -1.1303699 1.8725741 -2.8356391e+38
7.177042 -1.1436878 1.8725741 -2.6760266e+38
7.1770086 -1.1570059 1.8725741 -2.6623176e+38
7.1769753 -1.170324 1.8725741 -2.6355257e+38
7.1769423 -1.183642 1.8725741 -2.635578e+38
7.176909 -1.1969601 1.8725741 -2.6227022e+38
7.1768756 -1.2102782 1.8725741 -2.636307e+38
7.1768422 -1.2235962 1.8725741 -2.636828e+38
7.1768088 -1.2369143 1.8725741 -2.7036547e+38
7.1767755 -1.2502323 1.8725741 -2.7703766e+38
7.3216815 -1.2883557 1.8856931 -2.7973252e+38
7.3216472 -1.3019499 1.8856931 -2.8108787e+38
7.3216133 -1.3155441 1.8856931 -3.0378875e+38
7.1766424 -1.3035045 1.8725741 -3.2496268e+38
7.3215456 -1.3427327 1.8856931 -2.902727e+38
7.1765761 -1.3301407 1.8725741 -2.5431572e+38
7.1765428 -1.3434587 1.8725741 -3.2482159e+38
7.1765094 -1.3567767 1.8725741 nan
7.3223948 -1.0028765 1.8720988 -3.3944361e+38
7.472311 -1.036417 1.8853846 -3.0615553e+38
7.3223267 -1.0300651 1.8720988 -2.7430134e+38
7.3222928 -1.0436592 1.8720988 -2.8640511e+38
7.3222589 -1.0572535 1.8720988 -2.9842534e+38
7.3222251 -1.0708477 1.8720988 -3.011202e+38
7.3221908 -1.084442 1.8720988 -3.0384615e+38
7.3221569 -1.0980363 1.8720988 -3.0244943e+38
7.3221231 -1.1116304 1.8720988 -3.0239207e+38
7.3220892 -1.1252247 1.8720988 -3.0368469e+38
7.3220549 -1.138819 1.8720988 -3.0497215e+38
7.1770754 -1.1303699 1.859256 -2.8495562e+38
7.177042 -1.1436878 1.859256 -2.6632025e+38
7.1770086 -1.1570059 1.859256 -2.635733e+38
7.1769753 -1.170324 1.859256 -2.6221296e+38
7.1769423 -1.183642 1.859256 -2.6489222e+38
7.1768756 -1.2102782 1.859256 -2.6897359e+38
7.1768422 -1.2235962 1.859256 -2.7168415e+38
7.1768088 -1.2369143 1.859256 -2.7440508e+38
7.1767755 -1.2502323 1.859256 -2.7711049e+38
7.1767426 -1.2635503 1.859256 -2.8110878e+38
7.1767092 -1.2768685 1.859256 -2.8645695e+38
7.1766758 -1.2901865 1.859256 -3.050922e+38
7.1766424 -1.3035045 1.859256 -3.2367499e+38
7.176609 -1.3168226 1.859256 -2.902673e+38
7.1765761 -1.3301407 1.859256 -2.5819986e+38
7.1765428 -1.3434587 1.859256 -3.3288083e+38
7.4722762 -1.050297 1.8715045 -2.7964429e+38
7.4722419 -1.0641769 1.8715045 -2.8247965e+38
7.3222589 -1.0572535 1.8585045 -2.8512778e+38
7.3222251 -1.0708477 1.8585045 -2.8780188e+38
7.3221908 -1.084442 1.8585045 -2.904967e+38
7.3221569 -1.0980363 1.8585045 -2.9580325e+38
7.3221231 -1.1116304 1.8585045 -2.9977004e+38
7.3220892 -1.1252247 1.8585045 -3.0504531e+38
7.3220549 -1.138819 1.8585045 -3.1031519e+38
7.1770754 -1.1303699 1.8459378 -2.8762457e+38
7.177042 -1.1436878 1.8459378 -2.6363068e+38
7.1770086 -1.1570059 1.8459378 -2.6219215e+38
7.1769753 -1.170324 1.8459378 -2.5954927e+38
7.1769423 -1.183642 1.8459378 -2.662006e+38
7.176909 -1.1969601 1.8459378 -2.7159049e+38
7.1768756 -1.2102782 1.8459378 -2.7565117e+38
7.1768422 -1.2235962 1.8459378 -2.7836167e+38
7.1768088 -1.2369143 1.8459378 -2.7713124e+38
7.1767755 -1.2502323 1.8459378 -2.7580211e+38
7.1767426 -1.2635503 1.8459378 -2.8378797e+38
7.1767092 -1.2768685 1.8459378 -2.9178412e+38
7.1766758 -1.2901865 1.8459378 -3.0776605e+38
7.1766424 -1.3035045 1.8459378 -3.22304e+38
7.176609 -1.3168226 1.8459378 -2.9158071e+38
7.1765761 -1.3301407 1.8459378 -2.6099315e+38
7.1765428 -1.3434587 1.8459378 nan
7.4722762 -1.050297 1.8576245 -2.7695476e+38
7.4722419 -1.0641769 1.8576245 -2.8106205e+38
7.4722071 -1.0780569 1.8576245 -2.8641539e+38
7.3222251 -1.0708477 1.8449103 -2.8912583e+38
7.3221908 -1.084442 1.8449103 -2.931499e+38
7.3221569 -1.0980363 1.8449103 -2.971428e+38
7.3221231 -1.1116304 1.8449103 -3.0247533e+38
7.3220892 -1.1252247 1.8449103 -3.1173321e+38
7.3220549 -1.138819 1.8449103 -3.2102187e+38
7.322021 -1.1524132 1.8449103 -2.9430194e+38
7.177042 -1.1436878 1.8326198 -2.6629958e+38
7.1770086 -1.1570059 1.8326198 -2.675506e+38
7.1769753 -1.170324 1.8326198 -2.6752979e+38
7.1769423 -1.183642 1.8326198 -2.7021415e+38
7.176909 -1.1969601 1.8326198 -2.7425943e+38
7.1768756 -1.2102782 1.8326198 -2.8096315e+38
7.1768422 -1.2235962 1.8326198 -2.8896978e+38
7.1768088 -1.2369143 1.8326198 -2.8773928e+38
7.1767755 -1.2502323 1.8326198 -2.8511196e+38
7.1767426 -1.2635503 1.8326198 -2.9176847e+38
7.1767092 -1.2768685 1.8326198 -2.9842495e+38
7.1766758 -1.2901865 1.8326198 -3.1172757e+38
7.1766424 -1.3035045 1.8326198 -3.2631742e+38
7.176609 -1.3168226 1.8326198 -2.942389e+38
7.1765761 -1.3301407 1.8326198 -2.622028e+38
7.1765428 -1.3434587 1.8326198 -3.2490532e+38
7.4722419 -1.0641769 1.8437445 -2.8106193e+38
7.4722071 -1.0780569 1.8437445 -2.8777048e+38
7.3222251 -1.0708477 1.831316 -2.9178944e+38
7.3221908 -1.084442 1.831316 -2.944687e+38
7.3221569 -1.0980363 1.831316 -2.9980643e+38
7.3221231 -1.1116304 1.831316 -3.0378379e+38
7.3220892 -1.1252247 1.831316 -3.1839499e+38
7.3220549 -1.138819 1.831316 -3.3165054e+38
7.322021 -1.1524132 1.831316 -3.0093772e+38
7.177042 -1.1436878 1.8193016 -2.6896319e+38
7.1770086 -1.1570059 1.8193016 -2.7285185e+38
7.1769753 -1.170324 1.8193016 -2.7551552e+38
7.1769423 -1.183642 1.8193016 -2.7553112e+38
7.176909 -1.1969601 1.8193016 -2.7559902e+38
7.1768756 -1.2102782 1.8193016 -2.8762998e+38
7.1768422 -1.2235962 1.8193016 -2.9964514e+38
7.1768088 -1.2369143 1.8193016 -2.9708552e+38
7.1767755 -1.2502323 1.8193016 -2.9441662e+38
7.1767426 -1.2635503 1.8193016 -2.9973866e+38
7.1767092 -1.2768685 1.8193016 -3.0507115e+38
7.1766758 -1.2901865 1.8193016 -3.1704978e+38
7.1766424 -1.3035045 1.8193016 -3.2894487e+38
7.176609 -1.3168226 1.8193016 -2.9551639e+38
7.1765761 -1.3301407 1.8193016 -2.6227028e+38
7.1765428 -1.3434587 1.8193016 -3.0756802e+38
7.4722419 -1.0641769 1.8298645 -2.79717e+38
7.4722071 -1.0780569 1.8298645 -2.8915155e+38
7.3222251 -1.0708477 1.8177216 -2.931238e+38
7.3221908 -1.084442 1.8177216 -2.9844596e+38
7.3221569 -1.0980363 1.8177216 -3.0510255e+38
7.3221231 -1.1116304 1.8177216 -3.117436e+38
7.3220892 -1.1252247 1.8177216 -3.2240348e+38
7.1771088 -1.1170517 1.8059835 -3.3439728e+38
7.322021 -1.1524132 1.8177216 -3.0365848e+38
7.177042 -1.1436878 1.8059835 -2.7297679e+38
7.1770086 -1.1570059 1.8059835 -2.728881e+38
7.1769753 -1.170324 1.8059835 -2.7418108e+38
7.1769423 -1.183642 1.8059835 -2.7953442e+38
7.176909 -1.1969601 1.8059835 -2.849036e+38
7.1768756 -1.2102782 1.8059835 -2.9028836e+38
7.1768088 -1.2369143 1.8059835 -2.9704406e+38
7.1767755 -1.2502323 1.8059835 -2.9705956e+38
7.1767426 -1.2635503 1.8059835 -3.0106272e+38
7.1767092 -1.2768685 1.8059835 -3.0639005e+38
7.1766758 -1.2901865 1.8059835 -3.1306737e+38
7.1766424 -1.3035045 1.8059835 -3.1973906e+38
7.176609 -1.3168226 1.8059835 -3.0886597e+38
7.1765761 -1.3301407 1.8059835 -2.9677826e+38
7.1765428 -1.3434587 1.8059835 -3.314264e+38
7.4722419 -1.0641769 1.8159845 -2.7840865e+38
7.4722071 -1.0780569 1.8159845 -2.8909973e+38
7.3222251 -1.0708477 1.8041275 -2.957668e+38
7.3221908 -1.084442 1.8041275 -3.0243371e+38
7.3221569 -1.0980363 1.8041275 -3.1041948e+38
7.3221231 -1.1116304 1.8041275 -3.1840525e+38
7.3220892 -1.1252247 1.8041275 -3.2773064e+38
7.3220549 -1.138819 1.8041275 -3.3565899e+38
7.322021 -1.1524132 1.8041275 -3.0631187e+38
7.3219872 -1.1660075 1.8041275 -2.7563535e+38
7.3219533 -1.1796018 1.8041275 -2.7419147e+38
7.321919 -1.1931959 1.8041275 -2.7287794e+38
7.1769423 -1.183642 1.7926655 -2.8352229e+38
7.176909 -1.1969601 1.7926655 -2.942083e+38
7.1768756 -1.2102782 1.7926655 -2.9429683e+38
7.1768422 -1.2235962 1.7926655 -2.9300413e+38
7.1768088 -1.2369143 1.7926655 -2.9703875e+38
7.1767755 -1.2502323 1.7926655 -2.9971272e+38
7.1767426 -1.2635503 1.7926655 -3.0371594e+38
7.1767092 -1.2768685 1.7926655 -3.0640557e+38
7.1766758 -1.2901865 1.7926655 -3.0909001e+38
7.1766424 -1.3035045 1.7926655 -3.1032537e+38
7.3215456 -1.3427327 1.8041275 -3.2077706e+38
7.3215113 -1.3563269 1.8041275 -3.3144202e+38
7.3214774 -1.3699212 1.8041275 nan
7.4722419 -1.0641769 1.8021045 -2.8236008e+38
7.4722071 -1.0780569 1.8021045 -2.9307715e+38
7.3222251 -1.0708477 1.7905331 -2.9843055e+38
7.3221908 -1.084442 1.7905331 -3.0243898e+38
7.3221569 -1.0980363 1.7905331 -3.104195e+38
7.3221231 -1.1116304 1.7905331 -3.1973442e+38
7.3220892 -1.1252247 1.7905331 -3.2902855e+38
7.3220549 -1.138819 1.7905331 -3.3962589e+38
7.322021 -1.1524132 1.7905331 -3.0894965e+38
7.177042 -1.1436878 1.7793474 -2.7696468e+38
7.3219533 -1.1796018 1.7905331 -2.7823635e+38
7.1769753 -1.170324 1.7793474 -2.7956056e+38
7.1769423 -1.183642 1.7793474 -2.8487247e+38
7.176909 -1.1969601 1.7793474 -2.915136e+38
7.1768756 -1.2102782 1.7793474 -2.9027799e+38
7.1768422 -1.2235962 1.7793474 -2.9034561e+38
7.1768088 -1.2369143 1.7793474 -2.9570419e+38
7.1767755 -1.2502323 1.7793474 -2.9971264e+38
7.1767426 -1.2635503 1.7793474 -3.0506071e+38
7.1767092 -1.2768685 1.7793474 -3.1040877e+38
7.1766758 -1.2901865 1.7793474 -3.090432e+38
7.1766424 -1.3035045 1.7793474 -3.0631686e+38
7.3215456 -1.3427327 1.7905331 -3.2218411e+38
7.4714437 -1.3834159 1.8021045 -3.3818681e+38
7.4722419 -1.0641769 1.7882245 -2.8637363e+38
7.4722071 -1.0780569 1.7882245 -2.9705954e+38
7.3222251 -1.0708477 1.7769388 -2.9978044e+38
7.3221908 -1.084442 1.7769388 -3.0243371e+38
7.3221569 -1.0980363 1.7769388 -3.1174869e+38
7.3221231 -1.1116304 1.7769388 -3.1971884e+38
7.3220892 -1.1252247 1.7769388 -3.3167668e+38
7.3220549 -1.138819 1.7769388 nan
7.322021 -1.1524132 1.7769388 -3.1156647e+38
7.3219872 -1.1660075 1.7769388 -2.7829393e+38
7.3219533 -1.1796018 1.7769388 -2.8223458e+38
7.321919 -1.1931959 1.7769388 -2.8490875e+38
7.3218851 -1.2067902 1.7769388 -2.8622776e+38
7.3218513 -1.2203844 1.7769388 -2.8755711e+38
7.3218174 -1.2339786 1.7769388 -2.8760398e+38
7.1768422 -1.2235962 1.7660294 -2.8768195e+38
7.3217492 -1.2611672 1.7769388 -2.9438011e+38
7.1767755 -1.2502323 1.7660294 -2.99723e+38
7.1767426 -1.2635503 1.7660294 -3.0773472e+38
7.3216472 -1.3019499 1.7769388 -3.1436524e+38
7.3216133 -1.3155441 1.7769388 -3.0902752e+38
7.3215795 -1.3291384 1.7769388 -3.0229779e+38
7.4714785 -1.3695362 1.7882245 -3.2345073e+38
7.4714437 -1.3834159 1.7882245 nan
7.4722762 -1.050297 1.7743444 -3.0756311e+38
7.4722419 -1.0641769 1.7743444 -3.0630675e+38
7.4722071 -1.0780569 1.7743444 -3.0367962e+38
7.3222251 -1.0708477 1.7633445 -3.0505572e+38
7.3221908 -1.084442 1.7633445 -3.0640575e+38
7.3221569 -1.0980363 1.7633445 -3.130623e+38
7.3221231 -1.1116304 1.7633445 -3.1970329e+38
7.3220892 -1.1252247 1.7633445 -3.2103253e+38
7.3220549 -1.138819 1.7633445 -3.2235107e+38
7.322021 -1.1524132 1.7633445 -3.0760465e+38
7.3219872 -1.1660075 1.7633445 -2.9291548e+38
7.3219533 -1.1796018 1.7633445 -3.0488873e+38
7.321919 -1.1931959 1.7633445 -3.1686748e+38
7.3218851 -1.2067902 1.7633445 -2.9021552e+38
7.3218513 -1.2203844 1.7633445 -2.6493952e+38
7.3218174 -1.2339786 1.7633445 -2.7432728e+38
7.3217831 -1.247573 1.7633445 -2.8504426e+38
7.3217492 -1.2611672 1.7633445 -2.9039758e+38
7.1767755 -1.2502323 1.7527112 -2.970697e+38
7.1767426 -1.2635503 1.7527112 -3.0371586e+38
7.3216472 -1.3019499 1.7633445 -3.1034634e+38
7.3216133 -1.3155441 1.7633445 -3.0367935e+38
7.3215795 -1.3291384 1.7633445 -2.969703e+38
7.4714785 -1.3695362 1.7743444 -3.3151404e+38
7.4714437 -1.3834159 1.7743444 nan
7.4722762 -1.050297 1.7604645 nan
7.4722419 -1.0641769 1.7604645 -3.2628156e+38
7.3222589 -1.0572535 1.7497503 -3.1032575e+38
7.3222251 -1.0708477 1.7497503 -3.1035703e+38
7.3221908 -1.084442 1.7497503 -3.0904859e+38
7.3221569 -1.0980363 1.7497503 -3.143811e+38
7.3221231 -1.1116304 1.7497503 -3.1837402e+38
7.3220892 -1.1252247 1.7497503 -3.104039e+38
7.3220549 -1.138819 1.7497503 -3.0105738e+38
7.322021 -1.1524132 1.7497503 -3.0492007e+38
7.3219872 -1.1660075 1.7497503 -3.0756286e+38
7.3219533 -1.1796018 1.7497503 -3.288668e+38
7.321919 -1.1931959 1.7497503 nan
7.3218851 -1.2067902 1.7497503 -2.9549092e+38
7.3218513 -1.2203844 1.7497503 -2.4104459e+38
7.3218174 -1.2339786 1.7497503 -2.6105581e+38
7.3217831 -1.247573 1.7497503 -2.8106177e+38
7.3217492 -1.2611672 1.7497503 -2.8774949e+38
7.1767755 -1.2502323 1.7393931 -2.9440603e+38
7.1767426 -1.2635503 1.7393931 -2.9971777e+38
7.3216472 -1.3019499 1.7497503 -3.0503462e+38
7.3216133 -1.3155441 1.7497503 -2.9837804e+38
7.3215795 -1.3291384 1.7497503 -2.9032411e+38
7.4714785 -1.3695362 1.7604645 -3.3817046e+38
7.4714437 -1.3834159 1.7604645 nan
7.4722762 -1.050297 1.7465845 nan
7.4722419 -1.0641769 1.7465845 -3.2359199e+38
7.4722071 -1.0780569 1.7465845 -2.9698676e+38
7.3222251 -1.0708477 1.736156 -3.0102645e+38
7.3221908 -1.084442 1.736156 -3.0637454e+38
7.3221569 -1.0980363 1.736156 -3.1038299e+38
7.3221231 -1.1116304 1.736156 -3.1439151e+38
7.3220892 -1.1252247 1.736156 -3.0642139e+38
7.3220549 -1.138819 1.736156 -2.997748e+38
7.322021 -1.1524132 1.736156 -3.0760951e+38
7.3219872 -1.1660075 1.736156 -3.155174e+38
7.3219533 -1.1796018 1.736156 -3.3549738e+38
7.321919 -1.1931959 1.736156 nan
7.3218851 -1.2067902 1.736156 -2.9420325e+38
7.3218513 -1.2203844 1.736156 -2.3574328e+38
7.3218174 -1.2339786 1.736156 -2.5974737e+38
7.3217831 -1.247573 1.736156 -2.8375657e+38
7.3217492 -1.2611672 1.736156 -2.904079e+38
7.3217154 -1.2747614 1.736156 -2.9706964e+38
7.3216815 -1.2883557 1.736156 -3.0105215e+38
7.3216472 -1.3019499 1.736156 -3.0505539e+38
7.3216133 -1.3155441 1.736156 -2.9036115e+38
7.3215795 -1.3291384 1.736156 -2.769591e+38
7.4714785 -1.3695362 1.7465845 -3.3555863e+38
7.4714437 -1.3834159 1.7465845 nan
7.4722071 -1.0780569 1.7327045 -2.8235996e+38
7.3222251 -1.0708477 1.7225616 -2.9304585e+38
7.3221908 -1.084442 1.7225616 -3.0370566e+38
7.3221569 -1.0980363 1.7225616 -3.0637971e+38
7.3221231 -1.1116304 1.7225616 -3.0906419e+38
7.3220892 -1.1252247 1.7225616 -3.0376809e+38
7.3220549 -1.138819 1.7225616 -2.9706964e+38
7.322021 -1.1524132 1.7225616 -3.1023175e+38
7.3219872 -1.1660075 1.7225616 -3.2351881e+38
7.3219533 -1.1796018 1.7225616 nan
7.321919 -1.1931959 1.7225616 nan
7.3218851 -1.2067902 1.7225616 -2.9415656e+38
7.3218513 -1.2203844 1.7225616 -2.2911274e+38
7.3218174 -1.2339786 1.7225616 -2.5709932e+38
7.3217831 -1.247573 1.7225616 -2.8505988e+38
7.3217492 -1.2611672 1.7225616 -2.9306125e+38
7.3217154 -1.2747614 1.7225616 -2.9971254e+38
7.3216815 -1.2883557 1.7225616 -3.0236578e+38
7.3216472 -1.3019499 1.7225616 -3.0368454e+38
7.3216133 -1.3155441 1.7225616 -2.8369933e+38
7.3215795 -1.3291384 1.7225616 -2.6372923e+38
7.4714785 -1.3695362 1.7327045 -3.3295241e+38
7.4722071 -1.0780569 1.7188245 -2.8497159e+38
7.4721723 -1.0919369 1.7188245 -2.9435425e+38
7.3221908 -1.084442 1.7089674 -3.0503485e+38
7.3221569 -1.0980363 1.7089674 -3.0504527e+38
7.3221231 -1.1116304 1.7089674 -3.0639531e+38
7.3220892 -1.1252247 1.7089674 -3.0375247e+38
7.3220549 -1.138819 1.7089674 -3.0241774e+38
7.322021 -1.1524132 1.7089674 -3.1160261e+38
7.3219872 -1.1660075 1.7089674 -3.2214294e+38
7.3219533 -1.1796018 1.7089674 -3.3950072e+38
7.321919 -1.1931959 1.7089674 nan
7.3218851 -1.2067902 1.7089674 -3.0087541e+38
7.3218513 -1.2203844 1.7089674 -2.4509465e+38
7.3218174 -1.2339786 1.7089674 -2.6772276e+38
7.3217831 -1.247573 1.7089674 -2.8903202e+38
7.3217492 -1.2611672 1.7089674 -2.9437496e+38
7.3217154 -1.2747614 1.7089674 -3.0103142e+38
7.3216815 -1.2883557 1.7089674 -3.0236057e+38
7.3216472 -1.3019499 1.7089674 -3.0500852e+38
7.3216133 -1.3155441 1.7089674 -2.8499209e+38
7.4715133 -1.3556561 1.7188245 -2.6631508e+38
7.4714785 -1.3695362 1.7188245 -3.3293192e+38
7.4722071 -1.0780569 1.7049445 -2.8631643e+38
7.4721723 -1.0919369 1.7049445 -2.9568348e+38
7.3221908 -1.084442 1.6953731 -3.0501406e+38
7.3221569 -1.0980363 1.6953731 -3.0370042e+38
7.3221231 -1.1116304 1.6953731 -3.0240233e+38
7.3220892 -1.1252247 1.6953731 -3.0507636e+38
7.3220549 -1.138819 1.6953731 -3.0637939e+38
7.322021 -1.1524132 1.6953731 -3.1294742e+38
7.3219872 -1.1660075 1.6953731 -3.1956756e+38
7.3219533 -1.1796018 1.6953731 -3.3819748e+38
7.321919 -1.1931959 1.6953731 nan
7.3218851 -1.2067902 1.6953731 -3.0878847e+38
7.3218513 -1.2203844 1.6953731 -2.6100384e+38
7.3218174 -1.2339786 1.6953731 -2.7701178e+38
7.3217831 -1.247573 1.6953731 -2.930145e+38
7.3217492 -1.2611672 1.6953731 -2.9703859e+38
7.3217154 -1.2747614 1.6953731 -3.010314e+38
7.3216815 -1.2883557 1.6953731 -3.0369497e+38
7.3216472 -1.3019499 1.6953731 -3.0497211e+38
7.3216133 -1.3155441 1.6953731 -2.862693e+38
7.4715133 -1.3556561 1.7049445 -2.6768572e+38
7.4714785 -1.3695362 1.7049445 -3.316337e+38
7.4721723 -1.0919369 1.6910645 -2.9299387e+38
7.4721375 -1.1058168 1.6910645 -3.0499846e+38
7.3221569 -1.0980363 1.6817788 -3.0370556e+38
7.3221231 -1.1116304 1.6817788 -3.0373665e+38
7.3220892 -1.1252247 1.6817788 -3.0374178e+38
7.3220549 -1.138819 1.6817788 -3.0507087e+38
7.322021 -1.1524132 1.6817788 -3.1297857e+38
7.3219872 -1.1660075 1.6817788 -3.2226236e+38
7.3219533 -1.1796018 1.6817788 -3.3288057e+38
7.321919 -1.1931959 1.6817788 nan
7.3218851 -1.2067902 1.6817788 -3.1149885e+38
7.3218513 -1.2203844 1.6817788 -2.7824746e+38
7.3218174 -1.2339786 1.6817788 -2.8498195e+38
7.3217831 -1.247573 1.6817788 -2.9301969e+38
7.3217492 -1.2611672 1.6817788 -2.9703857e+38
7.3217154 -1.2747614 1.6817788 -3.0103657e+38
7.3216815 -1.2883557 1.6817788 -3.0235014e+38
7.3216472 -1.3019499 1.6817788 -3.0364282e+38
7.3216133 -1.3155441 1.6817788 -2.9556339e+38
7.4715133 -1.3556561 1.6910645 -2.8887017e+38
7.4714785 -1.3695362 1.6910645 nan
7.4721723 -1.0919369 1.6771846 -2.9035099e+38
7.4721375 -1.1058168 1.6771846 -3.0367962e+38
7.4721031 -1.1196969 1.6771846 -3.0371596e+38
7.3221231 -1.1116304 1.6681845 -3.0373148e+38
7.3220892 -1.1252247 1.6681845 -3.0373663e+38
7.3220549 -1.138819 1.6681845 -3.037261e+38
7.322021 -1.1524132 1.6681845 -3.1429748e+38
7.3219872 -1.1660075 1.6681845 -3.2359682e+38
7.4718947 -1.2029766 1.6771846 -3.2889809e+38
7.321919 -1.1931959 1.6681845 -3.341631e+38
7.4718256 -1.2307365 1.6771846 -3.1413643e+38
7.4717908 -1.2446165 1.6771846 -2.9422933e+38
7.3218174 -1.2339786 1.6681845 -2.9298334e+38
7.3217831 -1.247573 1.6681845 -2.9170086e+38
7.3217492 -1.2611672 1.6681845 -2.9705416e+38
7.3217154 -1.2747614 1.6681845 -3.0103136e+38
7.3216815 -1.2883557 1.6681845 -3.023553e+38
7.3216472 -1.3019499 1.6681845 -3.022564e+38
7.4715476 -1.3417761 1.6771846 -3.0612442e+38
7.4715133 -1.3556561 1.6771846 -3.088656e+38
7.4721375 -1.1058168 1.6633046 -3.0500884e+38
7.4721031 -1.1196969 1.6633046 -3.0636922e+38
7.3221231 -1.1116304 1.6545902 -3.0904841e+38
7.3220892 -1.1252247 1.6545902 -3.0773991e+38
7.3220549 -1.138819 1.6545902 -3.0642094e+38
7.4719644 -1.1752167 1.6633046 -3.1165464e+38
7.4719296 -1.1890966 1.6633046 -3.1828514e+38
7.4718947 -1.2029766 1.6633046 -3.2091236e+38
7.4718599 -1.2168566 1.6633046 -3.2355001e+38
7.4718256 -1.2307365 1.6633046 -2.9954077e+38
7.3218513 -1.2203844 1.6545902 -2.7692856e+38
7.3218174 -1.2339786 1.6545902 -2.8103071e+38
7.3217831 -1.247573 1.6545902 -2.8639957e+38
7.3217492 -1.2611672 1.6545902 -2.8906843e+38
7.3217154 -1.2747614 1.6545902 -2.9304561e+38
7.3216815 -1.2883557 1.6545902 -2.8900067e+38
7.3216472 -1.3019499 1.6545902 -2.8627443e+38
7.4715476 -1.3417761 1.6633046 -3.0350738e+38
7.4721375 -1.1058168 1.6494246 -3.0632771e+38
7.4721031 -1.1196969 1.6494246 -3.1035703e+38
7.3221231 -1.1116304 1.640996 -3.1306214e+38
7.3220892 -1.1252247 1.640996 -3.10414e+38
7.3220549 -1.138819 1.640996 -3.07719e+38
7.4719644 -1.1752167 1.6494246 -3.1026821e+38
7.4719296 -1.1890966 1.6494246 -3.1292661e+38
7.4718947 -1.2029766 1.6494246 -3.1292136e+38
7.4718599 -1.2168566 1.6494246 -3.1155568e+38
7.4718256 -1.2307365 1.6494246 -2.8620679e+38
7.3218513 -1.2203844 1.640996 -2.5970048e+38
7.3218174 -1.2339786 1.640996 -2.7045928e+38
7.3217831 -1.247573 1.640996 -2.7975862e+38
7.4716868 -1.2862563 1.6494246 -2.8242223e+38
7.3217154 -1.2747614 1.640996 -2.8371497e+38
7.3216815 -1.2883557 1.640996 -2.7697521e+38
7.4715824 -1.3278962 1.6494246 -2.6898925e+38
7.4721375 -1.1058168 1.6355445 -3.0364333e+38
7.4721031 -1.1196969 1.6355445 -3.0639541e+38
7.4720683 -1.1335768 1.6355445 -3.0913167e+38
7.4720335 -1.1474566 1.6355445 -3.0776599e+38
7.3220549 -1.138819 1.6274016 -3.0642612e+38
7.4719644 -1.1752167 1.6355445 -3.1162332e+38
7.4719296 -1.1890966 1.6355445 -3.1687267e+38
7.4718947 -1.2029766 1.6355445 -3.1556935e+38
7.4718599 -1.2168566 1.6355445 -3.1556401e+38
7.4718256 -1.2307365 1.6355445 -2.955787e+38
7.4717908 -1.2446165 1.6355445 -2.7565115e+38
7.471756 -1.2584964 1.6355445 -2.7838798e+38
7.4717212 -1.2723763 1.6355445 -2.8107229e+38
7.4716868 -1.2862563 1.6355445 -2.8241698e+38
7.471652 -1.3001362 1.6355445 -2.8508046e+38
7.4716172 -1.3140162 1.6355445 -2.7701145e+38
7.4715824 -1.3278962 1.6355445 -2.7032363e+38
7.4721375 -1.1058168 1.6216645 -2.9969203e+38
7.4721031 -1.1196969 1.6216645 -3.024389e+38
7.4720683 -1.1335768 1.6216645 -3.051077e+38
7.4720335 -1.1474566 1.6216645 -3.0509727e+38
7.4719987 -1.1613367 1.6216645 -3.0506582e+38
7.4719644 -1.1752167 1.6216645 -3.1293186e+38
7.4719296 -1.1890966 1.6216645 -3.195675e+38
7.4718947 -1.2029766 1.6216645 -3.1957776e+38
7.4718599 -1.2168566 1.6216645 -3.1821732e+38
7.4718256 -1.2307365 1.6216645 -3.0488342e+38
7.4717908 -1.2446165 1.6216645 -2.9162266e+38
7.471756 -1.2584964 1.6216645 -2.8636842e+38
7.4717212 -1.2723763 1.6216645 -2.8107738e+38
7.4716868 -1.2862563 1.6216645 -2.8375653e+38
7.471652 -1.3001362 1.6216645 -2.8503888e+38
7.4716172 -1.3140162 1.6216645 -2.7831472e+38
7.4715824 -1.3278962 1.6216645 -2.7165282e+38
7.4721375 -1.1058168 1.6077845 -2.9704919e+38
7.4721031 -1.1196969 1.6077845 -3.0241815e+38
7.3221231 -1.1116304 1.6002131 -3.0908506e+38
7.4720335 -1.1474566 1.6077845 -3.064318e+38
7.4719987 -1.1613367 1.6077845 -3.0510226e+38
7.4719644 -1.1752167 1.6077845 -3.1163385e+38
7.4719296 -1.1890966 1.6077845 -3.1825906e+38
7.4718947 -1.2029766 1.6077845 -3.182433e+38
7.4718599 -1.2168566 1.6077845 -3.1955178e+38
7.4718256 -1.2307365 1.6077845 -3.0623354e+38
7.4717908 -1.2446165 1.6077845 -2.9294669e+38
7.471756 -1.2584964 1.6077845 -2.8769231e+38
7.4717212 -1.2723763 1.6077845 -2.8242209e+38
7.4716868 -1.2862563 1.6077845 -2.8373568e+38
7.3217154 -1.2747614 1.6002131 -2.8501807e+38
7.4716172 -1.3140162 1.6077845 -2.7432701e+38
7.4715824 -1.3278962 1.6077845 -2.6497546e+38
7.4721723 -1.0919369 1.5939045 -2.8901647e+38
7.4721375 -1.1058168 1.5939045 -2.9304585e+38
7.4721031 -1.1196969 1.5939045 -3.0242851e+38
7.3221231 -1.1116304 1.5866188 -3.1173317e+38
7.3220892 -1.1252247 1.5866188 -3.0776113e+38
7.3220549 -1.138819 1.5866188 -3.0372635e+38
7.4719644 -1.1752167 1.5939045 -3.1024751e+38
7.4719296 -1.1890966 1.5939045 -3.1558502e+38
7.4718947 -1.2029766 1.5939045 -3.1823293e+38
7.4718599 -1.2168566 1.5939045 -3.1954143e+38
7.4718256 -1.2307365 1.5939045 -3.0621283e+38
7.4717908 -1.2446165 1.5939045 -2.9295708e+38
7.471756 -1.2584964 1.5939045 -2.890319e+38
7.3217831 -1.247573 1.5866188 -2.8373051e+38
7.3217492 -1.2611672 1.5866188 -2.8506487e+38
7.3217154 -1.2747614 1.5866188 -2.8500761e+38
7.4716172 -1.3140162 1.5939045 -2.7164771e+38
7.4715824 -1.3278962 1.5939045 -2.5701028e+38
7.4721723 -1.0919369 1.5800245 -2.9031444e+38
7.4721375 -1.1058168 1.5800245 -2.9565752e+38
7.4721031 -1.1196969 1.5800245 -3.0236617e+38
7.3221231 -1.1116304 1.5730245 -3.090436e+38
7.3220892 -1.1252247 1.5730245 -3.0640085e+38
7.3220549 -1.138819 1.5730245 -3.0508158e+38
7.4719644 -1.1752167 1.5800245 -3.089598e+38
7.4718599 -1.2168566 1.5800245 -3.1688821e+38
7.4718256 -1.2307365 1.5800245 -3.0622846e+38
7.4717908 -1.2446165 1.5800245 -2.9559478e+38
7.3218174 -1.2339786 1.5730245 -2.9033513e+38
7.3217831 -1.247573 1.5730245 -2.850545e+38
7.3217492 -1.2611672 1.5730245 -2.8370442e+38
7.3217154 -1.2747614 1.5730245 -2.823439e+38
7.3216815 -1.2883557 1.5730245 -2.7032359e+38
7.4715824 -1.3278962 1.5800245 -2.596322e+38
7.4715476 -1.3417761 1.5800245 -3.1954565e+38
7.4715133 -1.3556561 1.5800245 nan
7.4722071 -1.0780569 1.5661445 -2.8630077e+38
7.4721723 -1.0919369 1.5661445 -2.9163332e+38
7.4721375 -1.1058168 1.5661445 -2.9698672e+38
7.3221569 -1.0980363 1.5594302 -3.0101092e+38
7.3221231 -1.1116304 1.5594302 -3.0501933e+38
7.4720335 -1.1474566 1.5661445 -3.0636929e+38
7.4719987 -1.1613367 1.5661445 -3.063275e+38
7.4719644 -1.1752167 1.5661445 -3.075682e+38
7.4718599 -1.2168566 1.5661445 -3.1422971e+38
7.4718256 -1.2307365 1.5661445 -3.0621806e+38
7.4717908 -1.2446165 1.5661445 -2.9692395e+38
7.3218174 -1.2339786 1.5594302 -2.9164868e+38
7.3217831 -1.247573 1.5594302 -2.8501805e+38
7.3217492 -1.2611672 1.5594302 -2.8235434e+38
7.3217154 -1.2747614 1.5594302 -2.783406e+38
7.3216815 -1.2883557 1.5594302 -2.7032357e+38
7.3216472 -1.3019499 1.5594302 -2.6098748e+38
7.4715476 -1.3417761 1.5661445 -3.2755236e+38
7.4715133 -1.3556561 1.5661445 nan
7.4722071 -1.0780569 1.5522645 -2.770222e+38
7.4721723 -1.0919369 1.5522645 -2.8633201e+38
7.3221908 -1.084442 1.545836 -2.956575e+38
7.3221569 -1.0980363 1.545836 -2.9833163e+38
7.3221231 -1.1116304 1.545836 -3.0098988e+38
7.4720335 -1.1474566 1.5522645 -2.9567275e+38
7.4719987 -1.1613367 1.5522645 -2.9166941e+38
7.4718256 -1.2307365 1.5522645 -3.0224074e+38
7.4717908 -1.2446165 1.5522645 -2.7961277e+38
7.3218174 -1.2339786 1.545836 -2.7965437e+38
7.3217831 -1.247573 1.545836 -2.7835106e+38
7.3217492 -1.2611672 1.545836 -2.7701658e+38
7.1767755 -1.2502323 1.5396216 -2.7700612e+38
7.3216815 -1.2883557 1.545836 -2.6763394e+38
7.3216472 -1.3019499 1.545836 -2.5955448e+38
7.4715476 -1.3417761 1.5522645 -3.2221486e+38
7.4715133 -1.3556561 1.5522645 nan
7.4721723 -1.0919369 1.5383844 -2.810099e+38
7.4721375 -1.1058168 1.5383844 -2.9432301e+38
7.4721031 -1.1196969 1.5383844 -2.9565752e+38
7.4720683 -1.1335768 1.5383844 -2.9565733e+38
7.4720335 -1.1474566 1.5383844 -2.8631621e+38
7.4719987 -1.1613367 1.5383844 -2.7702188e+38
7.4719644 -1.1752167 1.5383844 -3.1290574e+38
7.4717908 -1.2446165 1.5383844 -2.6234317e+38
7.3218174 -1.2339786 1.5322416 -2.6768089e+38
7.3217831 -1.247573 1.5322416 -2.7168413e+38
7.3217492 -1.2611672 1.5322416 -2.7301334e+38
7.1767755 -1.2502323 1.5263035 -2.7432691e+38
7.3216815 -1.2883557 1.5322416 -2.6630473e+38
7.3216472 -1.3019499 1.5322416 -2.5698428e+38
7.4715476 -1.3417761 1.5383844 -3.1827386e+38
7.4722419 -1.0641769 1.5245045 -3.3022744e+38
7.4722071 -1.0780569 1.5245045 -2.6365713e+38
7.4721723 -1.0919369 1.5245045 -2.7701701e+38
7.4721375 -1.1058168 1.5245045 -2.9033529e+38
7.4721031 -1.1196969 1.5245045 -2.9166973e+38
7.3221231 -1.1116304 1.5186474 -2.930092e+38
7.4720335 -1.1474566 1.5245045 -2.8766617e+38
7.4719987 -1.1613367 1.5245045 -2.8232317e+38
7.4719644 -1.1752167 1.5245045 -3.2087583e+38
7.4717908 -1.2446165 1.5245045 -2.583191e+38
7.3218174 -1.2339786 1.5186474 -2.6633605e+38
7.3217831 -1.247573 1.5186474 -2.7300815e+38
7.3217492 -1.2611672 1.5186474 -2.7433219e+38
7.1767755 -1.2502323 1.5129855 -2.7566133e+38
7.3216815 -1.2883557 1.5186474 -2.6495993e+38
7.3216472 -1.3019499 1.5186474 -2.5291349e+38
7.4715476 -1.3417761 1.5245045 -3.1821671e+38
7.4722419 -1.0641769 1.5106245 -3.3152558e+38
7.4722071 -1.0780569 1.5106245 -2.5972658e+38
7.4721723 -1.0919369 1.5106245 -2.7307088e+38
7.4721375 -1.1058168 1.5106245 -2.8635276e+38
7.4721031 -1.1196969 1.5106245 -2.8901121e+38
7.4720683 -1.1335768 1.5106245 -2.903403e+38
7.4720335 -1.1474566 1.5106245 -2.8900576e+38
7.4719987 -1.1613367 1.5106245 -2.8631599e+38
7.4719644 -1.1752167 1.5106245 -3.2884593e+38
7.4717908 -1.2446165 1.5106245 -2.5431061e+38
7.471756 -1.2584964 1.5106245 -2.6500163e+38
7.3217831 -1.247573 1.505053 -2.7432178e+38
7.3217492 -1.2611672 1.505053 -2.7565099e+38
7.3217154 -1.2747614 1.505053 -2.7696456e+38
7.3216815 -1.2883557 1.505053 -2.6362549e+38
7.3216472 -1.3019499 1.505053 -2.4900369e+38
7.4715476 -1.3417761 1.5106245 -3.1954598e+38
7.4722419 -1.0641769 1.4967445 -3.3155677e+38
7.4722071 -1.0780569 1.4967445 -2.7033448e+38
7.4721723 -1.0919369 1.4967445 -2.7969106e+38
7.4721375 -1.1058168 1.4967445 -2.89006e+38
7.3221569 -1.0980363 1.4914588 -2.9034555e+38
7.3221231 -1.1116304 1.4914588 -2.916643e+38
7.3220892 -1.1252247 1.4914588 -2.8367842e+38
7.4719987 -1.1613367 1.4967445 -2.7566652e+38
7.4719644 -1.1752167 1.4967445 -3.2624449e+38
7.4717908 -1.2446165 1.4967445 -2.5958075e+38
7.471756 -1.2584964 1.4967445 -2.6897373e+38
7.3217831 -1.247573 1.4914588 -2.7831464e+38
7.3217492 -1.2611672 1.4914588 -2.8097824e+38
7.3217154 -1.2747614 1.4914588 -2.849451e+38
7.3216815 -1.2883557 1.4914588 -2.7161639e+38
7.4715824 -1.3278962 1.4967445 -2.5961158e+38
7.4722419 -1.0641769 1.4828645 -3.3148915e+38
7.4722071 -1.0780569 1.4828645 -2.7965459e+38
7.4721723 -1.0919369 1.4828645 -2.8635282e+38
7.4721375 -1.1058168 1.4828645 -2.9168005e+38
7.3221569 -1.0980363 1.4778645 -2.9302482e+38
7.3221231 -1.1116304 1.4778645 -2.930091e+38
7.3220892 -1.1252247 1.4778645 -2.783667e+38
7.4719987 -1.1613367 1.4828645 -2.6372422e+38
7.4719644 -1.1752167 1.4828645 -3.2495678e+38
7.4719296 -1.1890966 1.4828645 nan
7.4718599 -1.2168566 1.4828645 nan
7.4717908 -1.2446165 1.4828645 -2.6359963e+38
7.471756 -1.2584964 1.4828645 -2.7299265e+38
7.3217831 -1.247573 1.4778645 -2.8231796e+38
7.3217492 -1.2611672 1.4778645 -2.8765558e+38
7.3217154 -1.2747614 1.4778645 -2.9161199e+38
7.4716172 -1.3140162 1.4828645 -2.8094689e+38
7.4715824 -1.3278962 1.4828645 -2.6897842e+38
7.4722071 -1.0780569 1.4689845 -2.6632073e+38
7.3222251 -1.0708477 1.4642702 -2.7703267e+38
7.4721375 -1.1058168 1.4689845 -2.877028e+38
7.3221569 -1.0980363 1.4642702 -2.8770274e+38
7.3221231 -1.1116304 1.4642702 -2.8770259e+38
7.3220892 -1.1252247 1.4642702 -2.7035499e+38
7.4719987 -1.1613367 1.4689845 -2.5432095e+38
7.4717908 -1.2446165 1.4689845 -2.6223407e+38
7.471756 -1.2584964 1.4689845 -2.7031349e+38
7.3217831 -1.247573 1.4642702 -2.783407e+38
7.3217492 -1.2611672 1.4642702 -2.8233349e+38
7.3217154 -1.2747614 1.4642702 -2.8631582e+38
7.4716172 -1.3140162 1.4689845 -2.7295067e+38
7.4715824 -1.3278962 1.4689845 -2.595803e+38
7.4722071 -1.0780569 1.4551045 -2.5308044e+38
7.4721723 -1.0919369 1.4551045 -2.677488e+38
7.4721375 -1.1058168 1.4551045 -2.8237027e+38
7.3221569 -1.0980363 1.450676 -2.8237542e+38
7.3221231 -1.1116304 1.450676 -2.8234929e+38
7.1771417 -1.1037338 1.4463949 -2.6368285e+38
7.3220549 -1.138819 1.450676 -2.4372863e+38
7.4719644 -1.1752167 1.4551045 -3.1422943e+38
7.4719296 -1.1890966 1.4551045 nan
7.4717908 -1.2446165 1.4551045 -2.6096208e+38
7.471756 -1.2584964 1.4551045 -2.6768621e+38
7.4717212 -1.2723763 1.4551045 -2.7434265e+38
7.3217492 -1.2611672 1.450676 -2.7834064e+38
7.3217154 -1.2747614 1.450676 -2.8097816e+38
7.4716172 -1.3140162 1.4551045 -2.6496498e+38
7.4715824 -1.3278962 1.4551045 -2.4900881e+38
7.4721723 -1.0919369 1.4412245 -2.7303452e+38
7.3221908 -1.084442 1.4370816 -2.8500793e+38
7.3221569 -1.0980363 1.4370816 -2.8102021e+38
7.3221231 -1.1116304 1.4370816 -2.7702198e+38
7.3220892 -1.1252247 1.4370816 -2.6233279e+38
7.3220549 -1.138819 1.4370816 -2.4901954e+38
7.4719644 -1.1752167 1.4412245 -3.16919e+38
7.4719296 -1.1890966 1.4412245 nan
7.4718947 -1.2029766 1.4412245 nan
7.4717908 -1.2446165 1.4412245 -2.5965892e+38
7.471756 -1.2584964 1.4412245 -2.65007e+38
7.3217831 -1.247573 1.4370816 -2.7167902e+38
7.3217492 -1.2611672 1.4370816 -2.7301336e+38
7.3217154 -1.2747614 1.4370816 -2.7434764e+38
7.4716172 -1.3140162 1.4412245 -2.6096695e+38
7.4721723 -1.0919369 1.4273446 -2.7699616e+38
7.3221908 -1.084442 1.4234873 -2.863111e+38
7.3221569 -1.0980363 1.4234873 -2.783409e+38
7.3221231 -1.1116304 1.4234873 -2.7031864e+38
7.3220892 -1.1252247 1.4234873 -2.6227042e+38
7.3220549 -1.138819 1.4234873 -2.5300195e+38
7.4719644 -1.1752167 1.4273446 -3.2092218e+38
7.4719296 -1.1890966 1.4273446 nan
7.4718947 -1.2029766 1.4273446 nan
7.4718599 -1.2168566 1.4273446 nan
7.4718256 -1.2307365 1.4273446 -3.0345586e+38
7.4717908 -1.2446165 1.4273446 -2.5697965e+38
7.3218174 -1.2339786 1.4234873 -2.6233295e+38
7.3217831 -1.247573 1.4234873 -2.6767057e+38
7.3217492 -1.2611672 1.4234873 -2.6768089e+38
7.3217154 -1.2747614 1.4234873 -2.676496e+38
7.4716172 -1.3140162 1.4273446 -2.5695332e+38
7.4722071 -1.0780569 1.4134645 -2.5966417e+38
7.4721723 -1.0919369 1.4134645 -2.716584e+38
7.3221908 -1.084442 1.409893 -2.8230776e+38
7.3221569 -1.0980363 1.409893 -2.7696484e+38
7.3221231 -1.1116304 1.409893 -2.7161144e+38
7.3220892 -1.1252247 1.409893 -2.5693785e+38
7.4719987 -1.1613367 1.4134645 -2.4359344e+38
7.4719644 -1.1752167 1.4134645 -3.1689807e+38
7.4719296 -1.1890966 1.4134645 nan
7.4718947 -1.2029766 1.4134645 nan
7.4718599 -1.2168566 1.4134645 nan
7.4718256 -1.2307365 1.4134645 -2.9819079e+38
7.4717908 -1.2446165 1.4134645 -2.5430039e+38
7.3218174 -1.2339786 1.409893 -2.596537e+38
7.3217831 -1.247573 1.409893 -2.6632057e+38
7.3217492 -1.2611672 1.409893 -2.6764455e+38
7.3217154 -1.2747614 1.409893 -2.6895286e+38
7.4716172 -1.3140162 1.4134645 -2.6227024e+38
7.4715824 -1.3278962 1.4134645 -2.5558219e+38
7.4722071 -1.0780569 1.3995845 -2.5169395e+38
7.4721723 -1.0919369 1.3995845 -2.6501222e+38
7.3221908 -1.084442 1.3962988 -2.7829405e+38
7.3221569 -1.0980363 1.3962988 -2.7560438e+38
7.3221231 -1.1116304 1.3962988 -2.7159063e+38
7.3220892 -1.1252247 1.3962988 -2.5293459e+38
7.4719987 -1.1613367 1.3995845 -2.3302712e+38
7.4718256 -1.2307365 1.3995845 -2.9282707e+38
7.4717908 -1.2446165 1.3995845 -2.5030224e+38
7.3218174 -1.2339786 1.3962988 -2.5699002e+38
7.3217831 -1.247573 1.3962988 -2.6364129e+38
7.3217492 -1.2611672 1.3962988 -2.662997e+38
7.3217154 -1.2747614 1.3962988 -2.6894246e+38
7.4716172 -1.3140162 1.3995845 -2.6758717e+38
7.4715824 -1.3278962 1.3995845 -2.6495433e+38
7.4722071 -1.0780569 1.3857045 -2.5566602e+38
7.4721723 -1.0919369 1.3857045 -2.6499658e+38
7.4721375 -1.1058168 1.3857045 -2.7430111e+38
7.3221569 -1.0980363 1.3827045 -2.7294584e+38
7.3221231 -1.1116304 1.3827045 -2.7159578e+38
7.4720335 -1.1474566 1.3857045 -2.5824631e+38
7.4719987 -1.1613367 1.3857045 -2.4623632e+38
7.4718256 -1.2307365 1.3857045 -2.8887043e+38
7.4717908 -1.2446165 1.3857045 -2.5424832e+38
7.3218174 -1.2339786 1.3827045 -2.5962764e+38
7.3217831 -1.247573 1.3827045 -2.6363086e+38
7.3217492 -1.2611672 1.3827045 -2.676237e+38
7.3217154 -1.2747614 1.3827045 -2.7293534e+38
7.4716172 -1.3140162 1.3857045 -2.7555734e+38
7.4715824 -1.3278962 1.3857045 -2.7951357e+38
7.4721723 -1.0919369 1.3718245 -2.6501211e+38
7.4721375 -1.1058168 1.3718245 -2.6897378e+38
7.4721031 -1.1196969 1.3718245 -2.7028217e+38
7.3221231 -1.1116304 1.3691102 -2.7157497e+38
7.3220892 -1.1252247 1.3691102 -2.6487683e+38
7.4719987 -1.1613367 1.3718245 -2.5828758e+38
7.4718256 -1.2307365 1.3718245 -2.8618606e+38
7.4717908 -1.2446165 1.3718245 -2.5827237e+38
7.471756 -1.2584964 1.3718245 -2.6097245e+38
7.3217831 -1.247573 1.3691102 -2.6363086e+38
7.3217492 -1.2611672 1.3691102 -2.7028215e+38
7.3217154 -1.2747614 1.3691102 -2.7558327e+38
7.4716172 -1.3140162 1.3718245 -2.8485646e+38
7.4715824 -1.3278962 1.3718245 -2.928784e+38
7.4722071 -1.0780569 1.3579445 -2.5966399e+38
7.4721723 -1.0919369 1.3579445 -2.6233285e+38
7.4721375 -1.1058168 1.3579445 -2.6497567e+38
7.4721031 -1.1196969 1.3579445 -2.6628406e+38
7.3221231 -1.1116304 1.355516 -2.6625283e+38
7.3220892 -1.1252247 1.355516 -2.6489237e+38
7.4719987 -1.1613367 1.3579445 -2.6489214e+38
7.4718599 -1.2168566 1.3579445 -3.1824829e+38
7.4718256 -1.2307365 1.3579445 -2.8755167e+38
7.4717908 -1.2446165 1.3579445 -2.5693278e+38
7.471756 -1.2584964 1.3579445 -2.5962764e+38
7.3217831 -1.247573 1.355516 -2.6229644e+38
7.3217492 -1.2611672 1.355516 -2.6230159e+38
7.3217154 -1.2747614 1.355516 -2.6229084e+38
7.4716172 -1.3140162 1.3579445 -2.8354253e+38
7.4715824 -1.3278962 1.3579445 -3.0613936e+38
7.4721723 -1.0919369 1.3440645 -2.5967956e+38
