# .PCD v0.7 - Point Cloud Data file format
VERSION 0.7
FIELDS x y z rgb
SIZE 4 4 4 4
TYPE F F F F
COUNT 1 1 1 1
WIDTH 1046
HEIGHT 1
VIEWPOINT 0 0 0 1 0 0 0
POINTS 1046
DATA ascii
2.7394409 0.21957555 1.9469559 -2.5952805e+38
2.739429 0.21471652 1.9469559 -2.6085732e+38
2.7394171 0.20985749 1.9469559 -2.62197e+38
2.7394052 0.20499846 1.9469559 -2.6352629e+38
2.7393932 0.20013943 1.9469559 -2.6353669e+38
2.7393813 0.19528037 1.9469559 -2.6353673e+38
2.7393694 0.19042134 1.9469559 -2.6355235e+38
2.7393575 0.18556231 1.9469559 -2.6355239e+38
2.7393453 0.18070325 1.9469559 -2.6356795e+38
2.7583382 0.17766136 1.9522216 -2.6356273e+38
2.7583261 0.17276615 1.9522216 -2.6356788e+38
2.7583141 0.16787094 1.9522216 -2.648919e+38
2.758302 0.1629757 1.9522216 -2.6622115e+38
2.7582901 0.15808049 1.9522216 -2.6754518e+38
2.7582779 0.15318525 1.9522216 -2.6887964e+38
2.7772701 0.14989001 1.9574873 -2.7153295e+38
2.7772579 0.14495859 1.9574873 -2.7287258e+38
2.7772458 0.1400272 1.9574873 -2.728726e+38
2.7772338 0.13509578 1.9574873 -2.728726e+38
2.7772217 0.13016436 1.9574873 -2.7285703e+38
2.7582059 0.12381392 1.9522216 -2.715382e+38
2.7581937 0.11891869 1.9522216 -2.7019861e+38
2.7581818 0.11402347 1.9522216 -2.6754533e+38
2.777173 0.1104387 1.9574873 -2.7153301e+38
2.7771611 0.10550729 1.9574873 -2.7419662e+38
2.777149 0.10057587 1.9574873 -2.7684986e+38
2.7971401 0.096909605 1.9630302 -2.7820513e+38
2.8371339 0.094394214 1.974116 -2.7556235e+38
2.8571243 0.090537466 1.9796588 -2.7290903e+38
2.8571119 0.085453667 1.9796588 -2.7421224e+38
2.8781023 0.081538282 1.9854789 -2.7553104e+38
2.8990927 0.077542908 1.9912988 -2.74181e+38
2.8990798 0.072379105 1.9912988 -2.7153291e+38
2.8990672 0.067215316 1.9912988 -2.7286212e+38
2.8990545 0.062051512 1.9912988 -2.7287252e+38
2.8990419 0.056887724 1.9912988 -2.741966e+38
2.8990293 0.051723935 1.9912988 -2.74207e+38
2.8990164 0.046560131 1.9912988 -2.7686031e+38
2.8780017 0.040547937 1.9854789 -2.7953438e+38
2.8779891 0.035424143 1.9854789 -2.8087405e+38
2.8779764 0.030300342 1.9854789 -2.8088965e+38
2.8779638 0.025176547 1.9854789 -2.8487218e+38
2.8779514 0.020052753 1.9854789 -2.888755e+38
2.8989403 0.015577368 1.9912988 -2.928425e+38
2.8989277 0.01041358 1.9912988 -2.955113e+38
2.8989151 0.0052497834 1.9912988 -2.7952937e+38
2.8989022 8.5987151e-05 1.9912988 -2.6358902e+38
2.8988895 -0.0050778016 1.9912988 -2.6088902e+38
2.8988769 -0.010241602 1.9912988 -2.5718779e+38
2.8988643 -0.015405394 1.9912988 nan
2.8988516 -0.02056919 1.9912988 nan
2.8988388 -0.025732983 1.9912988 nan
2.5010016 0.44804102 1.876315 -3.2749035e+38
2.5159988 0.44695753 1.8804436 -2.9412958e+38
2.5009799 0.43923342 1.876315 -2.6087284e+38
2.5159771 0.43809283 1.8804436 -2.6220197e+38
2.5009584 0.43042582 1.876315 -2.6351564e+38
2.5009475 0.42602205 1.876315 -2.6085718e+38
2.5009367 0.42161822 1.876315 -2.5952797e+38
2.5009258 0.41721445 1.876315 -2.5819355e+38
2.5009151 0.41281065 1.876315 -2.5686435e+38
2.5009043 0.40840685 1.876315 -2.5421108e+38
2.5007527 0.34675372 1.876315 -2.7555193e+38
2.500742 0.34234992 1.876315 -2.7954998e+38
2.5007312 0.33794612 1.876315 -2.7957073e+38
2.5007203 0.33354232 1.876315 -2.7828302e+38
2.5007095 0.32913852 1.876315 -2.7827778e+38
2.5157049 0.32728359 1.8804436 -2.7697437e+38
2.5317008 0.32553953 1.8848474 -2.7292424e+38
2.5476964 0.32373449 1.8892512 -2.6756573e+38
2.580699 0.32466009 1.898334 -2.6487085e+38
2.5976944 0.32286313 1.9030131 -2.6218645e+38
2.6146898 0.32100135 1.9076922 -2.595228e+38
2.6146784 0.31638041 1.9076922 -2.581884e+38
2.6316738 0.3144215 1.9123712 -2.5819361e+38
2.6146557 0.30713853 1.9076922 -2.5819883e+38
2.6146443 0.30251762 1.9076922 -2.5820404e+38
2.6316395 0.30046156 1.9123712 -2.5820929e+38
2.631628 0.29580823 1.9123712 -2.5821453e+38
2.6316166 0.29115492 1.9123712 -2.5689047e+38
2.614599 0.28403383 1.9076922 -2.5556639e+38
2.6315937 0.28184828 1.9123712 -2.5557161e+38
2.6315823 0.27719498 1.9123712 -2.5822489e+38
2.6315708 0.27254167 1.9123712 -2.6087819e+38
2.6315594 0.26788834 1.9123712 -2.6221263e+38
2.6485536 0.26554087 1.9170502 -2.635471e+38
2.6485422 0.26085517 1.9170502 -2.6620557e+38
2.6485307 0.25616947 1.9170502 -2.6888486e+38
2.648519 0.25148377 1.9170502 -2.6889009e+38
2.6665132 0.24910241 1.9220045 -2.6890037e+38
2.6845074 0.24665245 1.9269588 -2.6755025e+38
2.6844957 0.24189821 1.9269588 -2.6620022e+38
2.684484 0.23714393 1.9269588 -2.6353132e+38
2.7024777 0.23455685 1.9319131 -2.6085726e+38
2.7204714 0.23190123 1.9368675 -2.5951763e+38
2.7394648 0.22929361 1.9420969 -2.5951244e+38
2.7394528 0.22443461 1.9420969 -2.581884e+38
2.7394409 0.21957555 1.9420969 -2.5686439e+38
2.739429 0.21471652 1.9420969 -2.5819883e+38
2.7394171 0.20985749 1.9420969 -2.6086254e+38
2.7394052 0.20499846 1.9420969 -2.62197e+38
2.7393932 0.20013943 1.9420969 -2.6353665e+38
2.7393813 0.19528037 1.9420969 -2.6220746e+38
2.7203646 0.18849564 1.9368675 -2.622127e+38
2.7393575 0.18556231 1.9420969 -2.6221791e+38
2.7393453 0.18070325 1.9420969 -2.6222827e+38
2.7393334 0.17584422 1.9420969 -2.6222304e+38
2.7393215 0.17098519 1.9420969 -2.6222823e+38
2.7393095 0.16612616 1.9420969 -2.6355227e+38
2.758302 0.1629757 1.9473264 -2.6620553e+38
2.7582901 0.15808049 1.9473264 -2.6621072e+38
2.7772822 0.15482143 1.9525559 -2.6753999e+38
2.7772701 0.14989001 1.9525559 -2.675452e+38
2.7772579 0.14495859 1.9525559 -2.6888484e+38
2.7772458 0.1400272 1.9525559 -2.7020368e+38
2.7772338 0.13509578 1.9525559 -2.7019849e+38
2.7582178 0.12870914 1.9473264 -2.7019849e+38
2.7582059 0.12381392 1.9473264 -2.7019849e+38
2.7581937 0.11891869 1.9473264 -2.6886407e+38
2.7581818 0.11402347 1.9473264 -2.6754527e+38
2.7581697 0.10912824 1.9473264 -2.7020374e+38
2.7771611 0.10550729 1.9525559 -2.7420177e+38
2.777149 0.10057587 1.9525559 -2.7421731e+38
2.7971401 0.096909605 1.9580607 -2.7556738e+38
2.8371339 0.094394214 1.9690702 -2.742642e+38
2.8571243 0.090537466 1.974575 -2.7426414e+38
2.8571119 0.085453667 1.974575 -2.7422771e+38
2.8781023 0.081538282 1.980355 -2.7552578e+38
2.8780897 0.076414488 1.980355 -2.7285694e+38
2.8990798 0.072379105 1.986135 -2.7019328e+38
2.8990672 0.067215316 1.986135 -2.7019845e+38
2.8990545 0.062051512 1.986135 -2.7020366e+38
2.8990419 0.056887724 1.986135 -2.7153291e+38
2.8990293 0.051723935 1.986135 -2.7287258e+38
2.8990164 0.046560131 1.986135 -2.7420185e+38
2.8780017 0.040547937 1.980355 -2.7687596e+38
2.8779891 0.035424143 1.980355 -2.7688643e+38
2.8779764 0.030300342 1.980355 -2.7823643e+38
2.8779638 0.025176547 1.980355 -2.8090008e+38
2.8779514 0.020052753 1.980355 -2.8489816e+38
2.8779387 0.014928959 1.980355 -2.8887027e+38
2.8779261 0.0098051727 1.980355 -2.9418714e+38
2.8779135 0.0046813786 1.980355 -2.8754096e+38
2.8989022 8.5987151e-05 1.986135 -2.8220837e+38
2.8988895 -0.0050778016 1.986135 -2.7554653e+38
2.8988769 -0.010241602 1.986135 -2.6884423e+38
2.8988643 -0.015405394 1.986135 nan
2.8988516 -0.02056919 1.986135 nan
2.8778381 -0.026061393 1.980355 nan
2.5159988 0.44695753 1.8760111 -2.8742091e+38
2.5009799 0.43923342 1.8719112 -2.6218637e+38
2.5159771 0.43809283 1.8760111 -2.6085716e+38
2.5159662 0.43366045 1.8760111 -2.5952793e+38
2.5009475 0.42602205 1.8719112 -2.5819873e+38
2.5009367 0.42161822 1.8719112 -2.568695e+38
2.5009258 0.41721445 1.8719112 -2.5685911e+38
2.5009151 0.41281065 1.8719112 -2.568643e+38
2.5009043 0.40840685 1.8719112 -2.5421106e+38
2.5007527 0.34675372 1.8719112 -2.7289867e+38
2.500742 0.34234992 1.8719112 -2.7688631e+38
2.5007312 0.33794612 1.8719112 -2.7424341e+38
2.5007203 0.33354232 1.8719112 -2.715901e+38
2.5007095 0.32913852 1.8719112 -2.7290891e+38
2.5157049 0.32728359 1.8760111 -2.7290881e+38
2.5156939 0.32285124 1.8760111 -2.6887948e+38
2.5476964 0.32373449 1.8847579 -2.6488133e+38
2.580699 0.32466009 1.8937778 -2.6352608e+38
2.5976944 0.32286313 1.8984245 -2.6218647e+38
2.6146898 0.32100135 1.9030712 -2.5951244e+38
2.6146784 0.31638041 1.9030712 -2.5685917e+38
2.6316738 0.3144215 1.9077179 -2.5685919e+38
2.6146557 0.30713853 1.9030712 -2.5554037e+38
2.6316509 0.30511487 1.9077179 -2.5687481e+38
2.6316395 0.30046156 1.9077179 -2.5820925e+38
2.631628 0.29580823 1.9077179 -2.5821968e+38
2.6316166 0.29115492 1.9077179 -2.5688524e+38
2.6316051 0.28650159 1.9077179 -2.5555599e+38
2.6315937 0.28184828 1.9077179 -2.5423197e+38
2.6315823 0.27719498 1.9077179 -2.5555603e+38
2.6315708 0.27254167 1.9077179 -2.5556124e+38
2.6315594 0.26788834 1.9077179 -2.5821455e+38
2.6485536 0.26554087 1.9123645 -2.5954899e+38
2.6485422 0.26085517 1.9123645 -2.6353669e+38
2.6485307 0.25616947 1.9123645 -2.6754518e+38
2.648519 0.25148377 1.9123645 -2.7021409e+38
2.6665132 0.24910241 1.9172845 -2.7154323e+38
2.6845074 0.24665245 1.9222045 -2.688795e+38
2.6844957 0.24189821 1.9222045 -2.6621058e+38
2.7024896 0.23934543 1.9271245 -2.6354168e+38
2.7024777 0.23455685 1.9271245 -2.6086243e+38
2.7204714 0.23190123 1.9320445 -2.5951242e+38
2.7394648 0.22929361 1.9372379 -2.5817798e+38
2.7394528 0.22443461 1.9372379 -2.5684875e+38
2.7394409 0.21957555 1.9372379 -2.542007e+38
2.739429 0.21471652 1.9372379 -2.5686439e+38
2.7394171 0.20985749 1.9372379 -2.5819885e+38
2.7394052 0.20499846 1.9372379 -2.6085734e+38
2.7393932 0.20013943 1.9372379 -2.6219698e+38
2.7393813 0.19528037 1.9372379 -2.6087298e+38
2.7203646 0.18849564 1.9320445 -2.5954897e+38
2.7393575 0.18556231 1.9372379 -2.5954899e+38
2.7393453 0.18070325 1.9372379 -2.5955418e+38
2.7393334 0.17584422 1.9372379 -2.6087821e+38
2.7583261 0.17276615 1.9424312 -2.6088341e+38
2.7393095 0.16612616 1.9372379 -2.6354186e+38
2.758302 0.1629757 1.9424312 -2.6487628e+38
2.7582901 0.15808049 1.9424312 -2.648763e+38
2.7582779 0.15318525 1.9424312 -2.648815e+38
2.758266 0.14829004 1.9424312 -2.648815e+38
2.7582541 0.1433948 1.9424312 -2.6488671e+38
2.7582419 0.13849959 1.9424312 -2.6620555e+38
2.75823 0.13360435 1.9424312 -2.6753478e+38
2.7582178 0.12870914 1.9424312 -2.6885881e+38
2.7582059 0.12381392 1.9424312 -2.6884843e+38
2.7391903 0.11753584 1.9372379 -2.6884841e+38
2.7581818 0.11402347 1.9424312 -2.6752961e+38
2.7581697 0.10912824 1.9424312 -2.7018812e+38
2.7771611 0.10550729 1.9476244 -2.7287256e+38
2.777149 0.10057587 1.9476244 -2.7289854e+38
2.7971401 0.096909605 1.9530911 -2.7294014e+38
2.8371339 0.094394214 1.9640245 -2.7432133e+38
2.8571243 0.090537466 1.9694912 -2.7427454e+38
2.8781149 0.086662076 1.9752312 -2.7555696e+38
2.8781023 0.081538282 1.9752312 -2.7552576e+38
2.8990927 0.077542908 1.9809712 -2.7284652e+38
2.8990798 0.072379105 1.9809712 -2.6885879e+38
2.8990672 0.067215316 1.9809712 -2.6752955e+38
2.8990545 0.062051512 1.9809712 -2.6620553e+38
2.8990419 0.056887724 1.9809712 -2.6886401e+38
2.8780267 0.050795518 1.9752312 -2.7019847e+38
2.8780143 0.045671731 1.9752312 -2.7152774e+38
2.8780017 0.040547937 1.9752312 -2.7287779e+38
2.8779891 0.035424143 1.9752312 -2.7421749e+38
2.8779764 0.030300342 1.9752312 -2.7423307e+38
2.8779638 0.025176547 1.9752312 -2.7691229e+38
2.8779514 0.020052753 1.9752312 -2.7956561e+38
2.8779387 0.014928959 1.9752312 -2.8620662e+38
2.8779261 0.0098051727 1.9752312 -2.9154954e+38
2.8779135 0.0046813786 1.9752312 -2.9556842e+38
2.8779011 -0.00044241548 1.9752312 -2.9954569e+38
2.8778884 -0.0055662096 1.9752312 -2.9024627e+38
2.8988769 -0.010241602 1.9809712 -2.7959719e+38
2.8988643 -0.015405394 1.9809712 -3.2884645e+38
2.8988516 -0.02056919 1.9809712 nan
2.8988388 -0.025732983 1.9809712 nan
2.7781787 0.51974612 1.9426931 nan
2.7591558 0.51053655 1.937536 nan
2.721123 0.49715757 1.9272217 -3.074318e+38
2.5159988 0.44695753 1.8715788 -2.8078493e+38
2.5009799 0.43923342 1.8675075 -2.5554011e+38
2.5159771 0.43809283 1.8715788 -2.5686946e+38
2.5159662 0.43366045 1.8715788 -2.581987e+38
2.5009475 0.42602205 1.8675075 -2.5686948e+38
2.5009367 0.42161822 1.8675075 -2.5686948e+38
2.5009258 0.41721445 1.8675075 -2.5553504e+38
2.5009151 0.41281065 1.8675075 -2.5553506e+38
2.5009043 0.40840685 1.8675075 -2.5420066e+38
2.5007527 0.34675372 1.8675075 -2.6756096e+38
2.500742 0.34234992 1.8675075 -2.7154341e+38
2.5007312 0.33794612 1.8675075 -2.7022453e+38
2.5007203 0.33354232 1.8675075 -2.702193e+38
2.5007095 0.32913852 1.8675075 -2.7022445e+38
2.5006986 0.32473472 1.8675075 -2.7153285e+38
2.5156939 0.32285124 1.8715788 -2.6753989e+38
2.5476964 0.32373449 1.8802645 -2.6353657e+38
2.580699 0.32466009 1.8892217 -2.6219168e+38
2.5976944 0.32286313 1.893836 -2.5952284e+38
2.6146898 0.32100135 1.8984503 -2.5818842e+38
2.6146784 0.31638041 1.8984503 -2.5685919e+38
2.6316738 0.3144215 1.9030645 -2.5553514e+38
2.6316624 0.3097682 1.9030645 -2.5553518e+38
2.6316509 0.30511487 1.9030645 -2.5686962e+38
2.6316395 0.30046156 1.9030645 -2.5820404e+38
2.631628 0.29580823 1.9030645 -2.5688e+38
2.6316166 0.29115492 1.9030645 -2.5554558e+38
2.6316051 0.28650159 1.9030645 -2.5289751e+38
2.6315937 0.28184828 1.9030645 -2.5023388e+38
2.6315823 0.27719498 1.9030645 -2.4891504e+38
2.6315708 0.27254167 1.9030645 -2.4892027e+38
2.6315594 0.26788834 1.9030645 -2.5289759e+38
2.6485536 0.26554087 1.9076788 -2.5556126e+38
2.6485422 0.26085517 1.9076788 -2.6087819e+38
2.6485307 0.25616947 1.9076788 -2.6620553e+38
2.6665249 0.25382242 1.9125645 -2.6752961e+38
2.6665132 0.24910241 1.9125645 -2.6886399e+38
2.6845074 0.24665245 1.9174502 -2.6489182e+38
2.6844957 0.24189821 1.9174502 -2.6222809e+38
2.7024896 0.23934543 1.922336 -2.6221762e+38
2.7024777 0.23455685 1.922336 -2.6086241e+38
2.7204714 0.23190123 1.9272217 -2.5951238e+38
2.7394648 0.22929361 1.9323788 -2.5816238e+38
2.7394528 0.22443461 1.9323788 -2.5684871e+38
2.7394409 0.21957555 1.9323788 -2.5552471e+38
2.739429 0.21471652 1.9323788 -2.5685915e+38
2.7394171 0.20985749 1.9323788 -2.5818842e+38
2.7394052 0.20499846 1.9323788 -2.5952286e+38
2.7393932 0.20013943 1.9323788 -2.608625e+38
2.7393813 0.19528037 1.9323788 -2.6086771e+38
2.7393694 0.19042134 1.9323788 -2.6087292e+38
2.7393575 0.18556231 1.9323788 -2.6087294e+38
2.7393453 0.18070325 1.9323788 -2.5954375e+38
2.7393334 0.17584422 1.9323788 -2.5953858e+38
2.7583261 0.17276615 1.937536 -2.6086781e+38
2.7393095 0.16612616 1.9323788 -2.6087298e+38
2.7392976 0.16126713 1.9323788 -2.6221261e+38
2.7582901 0.15808049 1.937536 -2.6221263e+38
2.7582779 0.15318525 1.937536 -2.6221781e+38
2.758266 0.14829004 1.937536 -2.6354701e+38
2.7582541 0.1433948 1.937536 -2.6488145e+38
2.7582419 0.13849959 1.937536 -2.662003e+38
2.75823 0.13360435 1.937536 -2.6619511e+38
2.7582178 0.12870914 1.937536 -2.6751395e+38
2.7582059 0.12381392 1.937536 -2.7015162e+38
2.7391903 0.11753584 1.9323788 -2.6883794e+38
2.7581818 0.11402347 1.937536 -2.6751916e+38
2.7581697 0.10912824 1.937536 -2.6886403e+38
2.7581577 0.10423302 1.937536 -2.7021932e+38
2.777149 0.10057587 1.9426931 -2.7025575e+38
2.7771368 0.095644452 1.9426931 -2.6896808e+38
2.8371339 0.094394214 1.9589789 -2.7030771e+38
2.8571243 0.090537466 1.9644074 -2.716213e+38
2.8781149 0.086662076 1.9701073 -2.715693e+38
2.8781023 0.081538282 1.9701073 -2.7285692e+38
2.8780897 0.076414488 1.9701073 -2.6885358e+38
2.8990798 0.072379105 1.9758074 -2.6618989e+38
2.8990672 0.067215316 1.9758074 -2.6486582e+38
2.8990545 0.062051512 1.9758074 -2.6486586e+38
2.8780394 0.055919312 1.9701073 -2.662003e+38
2.8780267 0.050795518 1.9701073 -2.6753476e+38
2.8780143 0.045671731 1.9701073 -2.6886401e+38
2.8780017 0.040547937 1.9701073 -2.715381e+38
2.8779891 0.035424143 1.9701073 -2.7287775e+38
2.8779764 0.030300342 1.9701073 -2.7421739e+38
2.8779638 0.025176547 1.9701073 -2.75557e+38
2.8779514 0.020052753 1.9701073 -2.7688635e+38
2.8779387 0.014928959 1.9701073 -2.8088452e+38
2.8779261 0.0098051727 1.9701073 -2.8624309e+38
2.8779135 0.0046813786 1.9701073 -2.8890165e+38
2.8779011 -0.00044241548 1.9701073 -2.9293614e+38
2.8778884 -0.0055662096 1.9701073 -2.849297e+38
2.8988769 -0.010241602 1.9758074 -2.7564559e+38
2.8988643 -0.015405394 1.9758074 -2.809622e+38
2.8988516 -0.02056919 1.9758074 -2.8502351e+38
2.8988388 -0.025732983 1.9758074 nan
2.7781787 0.51974612 1.9377617 nan
2.7591558 0.51053655 1.9326408 nan
2.7591438 0.50564134 1.9326408 -3.0217227e+38
2.5009909 0.44363725 1.8631036 -2.7541095e+38
2.5009799 0.43923342 1.8631036 -2.475388e+38
2.5159771 0.43809283 1.8671465 -2.528766e+38
2.5159662 0.43366045 1.8671465 -2.5686428e+38
2.5159554 0.42922801 1.8671465 -2.5685909e+38
2.5009367 0.42161822 1.8631036 -2.5552986e+38
2.5009258 0.41721445 1.8631036 -2.5552467e+38
2.5009151 0.41281065 1.8631036 -2.5419546e+38
2.5009043 0.40840685 1.8631036 -2.5419027e+38
2.500742 0.34234992 1.8631036 -2.6622123e+38
2.5007312 0.33794612 1.8631036 -2.6755044e+38
2.5007203 0.33354232 1.8631036 -2.6756599e+38
2.5007095 0.32913852 1.8631036 -2.688952e+38
2.5006986 0.32473472 1.8631036 -2.7020879e+38
2.5156939 0.32285124 1.8671465 -2.6620547e+38
2.5316899 0.32107669 1.8714588 -2.6220732e+38
2.5646923 0.32203278 1.8803531 -2.5952282e+38
2.5976944 0.32286313 1.8892474 -2.5685398e+38
2.6146898 0.32100135 1.8938293 -2.56854e+38
2.6146784 0.31638041 1.8938293 -2.5552997e+38
2.6316738 0.3144215 1.8984113 -2.5553516e+38
2.6316624 0.3097682 1.8984113 -2.5420595e+38
2.6316509 0.30511487 1.8984113 -2.5554039e+38
2.6316395 0.30046156 1.8984113 -2.5687481e+38
2.631628 0.29580823 1.8984113 -2.5554558e+38
2.6316166 0.29115492 1.8984113 -2.5289232e+38
2.6316051 0.28650159 1.8984113 -2.4891502e+38
2.6315937 0.28184828 1.8984113 -2.4492732e+38
2.6315823 0.27719498 1.8984113 -2.4359809e+38
2.6485767 0.27491227 1.9029931 -2.4226369e+38
2.6485653 0.27022657 1.9029931 -2.4757026e+38
2.6485536 0.26554087 1.9029931 -2.5156313e+38
2.666548 0.26326236 1.9078445 -2.582041e+38
2.6665366 0.25854239 1.9078445 -2.6352105e+38
2.6665249 0.25382242 1.9078445 -2.6483994e+38
2.6665132 0.24910241 1.9078445 -2.6487626e+38
2.6845074 0.24665245 1.9126959 -2.6225415e+38
2.6844957 0.24189821 1.9126959 -2.5825083e+38
2.7024896 0.23934543 1.9175475 -2.5956961e+38
2.7024777 0.23455685 1.9175475 -2.6087801e+38
2.7204714 0.23190123 1.9223988 -2.5951759e+38
2.7204595 0.22707838 1.9223988 -2.5818317e+38
2.7394528 0.22443461 1.9275198 -2.5685913e+38
2.7394409 0.21957555 1.9275198 -2.5552473e+38
2.739429 0.21471652 1.9275198 -2.5684879e+38
2.7394171 0.20985749 1.9275198 -2.5685398e+38
2.7394052 0.20499846 1.9275198 -2.5818842e+38
2.7393932 0.20013943 1.9275198 -2.5952805e+38
2.7393813 0.19528037 1.9275198 -2.608573e+38
2.7393694 0.19042134 1.9275198 -2.6219174e+38
2.7393575 0.18556231 1.9275198 -2.6085732e+38
2.7393453 0.18070325 1.9275198 -2.5952814e+38
2.7393334 0.17584422 1.9275198 -2.5951779e+38
2.7393215 0.17098519 1.9275198 -2.5952816e+38
2.7393095 0.16612616 1.9275198 -2.5952816e+38
2.7392976 0.16126713 1.9275198 -2.5954375e+38
2.7582901 0.15808049 1.9326408 -2.5954377e+38
2.7582779 0.15318525 1.9326408 -2.5955412e+38
2.758266 0.14829004 1.9326408 -2.6220736e+38
2.7582541 0.1433948 1.9326408 -2.6486582e+38
2.7582419 0.13849959 1.9326408 -2.6485026e+38
2.75823 0.13360435 1.9326408 -2.6485545e+38
2.7582178 0.12870914 1.9326408 -2.6750872e+38
2.7582059 0.12381392 1.9326408 -2.7016198e+38
2.7581937 0.11891869 1.9326408 -2.6883275e+38
2.7581818 0.11402347 1.9326408 -2.6619515e+38
2.7581697 0.10912824 1.9326408 -2.6753482e+38
2.7771611 0.10550729 1.9377617 -2.6757123e+38
2.777149 0.10057587 1.9377617 -2.6628362e+38
2.7771368 0.095644452 1.9377617 -2.6496997e+38
2.8171308 0.093167149 1.9485426 -2.663096e+38
2.8371215 0.089348517 1.9539331 -2.6761276e+38
2.8781149 0.086662076 1.9649836 -2.6890557e+38
2.8781023 0.081538282 1.9649836 -2.6886914e+38
2.8990927 0.077542908 1.9706435 -2.6618464e+38
2.8990798 0.072379105 1.9706435 -2.6219694e+38
2.8990672 0.067215316 1.9706435 -2.6219694e+38
2.8990545 0.062051512 1.9706435 -2.6219696e+38
2.8780394 0.055919312 1.9649836 -2.6352622e+38
2.8780267 0.050795518 1.9649836 -2.6353142e+38
2.8780143 0.045671731 1.9649836 -2.661847e+38
2.8780017 0.040547937 1.9649836 -2.6886397e+38
2.8779891 0.035424143 1.9649836 -2.7152766e+38
2.8779764 0.030300342 1.9649836 -2.7287248e+38
2.8779638 0.025176547 1.9649836 -2.7420694e+38
2.8779514 0.020052753 1.9649836 -2.7421221e+38
2.8779387 0.014928959 1.9649836 -2.7686556e+38
2.8779261 0.0098051727 1.9649836 -2.7954493e+38
2.8779135 0.0046813786 1.9649836 -2.8352235e+38
2.8779011 -0.00044241548 1.9649836 -2.8622758e+38
2.8778884 -0.0055662096 1.9649836 -2.7956073e+38
2.8778758 -0.010690011 1.9649836 -2.7160067e+38
2.8988643 -0.015405394 1.9706435 -2.3166645e+38
2.8988516 -0.02056919 1.9706435 -1.9196181e+38
2.9208398 -0.02538893 1.9765731 nan
2.798202 0.52925688 1.9381826 nan
2.7781787 0.51974612 1.9328303 nan
2.7591558 0.51053655 1.9277455 -3.1950492e+38
2.7591438 0.50564134 1.9277455 -2.8227567e+38
2.7401214 0.49654043 1.9226607 -2.7016675e+38
2.5009692 0.43482965 1.8586998 -2.5818832e+38
2.5009584 0.43042582 1.8586998 -2.5819351e+38
2.5009475 0.42602205 1.8586998 -2.5552465e+38
2.5009367 0.42161822 1.8586998 -2.515318e+38
2.5009258 0.41721445 1.8586998 -2.5153182e+38
2.5009151 0.41281065 1.8586998 -2.501974e+38
2.5009043 0.40840685 1.8586998 -2.5020778e+38
2.5007961 0.36436889 1.8586998 -2.5555613e+38
2.500742 0.34234992 1.8586998 -2.6222829e+38
2.5007312 0.33794612 1.8586998 -2.6357308e+38
2.5007203 0.33354232 1.8586998 -2.6493346e+38
2.5007095 0.32913852 1.8586998 -2.6756595e+38
2.5006986 0.32473472 1.8586998 -2.7154319e+38
2.5156939 0.32285124 1.8627141 -2.6888987e+38
2.5316899 0.32107669 1.8669959 -2.6753979e+38
2.5316789 0.31661385 1.8669959 -2.648501e+38
2.5806878 0.32010394 1.8801093 -2.6214493e+38
2.597683 0.31827456 1.8846588 -2.5951244e+38
2.6146784 0.31638041 1.8892083 -2.56854e+38
2.6146672 0.31175947 1.8892083 -2.5553516e+38
2.6316624 0.3097682 1.8937578 -2.5287672e+38
2.6316509 0.30511487 1.8937578 -2.5288711e+38
2.6316395 0.30046156 1.8937578 -2.5422153e+38
2.631628 0.29580823 1.8937578 -2.5288711e+38
2.6316166 0.29115492 1.8937578 -2.5155788e+38
2.6316051 0.28650159 1.8937578 -2.4890981e+38
2.6315937 0.28184828 1.8937578 -2.4625652e+38
2.6315823 0.27719498 1.8937578 -2.4491689e+38
2.6485767 0.27491227 1.8983073 -2.4358249e+38
2.6485653 0.27022657 1.8983073 -2.4757019e+38
2.6485536 0.26554087 1.8983073 -2.5288713e+38
2.666548 0.26326236 1.9031246 -2.5686443e+38
2.6665366 0.25854239 1.9031246 -2.6217099e+38
2.6665249 0.25382242 1.9031246 -2.6351584e+38
2.6665132 0.24910241 1.9031246 -2.6353663e+38
2.6845074 0.24665245 1.9079417 -2.5956973e+38
2.6844957 0.24189821 1.9079417 -2.5691643e+38
2.7024896 0.23934543 1.9127588 -2.5691639e+38
2.7024777 0.23455685 1.9127588 -2.5691114e+38
2.7204714 0.23190123 1.917576 -2.5688509e+38
2.7204595 0.22707838 1.917576 -2.5819357e+38
2.7204475 0.22225556 1.917576 -2.5685915e+38
2.7394409 0.21957555 1.9226607 -2.5684879e+38
2.739429 0.21471652 1.9226607 -2.5551956e+38
2.7394171 0.20985749 1.9226607 -2.5551437e+38
2.7394052 0.20499846 1.9226607 -2.5552475e+38
2.7393932 0.20013943 1.9226607 -2.5553516e+38
2.7393813 0.19528037 1.9226607 -2.568696e+38
2.7393694 0.19042134 1.9226607 -2.5820402e+38
2.7393575 0.18556231 1.9226607 -2.5819883e+38
2.7393453 0.18070325 1.9226607 -2.5685925e+38
2.7393334 0.17584422 1.9226607 -2.5686449e+38
2.7393215 0.17098519 1.9226607 -2.5687487e+38
2.7393095 0.16612616 1.9226607 -2.5687487e+38
2.7392976 0.16126713 1.9226607 -2.5555605e+38
2.7582901 0.15808049 1.9277455 -2.5556124e+38
2.7582779 0.15318525 1.9277455 -2.5690083e+38
2.758266 0.14829004 1.9277455 -2.5689041e+38
2.7582541 0.1433948 1.9277455 -2.5821444e+38
2.739238 0.13697198 1.9226607 -2.5953848e+38
2.7392261 0.13211292 1.9226607 -2.6086771e+38
2.7582178 0.12870914 1.9277455 -2.6219174e+38
2.7392023 0.12239487 1.9226607 -2.6485543e+38
2.7391903 0.11753584 1.9226607 -2.6485545e+38
2.7391784 0.11267681 1.9226607 -2.6620034e+38
2.7581697 0.10912824 1.9277455 -2.6489196e+38
2.7581577 0.10423302 1.9277455 -2.6492316e+38
2.777149 0.10057587 1.9328303 -2.6494396e+38
2.7771368 0.095644452 1.9328303 -2.6495435e+38
2.8171308 0.093167149 1.9435351 -2.6495435e+38
2.8371215 0.089348517 1.9488873 -2.6360944e+38
2.8781149 0.086662076 1.9598598 -2.6490742e+38
2.8781023 0.081538282 1.9598598 -2.6753462e+38
2.8990927 0.077542908 1.9654799 -2.6485529e+38
2.8990798 0.072379105 1.9654799 -2.621813e+38
2.8990672 0.067215316 1.9654799 -2.6085728e+38
2.8990545 0.062051512 1.9654799 -2.5953327e+38
2.8990419 0.056887724 1.9654799 -2.6086252e+38
2.8780267 0.050795518 1.9598598 -2.6219174e+38
2.8780143 0.045671731 1.9598598 -2.6486058e+38
2.8780017 0.040547937 1.9598598 -2.6752944e+38
2.8779891 0.035424143 1.9598598 -2.7019831e+38
2.8779764 0.030300342 1.9598598 -2.728724e+38
2.8779638 0.025176547 1.9598598 -2.7287244e+38
2.8779514 0.020052753 1.9598598 -2.728725e+38
2.8779387 0.014928959 1.9598598 -2.7553621e+38
2.8779261 0.0098051727 1.9598598 -2.7820002e+38
2.8779135 0.0046813786 1.9598598 -2.8088458e+38
2.8779011 -0.00044241548 1.9598598 -2.822346e+38
2.8778884 -0.0055662096 1.9598598 -2.7957614e+38
2.8778758 -0.010690011 1.9598598 -2.7692785e+38
2.8988643 -0.015405394 1.9654799 -2.4895151e+38
2.8988516 -0.02056919 1.9654799 -2.2227426e+38
2.9208398 -0.02538893 1.9713674 -3.0636947e+38
2.8582485 0.54807895 1.949156 nan
2.798202 0.52925688 1.9332131 -3.1945249e+38
2.7981899 0.52428734 1.9332131 -2.9816389e+38
2.7591558 0.51053655 1.9228503 -2.8073838e+38
2.7591438 0.50564134 1.9228503 -2.6219146e+38
2.7401214 0.49654043 1.9178016 -2.6614795e+38
2.7401094 0.4916814 1.9178016 -2.6881687e+38
2.5009692 0.43482965 1.854296 -2.6483965e+38
2.5009584 0.43042582 1.854296 -2.5951232e+38
2.5009475 0.42602205 1.854296 -2.54185e+38
2.5009367 0.42161822 1.854296 -2.4753888e+38
2.5009258 0.41721445 1.854296 -2.475389e+38
2.5009151 0.41281065 1.854296 -2.4621488e+38
2.500742 0.34234992 1.854296 -2.5691128e+38
2.5007312 0.33794612 1.854296 -2.5957491e+38
2.5007203 0.33354232 1.854296 -2.6223342e+38
2.5007095 0.32913852 1.854296 -2.6753999e+38
2.5006986 0.32473472 1.854296 -2.7156402e+38
2.5156939 0.32285124 1.8582816 -2.7293479e+38
2.5156832 0.31841886 1.8582816 -2.7289315e+38
2.5316789 0.31661385 1.8625331 -2.7019822e+38
2.5476744 0.31474787 1.8667846 -2.6750861e+38
2.597683 0.31827456 1.8800702 -2.6351576e+38
2.6146784 0.31638041 1.8845874 -2.5819363e+38
2.6146672 0.31175947 1.8845874 -2.5553516e+38
2.6316624 0.3097682 1.8891046 -2.5155788e+38
2.6316509 0.30511487 1.8891046 -2.5156309e+38
2.6316395 0.30046156 1.8891046 -2.5023384e+38
2.631628 0.29580823 1.8891046 -2.5022865e+38
2.6316166 0.29115492 1.8891046 -2.4889942e+38
2.6316051 0.28650159 1.8891046 -2.4890462e+38
2.6485996 0.28428367 1.8936217 -2.4757017e+38
2.6485882 0.27959797 1.8936217 -2.4623573e+38
2.6485767 0.27491227 1.8936217 -2.4490651e+38
2.6485653 0.27022657 1.8936217 -2.4889421e+38
2.6485536 0.26554087 1.8936217 -2.5287672e+38
2.666548 0.26326236 1.8984046 -2.5684885e+38
2.6665366 0.25854239 1.8984046 -2.6085213e+38
2.6665249 0.25382242 1.8984046 -2.6219176e+38
2.6665132 0.24910241 1.8984046 -2.6220219e+38
2.6845074 0.24665245 1.9031874 -2.5822495e+38
2.6844957 0.24189821 1.9031874 -2.5424757e+38
2.684484 0.23714393 1.9031874 -2.5425789e+38
2.7024777 0.23455685 1.9079702 -2.5291824e+38
2.702466 0.22976834 1.9079702 -2.5556625e+38
2.7024543 0.22497976 1.9079702 -2.5687471e+38
2.7204475 0.22225556 1.9127531 -2.5685913e+38
2.7204356 0.21743271 1.9127531 -2.5684877e+38
2.7204239 0.21260986 1.9127531 -2.5551437e+38
2.7394171 0.20985749 1.9178016 -2.5419033e+38
2.7204001 0.20296419 1.9127531 -2.528611e+38
2.7393932 0.20013943 1.9178016 -2.5021825e+38
2.7393813 0.19528037 1.9178016 -2.5288191e+38
2.7393694 0.19042134 1.9178016 -2.5421114e+38
2.7393575 0.18556231 1.9178016 -2.5421116e+38
2.7393453 0.18070325 1.9178016 -2.5421116e+38
2.7393334 0.17584422 1.9178016 -2.5421118e+38
2.7393215 0.17098519 1.9178016 -2.542164e+38
2.7393095 0.16612616 1.9178016 -2.5288719e+38
2.7392976 0.16126713 1.9178016 -2.5156313e+38
2.7392857 0.1564081 1.9178016 -2.5290274e+38
2.7392738 0.15154907 1.9178016 -2.529027e+38
2.7392619 0.14669004 1.9178016 -2.528923e+38
2.7392499 0.14183101 1.9178016 -2.5156307e+38
2.7202344 0.13544437 1.9127531 -2.5421631e+38
2.7392261 0.13211292 1.9178016 -2.5554556e+38
2.7392142 0.12725389 1.9178016 -2.5686962e+38
2.7392023 0.12239487 1.9178016 -2.5820929e+38
2.7391903 0.11753584 1.9178016 -2.6219702e+38
2.7391784 0.11267681 1.9178016 -2.648763e+38
2.7581697 0.10912824 1.9228503 -2.6356793e+38
2.7771611 0.10550729 1.9278989 -2.6225949e+38
2.777149 0.10057587 1.9278989 -2.6360431e+38
2.7771368 0.095644452 1.9278989 -2.6493871e+38
2.7971277 0.091940098 1.9332131 -2.6228024e+38
2.8371215 0.089348517 1.9438417 -2.5961133e+38
2.8781149 0.086662076 1.954736 -2.6223858e+38
2.8781023 0.081538282 1.954736 -2.648658e+38
2.8990927 0.077542908 1.9603159 -2.6351053e+38
2.8990798 0.072379105 1.9603159 -2.6084688e+38
2.8990672 0.067215316 1.9603159 -2.5818842e+38
2.8990545 0.062051512 1.9603159 -2.5553518e+38
2.8990419 0.056887724 1.9603159 -2.5819365e+38
2.8780267 0.050795518 1.954736 -2.6086769e+38
2.8780143 0.045671731 1.954736 -2.6353132e+38
2.8780017 0.040547937 1.954736 -2.662002e+38
2.8779891 0.035424143 1.954736 -2.688535e+38
2.8779764 0.030300342 1.954736 -2.7153277e+38
2.8779638 0.025176547 1.954736 -2.71538e+38
2.8779514 0.020052753 1.954736 -2.7154323e+38
2.8779387 0.014928959 1.954736 -2.7420694e+38
2.8779261 0.0098051727 1.954736 -2.7688629e+38
2.8779135 0.0046813786 1.954736 -2.78252e+38
2.8779011 -0.00044241548 1.954736 -2.7824164e+38
2.8778884 -0.0055662096 1.954736 -2.8090531e+38
2.8778758 -0.010690011 1.954736 -2.8223446e+38
2.8988643 -0.015405394 1.9603159 -2.6760248e+38
2.8988516 -0.02056919 1.9603159 -2.5160005e+38
2.9208398 -0.02538893 1.9661617 -2.674887e+38
2.8182132 0.53383631 1.9335198 nan
2.7781787 0.51974612 1.9229674 nan
2.7781665 0.51481467 1.9229674 -3.1136687e+38
2.7591438 0.50564134 1.9179549 -2.701145e+38
2.7401214 0.49654043 1.9129426 -2.6881683e+38
2.7401094 0.4916814 1.9129426 -2.6882728e+38
2.7210875 0.48268908 1.9079303 -2.6350521e+38
2.7210755 0.47786623 1.9079303 -2.5816749e+38
2.5009475 0.42602205 1.8498921 -2.5285054e+38
2.5009367 0.42161822 1.8498921 -2.4886287e+38
2.5009258 0.41721445 1.8498921 -2.4753365e+38
2.5009151 0.41281065 1.8498921 -2.4620446e+38
2.5008285 0.37758029 1.8498921 -2.5152675e+38
2.5007312 0.33794612 1.8498921 -2.5955923e+38
2.5007203 0.33354232 1.8498921 -2.6353663e+38
2.5007095 0.32913852 1.8498921 -2.6489711e+38
2.5006986 0.32473472 1.8498921 -2.6759717e+38
2.5006878 0.32033095 1.8498921 -2.6760761e+38
2.5156832 0.31841886 1.8538493 -2.6760747e+38
2.5156722 0.31398648 1.8538493 -2.6491253e+38
2.5316679 0.31215101 1.8580703 -2.6354695e+38
2.5646701 0.31298137 1.866776 -2.6087292e+38
2.5976717 0.31368601 1.8754816 -2.5819365e+38
2.6146672 0.31175947 1.8799665 -2.5421112e+38
2.6316624 0.3097682 1.8844512 -2.5156826e+38
2.6316509 0.30511487 1.8844512 -2.5023386e+38
2.6316395 0.30046156 1.8844512 -2.5023386e+38
2.631628 0.29580823 1.8844512 -2.5022865e+38
2.6316166 0.29115492 1.8844512 -2.5022346e+38
2.6486113 0.28896937 1.888936 -2.488994e+38
2.6485996 0.28428367 1.888936 -2.48889e+38
2.6485882 0.27959797 1.888936 -2.4755975e+38
2.6485767 0.27491227 1.888936 -2.4623052e+38
2.6665714 0.27270234 1.8936845 -2.5021301e+38
2.6665597 0.26798233 1.8936845 -2.5287151e+38
2.666548 0.26326236 1.8936845 -2.5552479e+38
2.6845424 0.26091528 1.8984331 -2.5819883e+38
2.6665249 0.25382242 1.8936845 -2.5952805e+38
2.6665132 0.24910241 1.8936845 -2.6086256e+38
2.6845074 0.24665245 1.8984331 -2.5820937e+38
2.6844957 0.24189821 1.8984331 -2.5556122e+38
2.684484 0.23714393 1.8984331 -2.5423708e+38
2.7024777 0.23455685 1.9031817 -2.5290784e+38
2.702466 0.22976834 1.9031817 -2.5422664e+38
2.7024543 0.22497976 1.9031817 -2.5687471e+38
2.7204475 0.22225556 1.9079303 -2.5685911e+38
2.7204356 0.21743271 1.9079303 -2.5684356e+38
2.7204239 0.21260986 1.9079303 -2.5419031e+38
2.720412 0.20778701 1.9079303 -2.5286108e+38
2.7204001 0.20296419 1.9079303 -2.5153705e+38
2.7393932 0.20013943 1.9129426 -2.5021823e+38
2.7393813 0.19528037 1.9129426 -2.5154747e+38
2.7393694 0.19042134 1.9129426 -2.5155269e+38
2.7393575 0.18556231 1.9129426 -2.5288193e+38
2.7393453 0.18070325 1.9129426 -2.5421116e+38
2.7393334 0.17584422 1.9129426 -2.5421114e+38
2.7393215 0.17098519 1.9129426 -2.5421118e+38
2.7203054 0.16438141 1.9079303 -2.52882e+38
2.7202935 0.15955859 1.9079303 -2.5288715e+38
2.7202816 0.15473574 1.9079303 -2.5288711e+38
2.7202699 0.14991289 1.9079303 -2.5156305e+38
2.7392619 0.14669004 1.9129426 -2.5156303e+38
2.7202461 0.14026722 1.9079303 -2.515682e+38
2.7202344 0.13544437 1.9079303 -2.5421625e+38
2.7392261 0.13211292 1.9129426 -2.5554033e+38
2.7392142 0.12725389 1.9129426 -2.5687479e+38
2.7201989 0.12097584 1.9079303 -2.5953852e+38
2.7201869 0.11615299 1.9079303 -2.6087819e+38
2.720175 0.11133016 1.9079303 -2.6355229e+38
2.7391663 0.10781778 1.9129426 -2.6223868e+38
2.7581577 0.10423302 1.9179549 -2.6224908e+38
2.7581458 0.099337794 1.9179549 -2.6491273e+38
2.7771368 0.095644452 1.9229674 -2.6757634e+38
2.7771246 0.090713046 1.9229674 -2.6759187e+38
2.8371215 0.089348517 1.938796 -2.6760224e+38
2.8571119 0.085453667 1.9440721 -2.6755547e+38
2.8781023 0.081538282 1.9496121 -2.6883271e+38
2.8780897 0.076414488 1.9496121 -2.6483977e+38
2.8780773 0.071290694 1.9496121 -2.6216572e+38
2.8780646 0.0661669 1.9496121 -2.5951244e+38
2.878052 0.061043106 1.9496121 -2.5819361e+38
2.8780394 0.055919312 1.9496121 -2.5820402e+38
2.8780267 0.050795518 1.9496121 -2.5822477e+38
2.8780143 0.045671731 1.9496121 -2.6087801e+38
2.8780017 0.040547937 1.9496121 -2.6221768e+38
2.8779891 0.035424143 1.9496121 -2.6487101e+38
2.8779764 0.030300342 1.9496121 -2.688691e+38
2.8779638 0.025176547 1.9496121 -2.7020873e+38
2.8779514 0.020052753 1.9496121 -2.7154321e+38
2.8779387 0.014928959 1.9496121 -2.7287767e+38
2.8779261 0.0098051727 1.9496121 -2.7422777e+38
2.8779135 0.0046813786 1.9496121 -2.755571e+38
2.8779011 -0.00044241548 1.9496121 -2.7688118e+38
2.8778884 -0.0055662096 1.9496121 -2.7823121e+38
2.8778758 -0.010690011 1.9496121 -2.7957608e+38
2.8988643 -0.015405394 1.9551522 -2.7160597e+38
2.8988516 -0.02056919 1.9551522 -2.6233222e+38
2.9208398 -0.02538893 1.960956 -2.4890981e+38
2.8182132 0.53383631 1.9285121 nan
2.7781787 0.51974612 1.918036 nan
2.7781665 0.51481467 1.918036 nan
2.7591438 0.50564134 1.9130597 -2.7684917e+38
2.7401214 0.49654043 1.9080836 -2.7283573e+38
2.7401094 0.4916814 1.9080836 -2.6749286e+38
2.7210875 0.48268908 1.9031074 -2.6217596e+38
2.7210755 0.47786623 1.9031074 -2.5551421e+38
2.5159554 0.42922801 1.849417 -2.5284015e+38
2.5159445 0.42479569 1.849417 -2.4885766e+38
2.5159335 0.42036334 1.849417 -2.4752843e+38
2.5009151 0.41281065 1.8454883 -2.4487521e+38
2.5009043 0.40840685 1.8454883 -2.4753369e+38
2.5008934 0.40400305 1.8454883 -2.5019216e+38
2.5008826 0.39959928 1.8454883 -2.5018699e+38
2.5008719 0.39519545 1.8454883 -2.5018699e+38
2.5008609 0.39079168 1.8454883 -2.5018701e+38
2.5008285 0.37758029 1.8454883 -2.4753381e+38
2.5008178 0.37317649 1.8454883 -2.4886829e+38
2.500742 0.34234992 1.8454883 -2.5556124e+38
2.5007312 0.33794612 1.8454883 -2.5954371e+38
2.5007203 0.33354232 1.8454883 -2.6354703e+38
2.5007095 0.32913852 1.8454883 -2.6356788e+38
2.5006986 0.32473472 1.8454883 -2.6226985e+38
2.5006878 0.32033095 1.8454883 -2.6229585e+38
2.5156832 0.31841886 1.849417 -2.6095095e+38
2.5156722 0.31398648 1.849417 -2.5961642e+38
2.5316679 0.31215101 1.8536074 -2.5825081e+38
2.531657 0.30768815 1.8536074 -2.5823e+38
2.5646589 0.30845568 1.8622503 -2.5687477e+38
2.5976605 0.30909747 1.8708931 -2.5420591e+38
2.6316624 0.3097682 1.8797979 -2.5022344e+38
2.6316509 0.30511487 1.8797979 -2.5022344e+38
2.6316395 0.30046156 1.8797979 -2.5022344e+38
2.631628 0.29580823 1.8797979 -2.5022346e+38
2.6316166 0.29115492 1.8797979 -2.5022344e+38
2.6486113 0.28896937 1.8842502 -2.5022863e+38
2.6485996 0.28428367 1.8842502 -2.5021823e+38
2.6485882 0.27959797 1.8842502 -2.4887859e+38
2.6485767 0.27491227 1.8842502 -2.4754934e+38
2.6665714 0.27270234 1.8889645 -2.5019742e+38
2.6665597 0.26798233 1.8889645 -2.5285589e+38
2.666548 0.26326236 1.8889645 -2.5418514e+38
2.6665366 0.25854239 1.8889645 -2.5552477e+38
2.6665249 0.25382242 1.8889645 -2.5685402e+38
2.6665132 0.24910241 1.8889645 -2.5818848e+38
2.6845074 0.24665245 1.8936788 -2.568593e+38
2.6844957 0.24189821 1.8936788 -2.555456e+38
2.684484 0.23714393 1.8936788 -2.5422672e+38
2.7024777 0.23455685 1.8983932 -2.5156822e+38
2.702466 0.22976834 1.8983932 -2.5422147e+38
2.7024543 0.22497976 1.8983932 -2.5554548e+38
2.7204475 0.22225556 1.9031074 -2.5553508e+38
2.7204356 0.21743271 1.9031074 -2.555195e+38
2.7204239 0.21260986 1.9031074 -2.5419029e+38
2.720412 0.20778701 1.9031074 -2.5152664e+38
2.7204001 0.20296419 1.9031074 -2.5152664e+38
2.7393932 0.20013943 1.9080836 -2.5020263e+38
2.7393813 0.19528037 1.9080836 -2.5020265e+38
2.7393694 0.19042134 1.9080836 -2.4888383e+38
2.7393575 0.18556231 1.9080836 -2.5155269e+38
2.7393453 0.18070325 1.9080836 -2.5288191e+38
2.7393334 0.17584422 1.9080836 -2.5287674e+38
2.7393215 0.17098519 1.9080836 -2.5287674e+38
2.7203054 0.16438141 1.9031074 -2.5420597e+38
2.7202935 0.15955859 1.9031074 -2.5420591e+38
2.7202816 0.15473574 1.9031074 -2.5287143e+38
2.7202699 0.14991289 1.9031074 -2.5022338e+38
2.720258 0.14509004 1.9031074 -2.515578e+38
2.7202461 0.14026722 1.9031074 -2.515578e+38
2.7022307 0.13399717 1.8983932 -2.5421106e+38
2.7202225 0.13062152 1.9031074 -2.5554554e+38
2.7202106 0.12579867 1.9031074 -2.5820923e+38
2.7201989 0.12097584 1.9031074 -2.5954371e+38
2.7201869 0.11615299 1.9031074 -2.6087821e+38
2.702172 0.11005437 1.8983932 -2.6088862e+38
2.7201633 0.10650731 1.9031074 -2.6090422e+38
2.7391543 0.10295873 1.9080836 -2.6090422e+38
2.7391424 0.098099701 1.9080836 -2.6622634e+38
2.7391305 0.093240671 1.9080836 -2.7022435e+38
2.7201159 0.087215938 1.9031074 -2.7290353e+38
2.8571243 0.090537466 1.9389883 -2.7423274e+38
2.8571119 0.085453667 1.9389883 -2.7287751e+38
2.8781023 0.081538282 1.9444883 -2.7150151e+38
2.8780897 0.076414488 1.9444883 -2.6749821e+38
2.8780773 0.071290694 1.9444883 -2.6216051e+38
2.8780646 0.0661669 1.9444883 -2.6082607e+38
2.878052 0.061043106 1.9444883 -2.5951244e+38
2.8780394 0.055919312 1.9444883 -2.5819361e+38
2.8780267 0.050795518 1.9444883 -2.5554554e+38
2.8780143 0.045671731 1.9444883 -2.5687479e+38
2.8780017 0.040547937 1.9444883 -2.5820923e+38
2.8779891 0.035424143 1.9444883 -2.6219176e+38
2.8779764 0.030300342 1.9444883 -2.6488139e+38
2.8779638 0.025176547 1.9444883 -2.6754506e+38
2.8779514 0.020052753 1.9444883 -2.7021396e+38
2.8779387 0.014928959 1.9444883 -2.7153806e+38
2.8779261 0.0098051727 1.9444883 -2.7154853e+38
2.8779135 0.0046813786 1.9444883 -2.7419668e+38
2.8779011 -0.00044241548 1.9444883 -2.7554672e+38
2.8778884 -0.0055662096 1.9444883 -2.7689154e+38
2.8778758 -0.010690011 1.9444883 -2.7690716e+38
2.8778632 -0.015813801 1.9444883 -2.7557797e+38
2.8988516 -0.02056919 1.9499884 -2.7290382e+38
2.8988388 -0.025732983 1.9499884 -2.2893531e+38
2.798202 0.52925688 1.9183044 nan
2.7781787 0.51974612 1.9131045 nan
2.7591558 0.51053655 1.9081645 nan
2.7591438 0.50564134 1.9081645 -2.9288327e+38
2.7401214 0.49654043 1.9032245 -2.7415461e+38
2.7401094 0.4916814 1.9032245 -2.5416944e+38
2.7210875 0.48268908 1.8982846 -2.5285575e+38
2.7210755 0.47786623 1.8982846 -2.5285054e+38
2.5009475 0.42602205 1.8410845 -2.5018687e+38
2.5159445 0.42479569 1.8449845 -2.4752841e+38
2.5159335 0.42036334 1.8449845 -2.4752841e+38
2.5009151 0.41281065 1.8410845 -2.4619921e+38
2.5009043 0.40840685 1.8410845 -2.4753365e+38
2.5008934 0.40400305 1.8410845 -2.4886291e+38
2.5008826 0.39959928 1.8410845 -2.4886293e+38
2.5008719 0.39519545 1.8410845 -2.4886293e+38
2.5008609 0.39079168 1.8410845 -2.4886293e+38
2.5008502 0.38638788 1.8410845 -2.4886811e+38
2.5008392 0.38198408 1.8410845 -2.4885251e+38
2.5008285 0.37758029 1.8410845 -2.4752856e+38
2.5008178 0.37317649 1.8410845 -2.4885265e+38
2.500742 0.34234992 1.8410845 -2.5689051e+38
2.5007312 0.33794612 1.8410845 -2.5954895e+38
2.5007203 0.33354232 1.8410845 -2.6354186e+38
2.5007095 0.32913852 1.8410845 -2.6223864e+38
2.5006986 0.32473472 1.8410845 -2.609406e+38
2.5006878 0.32033095 1.8410845 -2.5960101e+38
2.5156832 0.31841886 1.8449845 -2.5960095e+38
2.5156722 0.31398648 1.8449845 -2.5693203e+38
2.5156612 0.30955413 1.8449845 -2.5426311e+38
2.531657 0.30768815 1.8491445 -2.5290264e+38
2.5476522 0.30576122 1.8533045 -2.5288187e+38
2.5806541 0.30643541 1.8618846 -2.5021301e+38
2.6146557 0.30713853 1.8707244 -2.4888379e+38
2.6146443 0.30251762 1.8707244 -2.4888379e+38
2.6316395 0.30046156 1.8751445 -2.5021303e+38
2.631628 0.29580823 1.8751445 -2.5021825e+38
2.6316166 0.29115492 1.8751445 -2.5022344e+38
2.6486113 0.28896937 1.8795645 -2.5021305e+38
2.6485996 0.28428367 1.8795645 -2.4888381e+38
2.6485882 0.27959797 1.8795645 -2.488734e+38
2.6485767 0.27491227 1.8795645 -2.4887338e+38
2.6665714 0.27270234 1.8842444 -2.5019218e+38
2.6665597 0.26798233 1.8842444 -2.5151624e+38
2.666548 0.26326236 1.8842444 -2.5285068e+38
2.6665366 0.25854239 1.8842444 -2.5417995e+38
2.6665249 0.25382242 1.8842444 -2.5419035e+38
2.6665132 0.24910241 1.8842444 -2.5552479e+38
2.6665018 0.24438244 1.8842444 -2.5420076e+38
2.6844957 0.24189821 1.8889246 -2.5421114e+38
2.684484 0.23714393 1.8889246 -2.5288711e+38
2.6844723 0.23238966 1.8889246 -2.5288709e+38
2.702466 0.22976834 1.8936045 -2.5422147e+38
2.7024543 0.22497976 1.8936045 -2.5554548e+38
2.7024424 0.22019121 1.8936045 -2.5553508e+38
2.7204356 0.21743271 1.8982846 -2.5551431e+38
2.7204239 0.21260986 1.8982846 -2.5418506e+38
2.720412 0.20778701 1.8982846 -2.5284545e+38
2.7204001 0.20296419 1.8982846 -2.5152141e+38
2.7393932 0.20013943 1.9032245 -2.4885778e+38
2.7393813 0.19528037 1.9032245 -2.4753896e+38
2.7393694 0.19042134 1.9032245 -2.4754939e+38
2.7203529 0.18367282 1.8982846 -2.4888902e+38
2.7393453 0.18070325 1.9032245 -2.5022346e+38
2.720329 0.17402712 1.8982846 -2.5021829e+38
2.7203174 0.16920426 1.8982846 -2.5021827e+38
2.7023013 0.16272852 1.8936045 -2.5021823e+38
2.7022896 0.15793994 1.8936045 -2.5021295e+38
2.7022779 0.15315139 1.8936045 -2.5021806e+38
2.702266 0.14836285 1.8936045 -2.502233e+38
2.720258 0.14509004 1.8982846 -2.5155256e+38
2.7202461 0.14026722 1.8982846 -2.5288701e+38
2.7022307 0.13399717 1.8936045 -2.5554548e+38
2.702219 0.12920859 1.8936045 -2.5820919e+38
2.7202106 0.12579867 1.8982846 -2.6086252e+38
2.7021954 0.11963148 1.8936045 -2.6353142e+38
2.7021837 0.11484293 1.8936045 -2.648659e+38
2.702172 0.11005437 1.8936045 -2.6620032e+38
2.7021601 0.1052658 1.8936045 -2.662107e+38
2.7201514 0.10168447 1.8982846 -2.6620032e+38
2.7201395 0.096861623 1.8982846 -2.7021396e+38
2.7201276 0.092038788 1.8982846 -2.7286199e+38
2.7201159 0.087215938 1.8982846 -2.7556193e+38
2.8571243 0.090537466 1.9339045 -2.7822036e+38
2.8571119 0.085453667 1.9339045 -2.7552033e+38
2.8781023 0.081538282 1.9393646 -2.7280993e+38
2.8780897 0.076414488 1.9393646 -2.6747223e+38
2.8780773 0.071290694 1.9393646 -2.6212933e+38
2.8780646 0.0661669 1.9393646 -2.6081566e+38
2.878052 0.061043106 1.9393646 -2.5816761e+38
2.8780394 0.055919312 1.9393646 -2.5818319e+38
2.8780267 0.050795518 1.9393646 -2.5952803e+38
2.8780143 0.045671731 1.9393646 -2.5952807e+38
2.8780017 0.040547937 1.9393646 -2.595281e+38
2.8779891 0.035424143 1.9393646 -2.622177e+38
2.8779764 0.030300342 1.9393646 -2.6622618e+38
2.8779638 0.025176547 1.9393646 -2.675606e+38
2.8779514 0.020052753 1.9393646 -2.6888991e+38
2.8779387 0.014928959 1.9393646 -2.702192e+38
2.8779261 0.0098051727 1.9393646 -2.7022447e+38
2.8779135 0.0046813786 1.9393646 -2.7154337e+38
2.8779011 -0.00044241548 1.9393646 -2.728882e+38
2.8778884 -0.0055662096 1.9393646 -2.7422783e+38
2.8778758 -0.010690011 1.9393646 -2.7690708e+38
2.8778632 -0.015813801 1.9393646 -2.7824671e+38
2.8988516 -0.02056919 1.9448245 -2.7958119e+38
2.8988388 -0.025732983 1.9448245 -2.5960127e+38
2.798202 0.52925688 1.9133351 nan
2.7781787 0.51974612 1.9081731 nan
2.7781665 0.51481467 1.9081731 nan
2.7591438 0.50564134 1.9032693 -3.0881845e+38
2.7401214 0.49654043 1.8983655 -2.7539036e+38
2.7401094 0.4916814 1.8983655 -2.4086676e+38
2.7210875 0.48268908 1.8934617 -2.448804e+38
2.7210755 0.47786623 1.8934617 -2.4886807e+38
2.7400737 0.47710431 1.8983655 -2.4753361e+38
2.5159445 0.42479569 1.8405521 -2.462044e+38
2.5159335 0.42036334 1.8405521 -2.4753363e+38
2.5009151 0.41281065 1.8366807 -2.4753365e+38
2.5009043 0.40840685 1.8366807 -2.4753884e+38
2.5008934 0.40400305 1.8366807 -2.4753888e+38
2.5008826 0.39959928 1.8366807 -2.4753892e+38
2.5008719 0.39519545 1.8366807 -2.4620967e+38
2.5008609 0.39079168 1.8366807 -2.475389e+38
2.5008502 0.38638788 1.8366807 -2.4752332e+38
2.5008392 0.38198408 1.8366807 -2.4749736e+38
2.5008285 0.37758029 1.8366807 -2.47513e+38
2.5008178 0.37317649 1.8366807 -2.4882669e+38
2.5007637 0.35115752 1.8366807 -2.542113e+38
2.500742 0.34234992 1.8366807 -2.5821459e+38
2.5007312 0.33794612 1.8366807 -2.6086783e+38
2.5007203 0.33354232 1.8366807 -2.6220746e+38
2.5007095 0.32913852 1.8366807 -2.60899e+38
2.5006986 0.32473472 1.8366807 -2.595698e+38
2.5006878 0.32033095 1.8366807 -2.5822499e+38
2.5156832 0.31841886 1.8405521 -2.5690089e+38
2.5156722 0.31398648 1.8405521 -2.5290796e+38
2.5156612 0.30955413 1.8405521 -2.48915e+38
2.531657 0.30768815 1.8446817 -2.4889417e+38
2.5476522 0.30576122 1.8488111 -2.4755975e+38
2.5646479 0.30392995 1.8531988 -2.4754419e+38
2.6146557 0.30713853 1.8661036 -2.4620975e+38
2.6146443 0.30251762 1.8661036 -2.4753898e+38
2.6146331 0.29789665 1.8661036 -2.4887338e+38
2.631628 0.29580823 1.8704913 -2.5020261e+38
2.6316166 0.29115492 1.8704913 -2.5020261e+38
2.6316051 0.28650159 1.8704913 -2.48863e+38
2.6485996 0.28428367 1.8748789 -2.4753896e+38
2.6485882 0.27959797 1.8748789 -2.4886298e+38
2.6665828 0.27742231 1.8795245 -2.4886296e+38
2.6665714 0.27270234 1.8795245 -2.501818e+38
2.6845658 0.27042383 1.8841703 -2.5018699e+38
2.666548 0.26326236 1.8795245 -2.5151624e+38
2.6845424 0.26091528 1.8841703 -2.5152145e+38
2.6665249 0.25382242 1.8795245 -2.5152664e+38
2.6665132 0.24910241 1.8795245 -2.5153707e+38
2.6665018 0.24438244 1.8795245 -2.5287151e+38
2.6664901 0.23966244 1.8795245 -2.528767e+38
2.6664784 0.23494244 1.8795245 -2.5287672e+38
2.6844723 0.23238966 1.8841703 -2.5289228e+38
2.6844606 0.22763538 1.8841703 -2.5423708e+38
2.7024543 0.22497976 1.8888159 -2.5421627e+38
2.7024424 0.22019121 1.8888159 -2.5553508e+38
2.7024307 0.21540263 1.8888159 -2.555195e+38
2.7204239 0.21260986 1.8934617 -2.555091e+38
2.720412 0.20778701 1.8934617 -2.5417987e+38
2.7204001 0.20296419 1.8934617 -2.5152141e+38
2.7203884 0.19814134 1.8934617 -2.4753375e+38
2.7393813 0.19528037 1.8983655 -2.4620975e+38
2.7203646 0.18849564 1.8934617 -2.4489091e+38
2.7023485 0.18188277 1.8888159 -2.4622535e+38
2.720341 0.17884997 1.8934617 -2.4623056e+38
2.7023249 0.17230561 1.8888159 -2.4755979e+38
2.7023132 0.16751707 1.8888159 -2.4755977e+38
2.6842971 0.16107559 1.8841703 -2.4755456e+38
2.6842854 0.15632132 1.8841703 -2.4622527e+38
2.6842737 0.15156704 1.8841703 -2.4755444e+38
2.684262 0.14681277 1.8841703 -2.488889e+38
2.7022543 0.14357427 1.8888159 -2.5154739e+38
2.6842387 0.13730425 1.8841703 -2.5420589e+38
2.7022307 0.13399717 1.8888159 -2.5819359e+38
2.702219 0.12920859 1.8888159 -2.608573e+38
2.7022073 0.12442004 1.8888159 -2.6350544e+38
2.7021954 0.11963148 1.8888159 -2.6618472e+38
2.7021837 0.11484293 1.8888159 -2.6884845e+38
2.702172 0.11005437 1.8888159 -2.715277e+38
2.7021601 0.1052658 1.8888159 -2.715381e+38
2.7201514 0.10168447 1.8934617 -2.7155364e+38
2.7201395 0.096861623 1.8934617 -2.7423284e+38
2.7201276 0.092038788 1.8934617 -2.7558278e+38
2.7201159 0.087215938 1.8934617 -2.7959636e+38
2.8571243 0.090537466 1.9288207 -2.8219766e+38
2.8571119 0.085453667 1.9288207 -2.7816323e+38
2.8781023 0.081538282 1.9342407 -2.7279435e+38
2.8780897 0.076414488 1.9342407 -2.6744107e+38
2.8780773 0.071290694 1.9342407 -2.6213451e+38
2.8780646 0.0661669 1.9342407 -2.5948639e+38
2.878052 0.061043106 1.9342407 -2.5683834e+38
2.8780394 0.055919312 1.9342407 -2.5950722e+38
2.8780267 0.050795518 1.9342407 -2.6217611e+38
2.8780143 0.045671731 1.9342407 -2.6217617e+38
2.8780017 0.040547937 1.9342407 -2.608833e+38
2.8779891 0.035424143 1.9342407 -2.6358334e+38
