# .PCD v0.7 - Point Cloud Data file format
VERSION 0.7
FIELDS x y z rgb
SIZE 4 4 4 4
TYPE F F F F
COUNT 1 1 1 1
WIDTH 1047
HEIGHT 1
VIEWPOINT 0 0 0 1 0 0 0
POINTS 1047
DATA ascii
4.5397592 -0.52317941 1.2441074 -2.2618797e+38
4.5957241 -0.53741527 1.2441607 -2.261828e+38
4.5397186 -0.53975081 1.2441074 -2.2617761e+38
4.5396986 -0.54803652 1.2441074 -2.2618797e+38
4.5396781 -0.55632216 1.2441074 -2.2618801e+38
4.5396581 -0.56460792 1.2441074 -2.2619842e+38
4.5396376 -0.57289362 1.2441074 -2.2487436e+38
4.5396175 -0.58117926 1.2441074 -2.2620876e+38
4.5395975 -0.58946496 1.2441074 -2.2887241e+38
4.539577 -0.59775066 1.2441074 -2.288776e+38
4.539557 -0.60603637 1.2441074 -2.2888281e+38
4.5395365 -0.61432201 1.2441074 -2.3021204e+38
4.5395164 -0.62260771 1.2441074 -2.3287054e+38
4.5394959 -0.63089341 1.2441074 -2.3288094e+38
4.5394759 -0.63917911 1.2441074 -2.3288098e+38
4.5394554 -0.64746481 1.2441074 -2.3156216e+38
4.5394354 -0.65575045 1.2441074 -2.3156735e+38
4.5394149 -0.66403621 1.2441074 -2.3290697e+38
4.5393949 -0.67232186 1.2441074 -2.3424141e+38
4.5393744 -0.68060756 1.2441074 -2.3689986e+38
4.5393543 -0.68889326 1.2441074 -2.4088759e+38
4.5393338 -0.6971789 1.2441074 -2.4487012e+38
4.5952935 -0.71365476 1.2441607 -2.4752328e+38
4.595273 -0.72204715 1.2441607 -2.6213948e+38
4.5403261 -0.29118013 1.2358216 nan
4.5403061 -0.29946581 1.2358216 nan
4.5402856 -0.30775151 1.2358216 nan
4.5402656 -0.31603721 1.2358216 nan
4.5402451 -0.32432288 1.2358216 -2.9285769e+38
4.540225 -0.33260858 1.2358216 -2.7674066e+38
4.5402045 -0.34089425 1.2358216 -2.5950747e+38
4.5401845 -0.34917995 1.2358216 -2.5820941e+38
4.540164 -0.35746562 1.2358216 -2.555613e+38
4.540144 -0.36575133 1.2358216 -2.5423723e+38
4.4861321 -0.37025365 1.2358731 -2.5157356e+38
4.4861121 -0.37843648 1.2358731 -2.5024429e+38
4.5400834 -0.3906084 1.2358216 -2.4758581e+38
4.4860721 -0.39480212 1.2358731 -2.475806e+38
4.4860525 -0.40298498 1.2358731 -2.4625135e+38
4.4860325 -0.4111678 1.2358731 -2.4625135e+38
4.4860125 -0.41935062 1.2358731 -2.4491172e+38
4.4859924 -0.42753348 1.2358731 -2.4490651e+38
4.4859724 -0.4357163 1.2358731 -2.4357207e+38
4.4859524 -0.44389915 1.2358731 -2.4489608e+38
4.4859324 -0.45208198 1.2358731 -2.4489604e+38
4.4859123 -0.4602648 1.2358731 -2.4356675e+38
4.4858923 -0.46844763 1.2358731 -2.4222712e+38
4.4858723 -0.47663045 1.2358731 -2.3957381e+38
4.5398402 -0.4900367 1.2358216 -2.3556013e+38
4.5398202 -0.49832237 1.2358216 -2.3288088e+38
4.5397997 -0.50660801 1.2358216 -2.3020164e+38
4.5397797 -0.51489371 1.2358216 -2.3018085e+38
4.5397592 -0.52317941 1.2358216 -2.2884645e+38
4.5957241 -0.53741527 1.2357683 -2.2751203e+38
4.5397186 -0.53975081 1.2358216 -2.261828e+38
4.5396986 -0.54803652 1.2358216 -2.2618801e+38
4.5396781 -0.55632216 1.2358216 -2.24864e+38
4.5396581 -0.56460792 1.2358216 -2.248744e+38
4.5396376 -0.57289362 1.2358216 -2.2355037e+38
4.5396175 -0.58117926 1.2358216 -2.2620882e+38
4.5395975 -0.58946496 1.2358216 -2.2754324e+38
4.539577 -0.59775066 1.2358216 -2.2887247e+38
4.4855723 -0.59937298 1.2358731 -2.3021208e+38
4.5395365 -0.61432201 1.2358216 -2.3154131e+38
4.5395164 -0.62260771 1.2358216 -2.3287577e+38
4.5394959 -0.63089341 1.2358216 -2.3288098e+38
4.5394759 -0.63917911 1.2358216 -2.328862e+38
4.5394554 -0.64746481 1.2358216 -2.3289143e+38
4.5394354 -0.65575045 1.2358216 -2.3289662e+38
4.5394149 -0.66403621 1.2358216 -2.3290181e+38
4.5393949 -0.67232186 1.2358216 -2.3290701e+38
4.5393744 -0.68060756 1.2358216 -2.3688952e+38
4.5393543 -0.68889326 1.2358216 -2.3955319e+38
4.5393338 -0.6971789 1.2358216 -2.4087726e+38
4.5952935 -0.71365476 1.2357683 -2.4086672e+38
4.5403261 -0.29118013 1.227536 nan
4.5403061 -0.29946581 1.227536 nan
4.5402856 -0.30775151 1.227536 nan
4.5402656 -0.31603721 1.227536 nan
4.5402451 -0.32432288 1.227536 -2.9554213e+38
4.540225 -0.33260858 1.227536 -2.7415512e+38
4.5402045 -0.34089425 1.227536 -2.5287183e+38
4.5401845 -0.34917995 1.227536 -2.5289252e+38
4.540164 -0.35746562 1.227536 -2.5423211e+38
4.4861522 -0.3620708 1.2276902 -2.5289765e+38
4.4861321 -0.37025365 1.2276902 -2.5156319e+38
4.4861121 -0.37843648 1.2276902 -2.5023912e+38
4.4860921 -0.3866193 1.2276902 -2.4890987e+38
4.4860721 -0.39480212 1.2276902 -2.4758062e+38
4.4860525 -0.40298498 1.2276902 -2.4757541e+38
4.4860325 -0.4111678 1.2276902 -2.4757019e+38
4.4860125 -0.41935062 1.2276902 -2.4756498e+38
4.4859924 -0.42753348 1.2276902 -2.4756496e+38
4.4859724 -0.4357163 1.2276902 -2.4623054e+38
4.4859524 -0.44389915 1.2276902 -2.4623052e+38
4.4859324 -0.45208198 1.2276902 -2.4623048e+38
4.4859123 -0.4602648 1.2276902 -2.4356158e+38
4.4858923 -0.46844763 1.2276902 -2.4221673e+38
4.4858723 -0.47663045 1.2276902 -2.3822901e+38
4.5398402 -0.4900367 1.227536 -2.3554457e+38
4.5398202 -0.49832237 1.227536 -2.3287569e+38
4.5397997 -0.50660801 1.227536 -2.3152569e+38
4.5397797 -0.51489371 1.227536 -2.3018087e+38
4.5397592 -0.52317941 1.227536 -2.3016529e+38
4.5397391 -0.53146511 1.227536 -2.2884126e+38
4.5397186 -0.53975081 1.227536 -2.2751205e+38
4.5396986 -0.54803652 1.227536 -2.24864e+38
4.5396781 -0.55632216 1.227536 -2.2353998e+38
4.5396581 -0.56460792 1.227536 -2.2355039e+38
4.5396376 -0.57289362 1.227536 -2.235556e+38
4.5396175 -0.58117926 1.227536 -2.2488483e+38
4.5395975 -0.58946496 1.227536 -2.275433e+38
4.539577 -0.59775066 1.227536 -2.2887772e+38
4.539557 -0.60603637 1.227536 -2.3021214e+38
4.5395365 -0.61432201 1.227536 -2.3155174e+38
4.5395164 -0.62260771 1.227536 -2.328862e+38
4.5394959 -0.63089341 1.227536 -2.3288622e+38
4.5394759 -0.63917911 1.227536 -2.3421547e+38
4.5394554 -0.64746481 1.227536 -2.3422068e+38
4.5394354 -0.65575045 1.227536 -2.342207e+38
4.5394149 -0.66403621 1.227536 -2.3289666e+38
4.5393949 -0.67232186 1.227536 -2.3290185e+38
4.5393744 -0.68060756 1.227536 -2.3556031e+38
4.5393543 -0.68889326 1.227536 -2.3954802e+38
4.5393338 -0.6971789 1.227536 -2.3820842e+38
4.5952935 -0.71365476 1.2273759 -2.3685824e+38
4.5403261 -0.29118013 1.2192502 nan
4.5403061 -0.29946581 1.2192502 nan
4.5402856 -0.30775151 1.2192502 nan
4.5402656 -0.31603721 1.2192502 nan
4.4862523 -0.32115665 1.2195073 -2.9683487e+38
4.540225 -0.33260858 1.2192502 -2.7146007e+38
4.4862123 -0.3375223 1.2195073 -2.448963e+38
4.4861922 -0.34570512 1.2195073 -2.4890997e+38
4.540164 -0.35746562 1.2192502 -2.5289763e+38
4.4861522 -0.3620708 1.2195073 -2.5289242e+38
4.4861321 -0.37025365 1.2195073 -2.5155796e+38
4.4861121 -0.37843648 1.2195073 -2.5022869e+38
4.4860921 -0.3866193 1.2195073 -2.4890464e+38
4.4860721 -0.39480212 1.2195073 -2.4890464e+38
4.4860525 -0.40298498 1.2195073 -2.4890462e+38
4.4860325 -0.4111678 1.2195073 -2.5022346e+38
4.4860125 -0.41935062 1.2195073 -2.5022344e+38
4.4859924 -0.42753348 1.2195073 -2.5022344e+38
4.4859724 -0.4357163 1.2195073 -2.4889421e+38
4.4859524 -0.44389915 1.2195073 -2.4755979e+38
4.4859324 -0.45208198 1.2195073 -2.462305e+38
4.4859123 -0.4602648 1.2195073 -2.4489604e+38
4.4858923 -0.46844763 1.2195073 -2.4222197e+38
4.5398607 -0.48175099 1.2192502 -2.3822907e+38
4.5398402 -0.4900367 1.2192502 -2.3422058e+38
4.5398202 -0.49832237 1.2192502 -2.3420496e+38
4.5397997 -0.50660801 1.2192502 -2.3285494e+38
4.5397797 -0.51489371 1.2192502 -2.3149975e+38
4.5397592 -0.52317941 1.2192502 -2.301757e+38
4.5397391 -0.53146511 1.2192502 -2.2883608e+38
4.5397186 -0.53975081 1.2192502 -2.2751726e+38
4.5396986 -0.54803652 1.2192502 -2.2486919e+38
4.5396781 -0.55632216 1.2192502 -2.2221075e+38
4.5396581 -0.56460792 1.2192502 -2.2222116e+38
4.5396376 -0.57289362 1.2192502 -2.2222637e+38
4.5396175 -0.58117926 1.2192502 -2.2489006e+38
4.5395975 -0.58946496 1.2192502 -2.2622448e+38
4.539577 -0.59775066 1.2192502 -2.2888815e+38
4.539557 -0.60603637 1.2192502 -2.3022257e+38
4.5395365 -0.61432201 1.2192502 -2.315622e+38
4.5395164 -0.62260771 1.2192502 -2.3289143e+38
4.5394959 -0.63089341 1.2192502 -2.3422585e+38
4.5394759 -0.63917911 1.2192502 -2.3422068e+38
4.5394554 -0.64746481 1.2192502 -2.342207e+38
4.5394354 -0.65575045 1.2192502 -2.342207e+38
4.5394149 -0.66403621 1.2192502 -2.3422589e+38
4.5393949 -0.67232186 1.2192502 -2.3289666e+38
4.5393744 -0.68060756 1.2192502 -2.3554993e+38
4.5393543 -0.68889326 1.2192502 -2.382084e+38
4.5393338 -0.6971789 1.2192502 -2.3553958e+38
4.5393138 -0.70546466 1.2192502 -2.3157253e+38
4.4863524 -0.28024247 1.2113245 nan
4.4863324 -0.2884253 1.2113245 nan
4.4863124 -0.29660815 1.2113245 nan
4.4862924 -0.30479097 1.2113245 nan
4.5402656 -0.31603721 1.2109644 nan
4.4862523 -0.32115665 1.2113245 -3.0079645e+38
4.4862323 -0.32933947 1.2113245 -2.7147539e+38
4.4862123 -0.3375223 1.2113245 -2.4356691e+38
4.4861922 -0.34570512 1.2113245 -2.4624107e+38
4.4861722 -0.35388798 1.2113245 -2.5023392e+38
4.4861522 -0.3620708 1.2113245 -2.4889948e+38
4.4861321 -0.37025365 1.2113245 -2.4889427e+38
4.4861121 -0.37843648 1.2113245 -2.4889942e+38
4.4860921 -0.3866193 1.2113245 -2.4890462e+38
4.4860721 -0.39480212 1.2113245 -2.4890459e+38
4.4860525 -0.40298498 1.2113245 -2.4890459e+38
4.4860325 -0.4111678 1.2113245 -2.488994e+38
4.4860125 -0.41935062 1.2113245 -2.4889423e+38
4.4859924 -0.42753348 1.2113245 -2.4889423e+38
4.4859724 -0.4357163 1.2113245 -2.4889942e+38
4.4859524 -0.44389915 1.2113245 -2.4623577e+38
4.4859324 -0.45208198 1.2113245 -2.4489612e+38
4.4859123 -0.4602648 1.2113245 -2.4356685e+38
4.4858923 -0.46844763 1.2113245 -2.4222203e+38
4.5398607 -0.48175099 1.2109644 -2.3955315e+38
4.5398402 -0.4900367 1.2109644 -2.3687907e+38
4.5398202 -0.49832237 1.2109644 -2.3421019e+38
4.5397997 -0.50660801 1.2109644 -2.3286017e+38
4.5397797 -0.51489371 1.2109644 -2.3019651e+38
4.5397592 -0.52317941 1.2109644 -2.2753805e+38
4.5397391 -0.53146511 1.2109644 -2.2619842e+38
4.5397186 -0.53975081 1.2109644 -2.2486919e+38
4.5396986 -0.54803652 1.2109644 -2.2486919e+38
4.5396781 -0.55632216 1.2109644 -2.2486402e+38
4.5396581 -0.56460792 1.2109644 -2.2354517e+38
4.5396376 -0.57289362 1.2109644 -2.2354523e+38
4.5396175 -0.58117926 1.2109644 -2.2488489e+38
4.5395975 -0.58946496 1.2109644 -2.2622452e+38
4.4855924 -0.5911901 1.2113245 -2.2888819e+38
4.4855723 -0.59937298 1.2113245 -2.3022263e+38
4.5395365 -0.61432201 1.2109644 -2.3155707e+38
4.5395164 -0.62260771 1.2109644 -2.3288628e+38
4.5394959 -0.63089341 1.2109644 -2.3422068e+38
4.5394759 -0.63917911 1.2109644 -2.3554993e+38
4.5394554 -0.64746481 1.2109644 -2.342207e+38
4.5394354 -0.65575045 1.2109644 -2.342207e+38
4.5394149 -0.66403621 1.2109644 -2.342207e+38
4.5393949 -0.67232186 1.2109644 -2.3289666e+38
4.5393744 -0.68060756 1.2109644 -2.342207e+38
4.5393543 -0.68889326 1.2109644 -2.3688437e+38
4.5393338 -0.6971789 1.2109644 -2.3022265e+38
4.4853325 -0.69756699 1.2113245 -2.2357643e+38
4.4863524 -0.28024247 1.2031416 nan
4.4863324 -0.2884253 1.2031416 nan
4.4863124 -0.29660815 1.2031416 nan
4.5402856 -0.30775151 1.2026788 nan
4.5402656 -0.31603721 1.2026788 nan
4.5402451 -0.32432288 1.2026788 -3.0346002e+38
4.540225 -0.33260858 1.2026788 -2.7274213e+38
4.4862123 -0.3375223 1.2031416 -2.4089274e+38
4.5401845 -0.34917995 1.2026788 -2.4491176e+38
4.540164 -0.35746562 1.2026788 -2.4757022e+38
4.4861522 -0.3620708 1.2031416 -2.4623579e+38
4.4861321 -0.37025365 1.2031416 -2.4491174e+38
4.4861121 -0.37843648 1.2031416 -2.4624616e+38
4.4860921 -0.3866193 1.2031416 -2.4757537e+38
4.4860721 -0.39480212 1.2031416 -2.4757017e+38
4.4860525 -0.40298498 1.2031416 -2.4757019e+38
4.4860325 -0.4111678 1.2031416 -2.4756502e+38
4.4860125 -0.41935062 1.2031416 -2.47565e+38
4.4859924 -0.42753348 1.2031416 -2.4756498e+38
4.4859724 -0.4357163 1.2031416 -2.4757017e+38
4.4859524 -0.44389915 1.2031416 -2.4491172e+38
4.4859324 -0.45208198 1.2031416 -2.4224805e+38
4.4859123 -0.4602648 1.2031416 -2.4224284e+38
4.4858923 -0.46844763 1.2031416 -2.4222722e+38
4.4858723 -0.47663045 1.2031416 -2.4088237e+38
4.4858522 -0.4848133 1.2031416 -2.3821349e+38
4.4858322 -0.49299616 1.2031416 -2.35555e+38
4.5397997 -0.50660801 1.2026788 -2.3154652e+38
4.5397797 -0.51489371 1.2026788 -2.2755361e+38
4.5397592 -0.52317941 1.2026788 -2.2355552e+38
4.5397391 -0.53146511 1.2026788 -2.2354511e+38
4.5397186 -0.53975081 1.2026788 -2.2221069e+38
4.5396986 -0.54803652 1.2026788 -2.2486917e+38
4.5396781 -0.55632216 1.2026788 -2.2619842e+38
4.5396581 -0.56460792 1.2026788 -2.2620363e+38
4.5396376 -0.57289362 1.2026788 -2.2487963e+38
4.5396175 -0.58117926 1.2026788 -2.262141e+38
4.5395975 -0.58946496 1.2026788 -2.2622452e+38
4.539577 -0.59775066 1.2026788 -2.2888819e+38
4.539557 -0.60603637 1.2026788 -2.3022261e+38
4.5395365 -0.61432201 1.2026788 -2.3155703e+38
4.5395164 -0.62260771 1.2026788 -2.3288626e+38
4.5394959 -0.63089341 1.2026788 -2.3421547e+38
4.5394759 -0.63917911 1.2026788 -2.3554469e+38
4.5394554 -0.64746481 1.2026788 -2.3554469e+38
4.5394354 -0.65575045 1.2026788 -2.3421547e+38
4.5394149 -0.66403621 1.2026788 -2.3421549e+38
4.5393949 -0.67232186 1.2026788 -2.3289145e+38
4.5393744 -0.68060756 1.2026788 -2.3421551e+38
4.5393543 -0.68889326 1.2026788 -2.3421555e+38
4.5393338 -0.6971789 1.2026788 -2.248902e+38
4.5393138 -0.70546466 1.2026788 -2.1560627e+38
4.4863324 -0.2884253 1.1949588 nan
4.5403061 -0.29946581 1.194393 nan
4.5402856 -0.30775151 1.194393 nan
4.5402656 -0.31603721 1.194393 nan
4.5402451 -0.32432288 1.194393 -3.0341323e+38
4.540225 -0.33260858 1.194393 -2.7278865e+38
4.4862123 -0.3375223 1.1949588 -2.4222185e+38
4.5401845 -0.34917995 1.194393 -2.4490649e+38
4.540164 -0.35746562 1.194393 -2.4757535e+38
4.4861522 -0.3620708 1.1949588 -2.4624614e+38
4.5401239 -0.37403703 1.194393 -2.4624614e+38
4.4861121 -0.37843648 1.1949588 -2.4624614e+38
4.4860921 -0.3866193 1.1949588 -2.4624095e+38
4.4860721 -0.39480212 1.1949588 -2.4624095e+38
4.4860525 -0.40298498 1.1949588 -2.4757022e+38
4.4860325 -0.4111678 1.1949588 -2.4757024e+38
4.4860125 -0.41935062 1.1949588 -2.4757019e+38
4.4859924 -0.42753348 1.1949588 -2.4624093e+38
4.4859724 -0.4357163 1.1949588 -2.449117e+38
4.4859524 -0.44389915 1.1949588 -2.4358247e+38
4.4859324 -0.45208198 1.1949588 -2.4225843e+38
4.4859123 -0.4602648 1.1949588 -2.4224284e+38
4.4858923 -0.46844763 1.1949588 -2.4356164e+38
4.4858723 -0.47663045 1.1949588 -2.4221679e+38
4.4858522 -0.4848133 1.1949588 -2.4087195e+38
4.4858322 -0.49299616 1.1949588 -2.3820826e+38
4.5397997 -0.50660801 1.194393 -2.3553419e+38
4.5397797 -0.51489371 1.194393 -2.3287569e+38
4.5397592 -0.52317941 1.194393 -2.2887758e+38
4.5397391 -0.53146511 1.194393 -2.2753793e+38
4.5397186 -0.53975081 1.194393 -2.2619834e+38
4.5396986 -0.54803652 1.194393 -2.2619836e+38
4.5396781 -0.55632216 1.194393 -2.261932e+38
4.5396581 -0.56460792 1.194393 -2.2620882e+38
4.5396376 -0.57289362 1.194393 -2.2621405e+38
4.5396175 -0.58117926 1.194393 -2.2621927e+38
4.5395975 -0.58946496 1.194393 -2.2755892e+38
4.539577 -0.59775066 1.194393 -2.2888819e+38
4.539557 -0.60603637 1.194393 -2.3154662e+38
4.5395365 -0.61432201 1.194393 -2.315518e+38
4.5395164 -0.62260771 1.194393 -2.3288622e+38
4.5394959 -0.63089341 1.194393 -2.3421545e+38
4.5394759 -0.63917911 1.194393 -2.3554465e+38
4.5394554 -0.64746481 1.194393 -2.342154e+38
4.5394354 -0.65575045 1.194393 -2.3421542e+38
4.5394149 -0.66403621 1.194393 -2.3421545e+38
4.5393949 -0.67232186 1.194393 -2.3422068e+38
4.5393744 -0.68060756 1.194393 -2.3554993e+38
4.5393543 -0.68889326 1.194393 -2.3820844e+38
4.5393338 -0.6971789 1.194393 -2.2886235e+38
4.5393138 -0.70546466 1.194393 -2.2081417e+38
4.5403466 -0.28289443 1.1861074 nan
4.5403261 -0.29118013 1.1861074 nan
4.5403061 -0.29946581 1.1861074 nan
4.5962777 -0.31082168 1.185414 nan
4.5402656 -0.31603721 1.1861074 nan
4.5402451 -0.32432288 1.1861074 -3.0210994e+38
4.540225 -0.33260858 1.1861074 -2.7277312e+38
4.4862123 -0.3375223 1.1867759 -2.4355627e+38
4.5401845 -0.34917995 1.1861074 -2.4491685e+38
4.4861722 -0.35388798 1.1867759 -2.462461e+38
4.4861522 -0.3620708 1.1867759 -2.4624614e+38
4.5401239 -0.37403703 1.1861074 -2.4624614e+38
4.4861121 -0.37843648 1.1867759 -2.4491172e+38
4.4860921 -0.3866193 1.1867759 -2.4358249e+38
4.5400629 -0.3988941 1.1861074 -2.4491174e+38
4.4860525 -0.40298498 1.1867759 -2.4624101e+38
4.4860325 -0.4111678 1.1867759 -2.4756508e+38
4.4860125 -0.41935062 1.1867759 -2.4756504e+38
4.4859924 -0.42753348 1.1867759 -2.4490655e+38
4.4859724 -0.4357163 1.1867759 -2.4225324e+38
4.4859524 -0.44389915 1.1867759 -2.4225322e+38
4.4859324 -0.45208198 1.1867759 -2.4091878e+38
4.4859123 -0.4602648 1.1867759 -2.4223762e+38
4.4858923 -0.46844763 1.1867759 -2.4356164e+38
4.4858723 -0.47663045 1.1867759 -2.4354604e+38
4.4858522 -0.4848133 1.1867759 -2.4353562e+38
4.4858322 -0.49299616 1.1867759 -2.4220633e+38
4.5397997 -0.50660801 1.1861074 -2.3954264e+38
4.5397797 -0.51489371 1.1861074 -2.3688412e+38
4.5397592 -0.52317941 1.1861074 -2.3419969e+38
4.5957241 -0.53741527 1.185414 -2.3286525e+38
4.5957036 -0.5458076 1.185414 -2.301964e+38
4.5396986 -0.54803652 1.1861074 -2.2886198e+38
4.5396781 -0.55632216 1.1861074 -2.2620357e+38
4.5396581 -0.56460792 1.1861074 -2.2621399e+38
4.5396376 -0.57289362 1.1861074 -2.2621403e+38
4.5396175 -0.58117926 1.1861074 -2.2755369e+38
4.5395975 -0.58946496 1.1861074 -2.2755373e+38
4.539577 -0.59775066 1.1861074 -2.302174e+38
4.539557 -0.60603637 1.1861074 -2.3154662e+38
4.5395365 -0.61432201 1.1861074 -2.3288105e+38
4.5395164 -0.62260771 1.1861074 -2.328862e+38
4.5394959 -0.63089341 1.1861074 -2.342154e+38
4.5394759 -0.63917911 1.1861074 -2.342154e+38
4.5394554 -0.64746481 1.1861074 -2.3421538e+38
4.5394354 -0.65575045 1.1861074 -2.342154e+38
4.5394149 -0.66403621 1.1861074 -2.3554465e+38
4.5393949 -0.67232186 1.1861074 -2.3554467e+38
4.5393744 -0.68060756 1.1861074 -2.3820313e+38
4.5393543 -0.68889326 1.1861074 -2.4085633e+38
4.5393338 -0.6971789 1.1861074 -2.3285492e+38
4.5403261 -0.29118013 1.1778216 nan
4.5403061 -0.29946581 1.1778216 nan
4.5402856 -0.30775151 1.1778216 nan
4.5962572 -0.31921402 1.1770216 nan
4.5402451 -0.32432288 1.1778216 -2.8215071e+38
4.540225 -0.33260858 1.1778216 -2.6749257e+38
4.5402045 -0.34089425 1.1778216 -2.5285048e+38
4.5401845 -0.34917995 1.1778216 -2.5022336e+38
4.4861722 -0.35388798 1.178593 -2.4756494e+38
4.4861522 -0.3620708 1.178593 -2.4624093e+38
4.5401239 -0.37403703 1.1778216 -2.449117e+38
4.4861121 -0.37843648 1.178593 -2.449117e+38
4.4860921 -0.3866193 1.178593 -2.4491172e+38
4.5400629 -0.3988941 1.1778216 -2.4491174e+38
4.4860525 -0.40298498 1.178593 -2.4623584e+38
4.4860325 -0.4111678 1.178593 -2.4623588e+38
4.4860125 -0.41935062 1.178593 -2.4623584e+38
4.4859924 -0.42753348 1.178593 -2.4357734e+38
4.4859724 -0.4357163 1.178593 -2.4225326e+38
4.4859524 -0.44389915 1.178593 -2.4224801e+38
4.4859324 -0.45208198 1.178593 -2.422376e+38
4.4859123 -0.4602648 1.178593 -2.4223758e+38
4.5398808 -0.47346532 1.1778216 -2.4356164e+38
4.5398607 -0.48175099 1.1778216 -2.448701e+38
4.5398402 -0.4900367 1.1778216 -2.4618369e+38
4.5398202 -0.49832237 1.1778216 -2.5815707e+38
4.5397997 -0.50660801 1.1778216 -2.7145448e+38
4.5397797 -0.51489371 1.1778216 -2.5548291e+38
4.5957446 -0.52902293 1.1770216 -2.4081986e+38
4.5957241 -0.53741527 1.1770216 -2.3551851e+38
4.5957036 -0.5458076 1.1770216 -2.3019121e+38
4.5956831 -0.55419999 1.1770216 -2.2886196e+38
4.5396781 -0.55632216 1.1778216 -2.288672e+38
4.5396581 -0.56460792 1.1778216 -2.2753799e+38
4.5396376 -0.57289362 1.1778216 -2.2753805e+38
4.5396175 -0.58117926 1.1778216 -2.2887772e+38
4.5395975 -0.58946496 1.1778216 -2.3020697e+38
4.539577 -0.59775066 1.1778216 -2.3154141e+38
4.539557 -0.60603637 1.1778216 -2.3287585e+38
4.5395365 -0.61432201 1.1778216 -2.3288105e+38
4.5395164 -0.62260771 1.1778216 -2.3421023e+38
4.5394959 -0.63089341 1.1778216 -2.3421017e+38
4.5394759 -0.63917911 1.1778216 -2.3554459e+38
4.5394554 -0.64746481 1.1778216 -2.3421536e+38
4.5394354 -0.65575045 1.1778216 -2.3421538e+38
4.5394149 -0.66403621 1.1778216 -2.3554463e+38
4.5393949 -0.67232186 1.1778216 -2.3687386e+38
4.5393744 -0.68060756 1.1778216 -2.395323e+38
4.5393543 -0.68889326 1.1778216 -2.4351461e+38
4.5393338 -0.6971789 1.1778216 -2.3813518e+38
4.7113476 -0.2826809 1.1667674 nan
4.7113266 -0.29129228 1.1667674 nan
4.6533122 -0.29694483 1.1677064 nan
4.5962982 -0.30242932 1.1686293 nan
4.5962777 -0.31082168 1.1686293 nan
4.5962572 -0.31921402 1.1686293 -3.368101e+38
4.5402451 -0.32432288 1.1695359 -2.6224866e+38
4.540225 -0.33260858 1.1695359 -2.6219667e+38
4.5402045 -0.34089425 1.1695359 -2.6086233e+38
4.5401845 -0.34917995 1.1695359 -2.5423187e+38
4.4861722 -0.35388798 1.1704102 -2.4757535e+38
4.4861522 -0.3620708 1.1704102 -2.4491689e+38
4.5401239 -0.37403703 1.1695359 -2.4225324e+38
4.4861121 -0.37843648 1.1704102 -2.4358247e+38
4.4860921 -0.3866193 1.1704102 -2.4491172e+38
4.4860721 -0.39480212 1.1704102 -2.4491174e+38
4.4860525 -0.40298498 1.1704102 -2.4490659e+38
4.4860325 -0.4111678 1.1704102 -2.4490144e+38
4.4860125 -0.41935062 1.1704102 -2.4490661e+38
4.4859924 -0.42753348 1.1704102 -2.4357736e+38
4.4859724 -0.4357163 1.1704102 -2.4091884e+38
4.4859524 -0.44389915 1.1704102 -2.4224282e+38
4.4859324 -0.45208198 1.1704102 -2.4357205e+38
4.4859123 -0.4602648 1.1704102 -2.4357202e+38
4.5398808 -0.47346532 1.1695359 -2.4222724e+38
4.5398607 -0.48175099 1.1695359 -2.4486495e+38
4.5398402 -0.4900367 1.1695359 -2.4751823e+38
4.5398202 -0.49832237 1.1695359 -2.7543723e+38
4.5397997 -0.50660801 1.1695359 -3.0341314e+38
4.5957651 -0.5206306 1.1686293 -2.7542648e+38
4.5957446 -0.52902293 1.1686293 -2.4615225e+38
4.5957241 -0.53741527 1.1686293 -2.3819242e+38
4.5957036 -0.5458076 1.1686293 -2.301963e+38
4.5956831 -0.55419999 1.1686293 -2.3019115e+38
4.5956626 -0.56259239 1.1686293 -2.3019638e+38
4.5396581 -0.56460792 1.1695359 -2.288672e+38
4.5396376 -0.57289362 1.1695359 -2.2753803e+38
4.5396175 -0.58117926 1.1695359 -2.3020174e+38
4.5395975 -0.58946496 1.1695359 -2.3153618e+38
4.539577 -0.59775066 1.1695359 -2.3287064e+38
4.539557 -0.60603637 1.1695359 -2.3287064e+38
4.5395365 -0.61432201 1.1695359 -2.3420508e+38
4.5395164 -0.62260771 1.1695359 -2.3420506e+38
4.5394959 -0.63089341 1.1695359 -2.3553427e+38
4.5394759 -0.63917911 1.1695359 -2.3553944e+38
4.5394554 -0.64746481 1.1695359 -2.3554463e+38
4.5394354 -0.65575045 1.1695359 -2.342206e+38
4.5394149 -0.66403621 1.1695359 -2.3554985e+38
4.5393949 -0.67232186 1.1695359 -2.3688427e+38
4.5393744 -0.68060756 1.1695359 -2.4219599e+38
4.5953345 -0.69687009 1.1686293 -2.4617314e+38
4.5393338 -0.6971789 1.1695359 -2.4347303e+38
4.7713404 -0.28551322 1.1570702 nan
4.7113266 -0.29129228 1.1581559 nan
4.7113056 -0.29990369 1.1581559 nan
4.6532912 -0.30544573 1.1592054 nan
4.6532707 -0.31394666 1.1592054 nan
4.5962572 -0.31921402 1.1602368 -3.2882414e+38
4.5402451 -0.32432288 1.1612502 -2.4759082e+38
4.540225 -0.33260858 1.1612502 -2.542371e+38
4.5402045 -0.34089425 1.1612502 -2.6221247e+38
4.5401845 -0.34917995 1.1612502 -2.5555595e+38
4.540164 -0.35746562 1.1612502 -2.5022863e+38
4.540144 -0.36575133 1.1612502 -2.4757015e+38
4.5401239 -0.37403703 1.1612502 -2.4490651e+38
4.4861121 -0.37843648 1.1622274 -2.4490651e+38
4.4860921 -0.3866193 1.1622274 -2.4623575e+38
4.4860721 -0.39480212 1.1622274 -2.4623577e+38
4.4860525 -0.40298498 1.1622274 -2.4755983e+38
4.4860325 -0.4111678 1.1622274 -2.4623062e+38
4.4860125 -0.41935062 1.1622274 -2.4623064e+38
4.4859924 -0.42753348 1.1622274 -2.4490142e+38
4.4859724 -0.4357163 1.1622274 -2.4489616e+38
4.4859524 -0.44389915 1.1622274 -2.4357205e+38
4.4859324 -0.45208198 1.1622274 -2.4223762e+38
4.4859123 -0.4602648 1.1622274 -2.409084e+38
4.4858923 -0.46844763 1.1622274 -2.4090325e+38
4.5398607 -0.48175099 1.1612502 -2.3822404e+38
4.5398402 -0.4900367 1.1612502 -2.3553972e+38
4.5398202 -0.49832237 1.1612502 -2.6755551e+38
4.5957856 -0.5122382 1.1602368 -3.0094167e+38
4.5957651 -0.5206306 1.1602368 -2.7684392e+38
4.5957446 -0.52902293 1.1602368 -2.5277235e+38
4.65271 -0.54347169 1.1592054 -2.4214364e+38
4.5957036 -0.5458076 1.1602368 -2.3284429e+38
4.5956831 -0.55419999 1.1602368 -2.301859e+38
4.5956626 -0.56259239 1.1602368 -2.275327e+38
4.5396581 -0.56460792 1.1612502 -2.2753795e+38
4.5396376 -0.57289362 1.1612502 -2.2753801e+38
4.5396175 -0.58117926 1.1612502 -2.2887249e+38
4.5395975 -0.58946496 1.1612502 -2.3153618e+38
4.539577 -0.59775066 1.1612502 -2.3154139e+38
4.539557 -0.60603637 1.1612502 -2.3286545e+38
4.5395365 -0.61432201 1.1612502 -2.3287064e+38
4.5395164 -0.62260771 1.1612502 -2.3287585e+38
4.5394959 -0.63089341 1.1612502 -2.3421027e+38
4.5394759 -0.63917911 1.1612502 -2.3421027e+38
4.5394554 -0.64746481 1.1612502 -2.3422064e+38
4.5394354 -0.65575045 1.1612502 -2.3422583e+38
4.5394149 -0.66403621 1.1612502 -2.3422581e+38
4.5393949 -0.67232186 1.1612502 -2.3423621e+38
4.5393744 -0.68060756 1.1612502 -2.3290179e+38
4.5953345 -0.69687009 1.1602368 -2.3157251e+38
4.595314 -0.70526242 1.1602368 -2.4349913e+38
4.7713404 -0.28551322 1.1483445 nan
4.7713189 -0.2942389 1.1483445 nan
4.7113056 -0.29990369 1.1495445 nan
4.6532912 -0.30544573 1.1507045 nan
4.6532707 -0.31394666 1.1507045 nan
4.5962572 -0.31921402 1.1518445 -3.2070361e+38
4.5962367 -0.32760638 1.1518445 -2.3295907e+38
4.540225 -0.33260858 1.1529645 -2.4761181e+38
4.5402045 -0.34089425 1.1529645 -2.6221251e+38
4.5401845 -0.34917995 1.1529645 -2.5688e+38
4.540164 -0.35746562 1.1529645 -2.5156307e+38
4.540144 -0.36575133 1.1529645 -2.488994e+38
4.5401239 -0.37403703 1.1529645 -2.4624095e+38
4.4861121 -0.37843648 1.1540445 -2.4623575e+38
4.5400834 -0.3906084 1.1529645 -2.4623058e+38
4.4860721 -0.39480212 1.1540445 -2.4755981e+38
4.4860525 -0.40298498 1.1540445 -2.4888904e+38
4.4860325 -0.4111678 1.1540445 -2.4755981e+38
4.4860125 -0.41935062 1.1540445 -2.4623058e+38
4.4859924 -0.42753348 1.1540445 -2.47565e+38
4.4859724 -0.4357163 1.1540445 -2.4756494e+38
4.4859524 -0.44389915 1.1540445 -2.4357722e+38
4.4859324 -0.45208198 1.1540445 -2.3958434e+38
4.4859123 -0.4602648 1.1540445 -2.3957917e+38
4.4858923 -0.46844763 1.1540445 -2.395688e+38
4.5398607 -0.48175099 1.1529645 -2.315779e+38
4.5398402 -0.4900367 1.1529645 -2.2363365e+38
4.5398202 -0.49832237 1.1529645 -2.6095583e+38
4.5957856 -0.5122382 1.1518445 -2.9689669e+38
4.5957651 -0.5206306 1.1518445 -2.7823016e+38
4.5957446 -0.52902293 1.1518445 -2.5813597e+38
4.65271 -0.54347169 1.1507045 -2.4609503e+38
4.5957036 -0.5458076 1.1518445 -2.341632e+38
4.5956831 -0.55419999 1.1518445 -2.3018079e+38
4.5956626 -0.56259239 1.1518445 -2.2487428e+38
4.5396581 -0.56460792 1.1529645 -2.2620874e+38
4.5396376 -0.57289362 1.1529645 -2.2753799e+38
4.5396175 -0.58117926 1.1529645 -2.2887245e+38
4.5395975 -0.58946496 1.1529645 -2.3020689e+38
4.539577 -0.59775066 1.1529645 -2.3154133e+38
4.539557 -0.60603637 1.1529645 -2.328706e+38
4.5395365 -0.61432201 1.1529645 -2.3286543e+38
4.5395164 -0.62260771 1.1529645 -2.3154658e+38
4.5394959 -0.63089341 1.1529645 -2.3288102e+38
4.5394759 -0.63917911 1.1529645 -2.3289141e+38
4.5394554 -0.64746481 1.1529645 -2.328966e+38
4.5394354 -0.65575045 1.1529645 -2.3289658e+38
4.5394149 -0.66403621 1.1529645 -2.3289139e+38
4.5393949 -0.67232186 1.1529645 -2.3157255e+38
4.595355 -0.68847775 1.1518445 -2.2492643e+38
4.5953345 -0.69687009 1.1518445 -2.1693542e+38
4.595314 -0.70526242 1.1518445 -2.4480763e+38
4.7713404 -0.28551322 1.1396188 nan
4.7713189 -0.2942389 1.1396188 nan
4.7113056 -0.29990369 1.140933 nan
4.7112842 -0.3085151 1.140933 nan
4.6532707 -0.31394666 1.1422036 nan
4.5962572 -0.31921402 1.143452 -3.1413039e+38
4.5402451 -0.32432288 1.1446787 -2.3821384e+38
4.540225 -0.33260858 1.1446787 -2.4890478e+38
4.5402045 -0.34089425 1.1446787 -2.5954893e+38
4.5401845 -0.34917995 1.1446787 -2.5422674e+38
4.4861722 -0.35388798 1.1458616 -2.5023384e+38
4.4861522 -0.3620708 1.1458616 -2.4757537e+38
4.5401239 -0.37403703 1.1446787 -2.4624097e+38
4.4861121 -0.37843648 1.1458616 -2.4623577e+38
4.4860921 -0.3866193 1.1458616 -2.4622539e+38
4.4860721 -0.39480212 1.1458616 -2.4623058e+38
4.4860525 -0.40298498 1.1458616 -2.4756498e+38
4.4860325 -0.4111678 1.1458616 -2.4755977e+38
4.4860125 -0.41935062 1.1458616 -2.4755975e+38
4.4859924 -0.42753348 1.1458616 -2.4756492e+38
4.4859724 -0.4357163 1.1458616 -2.475649e+38
4.4859524 -0.44389915 1.1458616 -2.4490642e+38
4.4859324 -0.45208198 1.1458616 -2.422428e+38
4.4859123 -0.4602648 1.1458616 -2.4090838e+38
4.5398808 -0.47346532 1.1446787 -2.4089803e+38
4.5398607 -0.48175099 1.1446787 -2.3558114e+38
4.5398402 -0.4900367 1.1446787 -2.3159329e+38
4.5958061 -0.50384587 1.143452 -2.5694193e+38
4.5957856 -0.5122382 1.143452 -2.8233212e+38
4.5957651 -0.5206306 1.143452 -2.6889431e+38
4.5957446 -0.52902293 1.143452 -2.5544634e+38
4.5957241 -0.53741527 1.143452 -2.4480739e+38
4.5957036 -0.5458076 1.143452 -2.3416845e+38
4.5396986 -0.54803652 1.1446787 -2.3151527e+38
4.5956626 -0.56259239 1.143452 -2.2885681e+38
4.5396581 -0.56460792 1.1446787 -2.2753797e+38
4.5396376 -0.57289362 1.1446787 -2.2753797e+38
4.5396175 -0.58117926 1.1446787 -2.2887239e+38
4.5395975 -0.58946496 1.1446787 -2.3020683e+38
4.539577 -0.59775066 1.1446787 -2.3021723e+38
4.539557 -0.60603637 1.1446787 -2.3155172e+38
4.5395365 -0.61432201 1.1446787 -2.3155176e+38
4.5395164 -0.62260771 1.1446787 -2.3022253e+38
4.5394959 -0.63089341 1.1446787 -2.3155695e+38
4.5394759 -0.63917911 1.1446787 -2.3289658e+38
4.5394554 -0.64746481 1.1446787 -2.3289658e+38
4.5394354 -0.65575045 1.1446787 -2.3422581e+38
4.5394149 -0.66403621 1.1446787 -2.3423098e+38
4.5953755 -0.68008536 1.143452 -2.3423619e+38
4.595355 -0.68847775 1.143452 -2.3024853e+38
4.5953345 -0.69687009 1.143452 -2.2625042e+38
4.595314 -0.70526242 1.143452 -2.5550897e+38
4.7713189 -0.2942389 1.130893 nan
4.7113056 -0.29990369 1.1323216 nan
4.7112842 -0.3085151 1.1323216 nan
4.6532707 -0.31394666 1.1337025 nan
4.5962572 -0.31921402 1.1350597 -3.0733858e+38
4.5962367 -0.32760638 1.1350597 -2.4353055e+38
4.540225 -0.33260858 1.1363931 -2.502495e+38
4.5402045 -0.34089425 1.1363931 -2.5689041e+38
4.5401845 -0.34917995 1.1363931 -2.5290268e+38
4.4861722 -0.35388798 1.1376787 -2.4758056e+38
4.540144 -0.36575133 1.1363931 -2.4624614e+38
4.5401239 -0.37403703 1.1363931 -2.4491691e+38
4.5401034 -0.38232273 1.1363931 -2.4491174e+38
4.5400834 -0.3906084 1.1363931 -2.4490657e+38
4.4860721 -0.39480212 1.1376787 -2.4623582e+38
4.5400429 -0.40717977 1.1363931 -2.4623579e+38
4.4860325 -0.4111678 1.1376787 -2.4755983e+38
4.4860125 -0.41935062 1.1376787 -2.4755981e+38
4.4859924 -0.42753348 1.1376787 -2.4755979e+38
4.4859724 -0.4357163 1.1376787 -2.4623571e+38
4.4859524 -0.44389915 1.1376787 -2.4624087e+38
4.4859324 -0.45208198 1.1376787 -2.4490125e+38
4.4859123 -0.4602648 1.1376787 -2.4356683e+38
4.5398808 -0.47346532 1.1363931 -2.409032e+38
4.5398607 -0.48175099 1.1363931 -2.3957398e+38
4.5398402 -0.4900367 1.1363931 -2.3824461e+38
4.5398202 -0.49832237 1.1363931 -2.5289193e+38
4.5957856 -0.5122382 1.1350597 -2.6758084e+38
4.5957651 -0.5206306 1.1350597 -2.6088787e+38
4.5957446 -0.52902293 1.1350597 -2.5282429e+38
4.5957241 -0.53741527 1.1350597 -2.4351459e+38
4.5397186 -0.53975081 1.1363931 -2.3418407e+38
4.5396986 -0.54803652 1.1363931 -2.3284452e+38
4.5956626 -0.56259239 1.1350597 -2.315205e+38
4.5396581 -0.56460792 1.1363931 -2.3019649e+38
4.5396376 -0.57289362 1.1363931 -2.2753282e+38
4.5396175 -0.58117926 1.1363931 -2.2886722e+38
4.5395975 -0.58946496 1.1363931 -2.2887762e+38
4.539577 -0.59775066 1.1363931 -2.3022245e+38
4.539557 -0.60603637 1.1363931 -2.3022249e+38
4.5395365 -0.61432201 1.1363931 -2.3022772e+38
4.5395164 -0.62260771 1.1363931 -2.2889849e+38
4.5394959 -0.63089341 1.1363931 -2.3023291e+38
4.5394759 -0.63917911 1.1363931 -2.3156733e+38
4.5394554 -0.64746481 1.1363931 -2.3289658e+38
4.5394354 -0.65575045 1.1363931 -2.34231e+38
4.5394149 -0.66403621 1.1363931 -2.3556542e+38
4.5953755 -0.68008536 1.1350597 -2.3689986e+38
4.595355 -0.68847775 1.1350597 -2.369051e+38
4.5953345 -0.69687009 1.1350597 -2.3556025e+38
4.595314 -0.70526242 1.1350597 -2.6612724e+38
4.7713189 -0.2942389 1.1221673 nan
4.7113056 -0.29990369 1.1237102 nan
4.7112842 -0.3085151 1.1237102 nan
4.6532707 -0.31394666 1.1252016 nan
4.5962572 -0.31921402 1.1266674 -3.1137269e+38
4.5402451 -0.32432288 1.1281073 -2.3945441e+38
4.540225 -0.33260858 1.1281073 -2.4887863e+38
4.5402045 -0.34089425 1.1281073 -2.5820919e+38
4.5401845 -0.34917995 1.1281073 -2.5289745e+38
4.540164 -0.35746562 1.1281073 -2.4890979e+38
4.540144 -0.36575133 1.1281073 -2.4758056e+38
4.5401239 -0.37403703 1.1281073 -2.4757537e+38
4.5401034 -0.38232273 1.1281073 -2.4624095e+38
4.5400834 -0.3906084 1.1281073 -2.462462e+38
4.4860721 -0.39480212 1.1294959 -2.4623586e+38
4.5400429 -0.40717977 1.1281073 -2.4755989e+38
4.5400224 -0.41546544 1.1281073 -2.488891e+38
4.4860125 -0.41935062 1.1294959 -2.488891e+38
4.4859924 -0.42753348 1.1294959 -2.4755985e+38
4.4859724 -0.4357163 1.1294959 -2.4756498e+38
4.4859524 -0.44389915 1.1294959 -2.462305e+38
4.4859324 -0.45208198 1.1294959 -2.4489608e+38
4.4859123 -0.4602648 1.1294959 -2.4356164e+38
4.5398808 -0.47346532 1.1281073 -2.4223241e+38
4.5398607 -0.48175099 1.1281073 -2.422272e+38
4.5398402 -0.4900367 1.1281073 -2.4088747e+38
4.5398202 -0.49832237 1.1281073 -2.5023348e+38
4.5397997 -0.50660801 1.1281073 -2.5959513e+38
4.5957651 -0.5206306 1.1266674 -2.5286064e+38
4.5957446 -0.52902293 1.1266674 -2.4745554e+38
4.5957241 -0.53741527 1.1266674 -2.4083023e+38
4.5397186 -0.53975081 1.1281073 -2.3550814e+38
4.5396986 -0.54803652 1.1281073 -2.3284452e+38
4.5396781 -0.55632216 1.1281073 -2.3152052e+38
4.5396581 -0.56460792 1.1281073 -2.3019133e+38
4.5396376 -0.57289362 1.1281073 -2.288517e+38
4.5396175 -0.58117926 1.1281073 -2.2886724e+38
4.5395975 -0.58946496 1.1281073 -2.3020687e+38
4.539577 -0.59775066 1.1281073 -2.3021728e+38
4.539557 -0.60603637 1.1281073 -2.3155174e+38
4.5395365 -0.61432201 1.1281073 -2.3155695e+38
4.5395164 -0.62260771 1.1281073 -2.3289137e+38
4.5394959 -0.63089341 1.1281073 -2.3289135e+38
4.5394759 -0.63917911 1.1281073 -2.3422579e+38
4.5394554 -0.64746481 1.1281073 -2.3555502e+38
4.5394354 -0.65575045 1.1281073 -2.3688427e+38
4.5394149 -0.66403621 1.1281073 -2.3688946e+38
4.5953755 -0.68008536 1.1266674 -2.3689471e+38
4.5393744 -0.68060756 1.1281073 -2.342363e+38
4.5393543 -0.68889326 1.1281073 -2.3157259e+38
4.5393338 -0.6971789 1.1281073 -2.5952785e+38
4.833312 -0.29728374 1.1117293 nan
4.7113056 -0.29990369 1.1150987 nan
4.7112842 -0.3085151 1.1150987 nan
4.6532707 -0.31394666 1.1167006 nan
4.5402656 -0.31603721 1.1198217 -3.1658059e+38
4.5402451 -0.32432288 1.1198217 -2.3552906e+38
4.540225 -0.33260858 1.1198217 -2.4759618e+38
4.5402045 -0.34089425 1.1198217 -2.5821962e+38
4.5401845 -0.34917995 1.1198217 -2.5423191e+38
4.540164 -0.35746562 1.1198217 -2.4890981e+38
4.540144 -0.36575133 1.1198217 -2.4890983e+38
4.5401239 -0.37403703 1.1198217 -2.4890464e+38
4.5401034 -0.38232273 1.1198217 -2.4756502e+38
4.5400834 -0.3906084 1.1198217 -2.4623579e+38
4.4860721 -0.39480212 1.1213131 -2.4756504e+38
4.5400429 -0.40717977 1.1198217 -2.4889427e+38
4.4860325 -0.4111678 1.1213131 -2.5021833e+38
4.4860125 -0.41935062 1.1213131 -2.5021833e+38
4.4859924 -0.42753348 1.1213131 -2.488891e+38
4.4859724 -0.4357163 1.1213131 -2.4755983e+38
4.4859524 -0.44389915 1.1213131 -2.4622537e+38
4.4859324 -0.45208198 1.1213131 -2.4489093e+38
4.5399008 -0.46517959 1.1198217 -2.448857e+38
4.5398808 -0.47346532 1.1198217 -2.4355645e+38
4.5398607 -0.48175099 1.1198217 -2.4354602e+38
4.5398402 -0.4900367 1.1198217 -2.4355113e+38
4.5398202 -0.49832237 1.1198217 -2.4755433e+38
4.5397997 -0.50660801 1.1198217 -2.5153676e+38
4.5957651 -0.5206306 1.1182749 -2.4616268e+38
4.5397592 -0.52317941 1.1198217 -2.4083023e+38
4.5957241 -0.53741527 1.1182749 -2.3816662e+38
4.5397186 -0.53975081 1.1198217 -2.3550299e+38
4.5396986 -0.54803652 1.1198217 -2.3283936e+38
4.5396781 -0.55632216 1.1198217 -2.3019131e+38
4.5396581 -0.56460792 1.1198217 -2.3019135e+38
4.5396376 -0.57289362 1.1198217 -2.288673e+38
4.5396175 -0.58117926 1.1198217 -2.3020689e+38
4.5395975 -0.58946496 1.1198217 -2.3154133e+38
4.539577 -0.59775066 1.1198217 -2.3154652e+38
4.539557 -0.60603637 1.1198217 -2.3155174e+38
4.5395365 -0.61432201 1.1198217 -2.342154e+38
4.5395164 -0.62260771 1.1198217 -2.3554463e+38
4.5394959 -0.63089341 1.1198217 -2.3687388e+38
4.5394759 -0.63917911 1.1198217 -2.3687907e+38
4.5394554 -0.64746481 1.1198217 -2.382083e+38
4.5394354 -0.65575045 1.1198217 -2.3821351e+38
4.5394149 -0.66403621 1.1198217 -2.3821351e+38
4.5953755 -0.68008536 1.1182749 -2.3689473e+38
4.5393744 -0.68060756 1.1198217 -2.3290709e+38
4.5393543 -0.68889326 1.1198217 -2.2760054e+38
4.5393338 -0.6971789 1.1198217 -2.5289741e+38
4.7113266 -0.29129228 1.1064873 nan
4.7113056 -0.29990369 1.1064873 nan
4.6532912 -0.30544573 1.1081997 nan
4.5962777 -0.31082168 1.1098826 nan
4.5402656 -0.31603721 1.1115359 -2.9680832e+38
4.5402451 -0.32432288 1.1115359 -2.3818234e+38
4.540225 -0.33260858 1.1115359 -2.4889948e+38
4.5402045 -0.34089425 1.1115359 -2.5954888e+38
4.5401845 -0.34917995 1.1115359 -2.5556118e+38
4.4861722 -0.35388798 1.1131302 -2.515683e+38
4.4861522 -0.3620708 1.1131302 -2.5023388e+38
4.5401239 -0.37403703 1.1115359 -2.5023388e+38
4.4861121 -0.37843648 1.1131302 -2.4757024e+38
4.5400834 -0.3906084 1.1115359 -2.462306e+38
4.4860721 -0.39480212 1.1131302 -2.4756498e+38
4.5400429 -0.40717977 1.1115359 -2.4889425e+38
4.4860325 -0.4111678 1.1131302 -2.4889427e+38
4.4860125 -0.41935062 1.1131302 -2.5022352e+38
4.4859924 -0.42753348 1.1131302 -2.4888912e+38
4.4859724 -0.4357163 1.1131302 -2.4755987e+38
4.4859524 -0.44389915 1.1131302 -2.4622543e+38
4.4859324 -0.45208198 1.1131302 -2.4489097e+38
4.4859123 -0.4602648 1.1131302 -2.4355649e+38
4.5398808 -0.47346532 1.1115359 -2.4355126e+38
4.5398607 -0.48175099 1.1115359 -2.4221677e+38
4.5398402 -0.4900367 1.1115359 -2.4221156e+38
4.5398202 -0.49832237 1.1115359 -2.4354075e+38
4.5397997 -0.50660801 1.1115359 -2.4485436e+38
4.5957651 -0.5206306 1.1098826 -2.4084585e+38
4.5397592 -0.52317941 1.1115359 -2.3684261e+38
4.5957241 -0.53741527 1.1098826 -2.3418415e+38
4.5397186 -0.53975081 1.1115359 -2.3151533e+38
4.5396986 -0.54803652 1.1115359 -2.3152054e+38
4.5396781 -0.55632216 1.1115359 -2.3019653e+38
4.5396581 -0.56460792 1.1115359 -2.3020174e+38
4.5396376 -0.57289362 1.1115359 -2.288777e+38
4.5396175 -0.58117926 1.1115359 -2.3021212e+38
4.5395975 -0.58946496 1.1115359 -2.3154654e+38
4.539577 -0.59775066 1.1115359 -2.3155174e+38
4.539557 -0.60603637 1.1115359 -2.3155695e+38
4.5395365 -0.61432201 1.1115359 -2.3288618e+38
4.5395164 -0.62260771 1.1115359 -2.3421542e+38
4.5394959 -0.63089341 1.1115359 -2.3554467e+38
4.5394759 -0.63917911 1.1115359 -2.368739e+38
4.5394554 -0.64746481 1.1115359 -2.3820832e+38
4.5394354 -0.65575045 1.1115359 -2.3954276e+38
4.5394149 -0.66403621 1.1115359 -2.3954795e+38
4.5953755 -0.68008536 1.1098826 -2.4088244e+38
4.595355 -0.68847775 1.1098826 -2.315623e+38
4.5393543 -0.68889326 1.1115359 -2.2358698e+38
4.4853525 -0.68938416 1.1131302 -2.6892094e+38
4.7113056 -0.29990369 1.097876 nan
4.6532912 -0.30544573 1.0996988 nan
4.5962777 -0.31082168 1.1014901 -3.1566798e+38
4.5402656 -0.31603721 1.1032501 -2.7802766e+38
4.5402451 -0.32432288 1.1032501 -2.3955305e+38
4.540225 -0.33260858 1.1032501 -2.5026504e+38
4.5402045 -0.34089425 1.1032501 -2.5955925e+38
4.5401845 -0.34917995 1.1032501 -2.5690079e+38
4.540164 -0.35746562 1.1032501 -2.5289755e+38
4.540144 -0.36575133 1.1032501 -2.5155796e+38
4.5401239 -0.37403703 1.1032501 -2.5022873e+38
4.5401034 -0.38232273 1.1032501 -2.4889952e+38
4.5400834 -0.3906084 1.1032501 -2.4623584e+38
4.5400629 -0.3988941 1.1032501 -2.4756502e+38
4.5400429 -0.40717977 1.1032501 -2.4756504e+38
4.5400224 -0.41546544 1.1032501 -2.4889429e+38
4.5400023 -0.42375118 1.1032501 -2.4889429e+38
4.5399818 -0.43203685 1.1032501 -2.488891e+38
4.5399618 -0.44032255 1.1032501 -2.4755983e+38
4.4859524 -0.44389915 1.1049473 -2.4622539e+38
4.5399213 -0.45689392 1.1032501 -2.4489093e+38
4.5399008 -0.46517959 1.1032501 -2.4355126e+38
4.5398808 -0.47346532 1.1032501 -2.4222201e+38
4.5398607 -0.48175099 1.1032501 -2.4088755e+38
4.5398402 -0.4900367 1.1032501 -2.3955311e+38
4.5398202 -0.49832237 1.1032501 -2.3954789e+38
4.5397997 -0.50660801 1.1032501 -2.3820305e+38
4.5957651 -0.5206306 1.1014901 -2.3552895e+38
4.5397592 -0.52317941 1.1032501 -2.3286531e+38
4.5957241 -0.53741527 1.1014901 -2.3020166e+38
4.5397186 -0.53975081 1.1032501 -2.2753803e+38
4.5396986 -0.54803652 1.1032501 -2.2886728e+38
4.5396781 -0.55632216 1.1032501 -2.3019651e+38
4.5396581 -0.56460792 1.1032501 -2.3020172e+38
4.5396376 -0.57289362 1.1032501 -2.2888288e+38
4.5396175 -0.58117926 1.1032501 -2.302173e+38
4.5395975 -0.58946496 1.1032501 -2.3155172e+38
4.539577 -0.59775066 1.1032501 -2.3155691e+38
4.539557 -0.60603637 1.1032501 -2.302277e+38
4.5395365 -0.61432201 1.1032501 -2.3156214e+38
4.5395164 -0.62260771 1.1032501 -2.3289139e+38
4.5394959 -0.63089341 1.1032501 -2.3421545e+38
4.5394759 -0.63917911 1.1032501 -2.3554987e+38
4.5394554 -0.64746481 1.1032501 -2.3821351e+38
4.5394354 -0.65575045 1.1032501 -2.4087718e+38
4.5394149 -0.66403621 1.1032501 -2.4220641e+38
4.5953755 -0.68008536 1.1014901 -2.4353554e+38
4.5393744 -0.68060756 1.1032501 -2.3153085e+38
4.4853725 -0.68120128 1.1049473 -2.196618e+38
4.7113266 -0.29129228 1.0892645 nan
4.7113056 -0.29990369 1.0892645 nan
4.6532912 -0.30544573 1.0911978 nan
4.5962777 -0.31082168 1.0930978 -3.1031973e+38
4.5402656 -0.31603721 1.0949645 -2.7948657e+38
4.5402451 -0.32432288 1.0949645 -2.5021794e+38
4.5962162 -0.33599874 1.0930978 -2.5689558e+38
4.5402045 -0.34089425 1.0949645 -2.622177e+38
4.5401845 -0.34917995 1.0949645 -2.5822483e+38
4.540164 -0.35746562 1.0949645 -2.5555084e+38
4.540144 -0.36575133 1.0949645 -2.528924e+38
4.5401239 -0.37403703 1.0949645 -2.5022877e+38
4.5401034 -0.38232273 1.0949645 -2.4889956e+38
4.5400834 -0.3906084 1.0949645 -2.475651e+38
4.4860721 -0.39480212 1.0967644 -2.4756504e+38
4.5400429 -0.40717977 1.0949645 -2.4756506e+38
4.5400224 -0.41546544 1.0949645 -2.4756508e+38
4.5400023 -0.42375118 1.0949645 -2.4755987e+38
4.5399818 -0.43203685 1.0949645 -2.462306e+38
4.5399618 -0.44032255 1.0949645 -2.4622539e+38
4.4859524 -0.44389915 1.0967644 -2.4489093e+38
4.5399213 -0.45689392 1.0949645 -2.4355647e+38
4.5399008 -0.46517959 1.0949645 -2.4222199e+38
4.5398808 -0.47346532 1.0949645 -2.3955834e+38
4.5398607 -0.48175099 1.0949645 -2.382239e+38
4.5398402 -0.4900367 1.0949645 -2.3555506e+38
4.5398202 -0.49832237 1.0949645 -2.3422581e+38
4.5397997 -0.50660801 1.0949645 -2.3288616e+38
4.5957651 -0.5206306 1.0930978 -2.3154648e+38
4.5957446 -0.52902293 1.0930978 -2.315361e+38
4.5957241 -0.53741527 1.0930978 -2.2887243e+38
4.5957036 -0.5458076 1.0930978 -2.2754322e+38
4.5956831 -0.55419999 1.0930978 -2.2886728e+38
4.5396781 -0.55632216 1.0949645 -2.3019651e+38
4.5396581 -0.56460792 1.0949645 -2.2887764e+38
4.5396376 -0.57289362 1.0949645 -2.2755882e+38
4.5396175 -0.58117926 1.0949645 -2.2889324e+38
4.5395975 -0.58946496 1.0949645 -2.3023285e+38
4.539577 -0.59775066 1.0949645 -2.3022766e+38
4.539557 -0.60603637 1.0949645 -2.3022251e+38
4.5395365 -0.61432201 1.0949645 -2.3023291e+38
4.5395164 -0.62260771 1.0949645 -2.3156216e+38
4.5394959 -0.63089341 1.0949645 -2.3422062e+38
4.5394759 -0.63917911 1.0949645 -2.3555506e+38
4.5394554 -0.64746481 1.0949645 -2.3821871e+38
4.5394354 -0.65575045 1.0949645 -2.4087718e+38
4.5394149 -0.66403621 1.0949645 -2.4221679e+38
4.5953755 -0.68008536 1.0930978 -2.4489056e+38
4.5393744 -0.68060756 1.0949645 -2.2753764e+38
4.4853725 -0.68120128 1.0967644 -2.1023279e+38
4.4323707 -0.68173367 1.0985311 -2.9038216e+38
4.7113266 -0.29129228 1.0806531 nan
4.7113056 -0.29990369 1.0806531 nan
4.6532912 -0.30544573 1.0826969 nan
4.5962777 -0.31082168 1.0847055 -3.0357494e+38
4.5962572 -0.31921402 1.0847055 -2.8204145e+38
4.5962367 -0.32760638 1.0847055 -2.6085191e+38
4.540225 -0.33260858 1.0866787 -2.6355732e+38
4.5402045 -0.34089425 1.0866787 -2.6487616e+38
4.4861922 -0.34570512 1.0885816 -2.6087811e+38
4.540164 -0.35746562 1.0866787 -2.5689045e+38
4.540144 -0.36575133 1.0866787 -2.5290279e+38
4.5401239 -0.37403703 1.0866787 -2.4890472e+38
4.5401034 -0.38232273 1.0866787 -2.4890474e+38
4.5400834 -0.3906084 1.0866787 -2.4889433e+38
4.4860721 -0.39480212 1.0885816 -2.4755987e+38
4.5400429 -0.40717977 1.0866787 -2.4623064e+38
4.5400224 -0.41546544 1.0866787 -2.4623064e+38
4.5400023 -0.42375118 1.0866787 -2.4490137e+38
4.5399818 -0.43203685 1.0866787 -2.4489616e+38
4.5399618 -0.44032255 1.0866787 -2.4356691e+38
4.4859524 -0.44389915 1.0885816 -2.435617e+38
4.4859324 -0.45208198 1.0885816 -2.4222722e+38
4.4859123 -0.4602648 1.0885816 -2.3956353e+38
4.5398808 -0.47346532 1.0866787 -2.3689988e+38
4.4858723 -0.47663045 1.0885816 -2.3423623e+38
4.4858522 -0.4848133 1.0885816 -2.3156737e+38
4.5398202 -0.49832237 1.0866787 -2.3023811e+38
4.5957856 -0.5122382 1.0847055 -2.2757442e+38
4.5957651 -0.5206306 1.0847055 -2.2889841e+38
4.5957446 -0.52902293 1.0847055 -2.2888281e+38
4.5957241 -0.53741527 1.0847055 -2.2887241e+38
4.5957036 -0.5458076 1.0847055 -2.2753801e+38
4.5956831 -0.55419999 1.0847055 -2.2886724e+38
4.5396781 -0.55632216 1.0866787 -2.2887243e+38
4.5396581 -0.56460792 1.0866787 -2.2754841e+38
4.5396376 -0.57289362 1.0866787 -2.2622959e+38
4.5396175 -0.58117926 1.0866787 -2.2756403e+38
4.5395975 -0.58946496 1.0866787 -2.2889845e+38
4.539577 -0.59775066 1.0866787 -2.2889845e+38
4.539557 -0.60603637 1.0866787 -2.2889847e+38
4.5395365 -0.61432201 1.0866787 -2.3023293e+38
4.5395164 -0.62260771 1.0866787 -2.3023813e+38
4.5394959 -0.63089341 1.0866787 -2.328966e+38
4.5394759 -0.63917911 1.0866787 -2.3556025e+38
4.5394554 -0.64746481 1.0866787 -2.3821873e+38
4.5394354 -0.65575045 1.0866787 -2.4088239e+38
4.5394149 -0.66403621 1.0866787 -2.4354606e+38
4.5393949 -0.67232186 1.0866787 -2.4485416e+38
4.5393744 -0.68060756 1.0866787 -2.2216348e+38
4.4323907 -0.67365181 1.0904492 -1.9967162e+38
4.6533122 -0.29694483 1.0741959 nan
4.6532912 -0.30544573 1.0741959 nan
4.5962777 -0.31082168 1.076313 -2.4627794e+38
4.5402656 -0.31603721 1.078393 -2.5552982e+38
4.5402451 -0.32432288 1.078393 -2.6618971e+38
4.540225 -0.33260858 1.078393 -2.6488135e+38
4.5402045 -0.34089425 1.078393 -2.6488137e+38
4.4861922 -0.34570512 1.0803988 -2.6088333e+38
4.540164 -0.35746562 1.078393 -2.5689045e+38
4.540144 -0.36575133 1.078393 -2.5290276e+38
4.4861321 -0.37025365 1.0803988 -2.5023394e+38
4.4861121 -0.37843648 1.0803988 -2.5022875e+38
4.4860921 -0.3866193 1.0803988 -2.4889433e+38
4.4860721 -0.39480212 1.0803988 -2.4756508e+38
4.5400429 -0.40717977 1.078393 -2.4623064e+38
4.4860325 -0.4111678 1.0803988 -2.462306e+38
4.5400023 -0.42375118 1.078393 -2.4622539e+38
4.5399818 -0.43203685 1.078393 -2.4356689e+38
4.5399618 -0.44032255 1.078393 -2.4223767e+38
4.4859524 -0.44389915 1.0803988 -2.4223245e+38
4.4859324 -0.45208198 1.0803988 -2.4222722e+38
4.5399008 -0.46517959 1.078393 -2.3956353e+38
4.5398808 -0.47346532 1.078393 -2.3822394e+38
4.5398607 -0.48175099 1.078393 -2.3556029e+38
4.5398402 -0.4900367 1.078393 -2.3422064e+38
4.5958061 -0.50384587 1.076313 -2.3289654e+38
4.5957856 -0.5122382 1.076313 -2.3155691e+38
4.6527514 -0.52646983 1.0741959 -2.3155168e+38
4.5957446 -0.52902293 1.076313 -2.3021723e+38
4.5957241 -0.53741527 1.076313 -2.3020681e+38
4.5957036 -0.5458076 1.076313 -2.28862e+38
4.5956831 -0.55419999 1.076313 -2.2887239e+38
4.5396781 -0.55632216 1.078393 -2.3021202e+38
4.5396581 -0.56460792 1.078393 -2.2888281e+38
4.5396376 -0.57289362 1.078393 -2.2755363e+38
4.5396175 -0.58117926 1.078393 -2.2888807e+38
4.5395975 -0.58946496 1.078393 -2.3022251e+38
4.539577 -0.59775066 1.078393 -2.2889847e+38
4.539557 -0.60603637 1.078393 -2.2889849e+38
4.5395365 -0.61432201 1.078393 -2.3023293e+38
4.5395164 -0.62260771 1.078393 -2.3157257e+38
4.5394959 -0.63089341 1.078393 -2.3290179e+38
4.5394759 -0.63917911 1.078393 -2.3556546e+38
4.5394554 -0.64746481 1.078393 -2.3822913e+38
4.5394354 -0.65575045 1.078393 -2.408928e+38
4.5394149 -0.66403621 1.078393 -2.4355128e+38
4.5393949 -0.67232186 1.078393 -2.4754373e+38
4.5393744 -0.68060756 1.078393 -2.1681007e+38
4.4323907 -0.67365181 1.0823673 -1.8744372e+38
4.5962982 -0.30242932 1.0679207 -3.1690914e+38
4.5402856 -0.30775151 1.0701073 -1.8780741e+38
4.5402656 -0.31603721 1.0701073 -2.2893514e+38
