# .PCD v0.7 - Point Cloud Data file format
VERSION 0.7
FIELDS x y z rgb
SIZE 4 4 4 4
TYPE F F F F
COUNT 1 1 1 1
WIDTH 1150
HEIGHT 1
VIEWPOINT 0 0 0 1 0 0 0
POINTS 1150
DATA ascii
1.9064567 -0.42906362 1.8491979 nan
1.8974497 -0.43044272 1.8460007 nan
1.8974335 -0.43369222 1.8460007 nan
1.8974175 -0.43694171 1.8460007 nan
1.8894098 -0.43846765 1.8431587 nan
1.8893938 -0.44170192 1.8431587 nan
1.8813863 -0.4431822 1.8403169 nan
1.8723803 -0.44441086 1.8371198 -3.3316732e+38
1.864373 -0.44582826 1.8342779 -3.1573664e+38
1.8483748 -0.4454155 1.828594 -2.9975442e+38
1.840368 -0.44675675 1.8257521 -2.8239106e+38
1.8403525 -0.44989762 1.8257521 -2.6644545e+38
1.832346 -0.45119318 1.8229103 -2.9174224e+38
1.8253384 -0.45269078 1.8204236 -3.156219e+38
1.8173323 -0.45392725 1.8175817 nan
1.8173168 -0.45702434 1.8175817 nan
1.8173015 -0.46012145 1.8175817 nan
1.8092957 -0.46129695 1.8147397 nan
1.8092802 -0.46437883 1.8147397 nan
1.8092649 -0.46746069 1.8147397 nan
1.802258 -0.46882117 1.8122531 nan
1.8022428 -0.4718897 1.8122531 -3.371134e+38
1.8022275 -0.47495824 1.8122531 nan
1.8022125 -0.47802675 1.8122531 nan
1.8021972 -0.48109528 1.8122531 nan
1.802182 -0.48416382 1.8122531 nan
1.8021667 -0.48723239 1.8122531 -3.3703525e+38
1.8021514 -0.49030089 1.8122531 -3.3303193e+38
1.8021362 -0.49336943 1.8122531 -3.3034743e+38
1.8021209 -0.49643797 1.8122531 -3.2766788e+38
1.8021057 -0.4995065 1.8122531 -3.2362276e+38
1.8020904 -0.50257504 1.8122531 -3.1828516e+38
1.8020754 -0.50564361 1.8122531 -3.1430275e+38
1.7940707 -0.50654674 1.8094112 -3.1030985e+38
1.7940555 -0.50960004 1.8094112 -3.0500331e+38
1.7940404 -0.51265329 1.8094112 -2.9969161e+38
1.7940252 -0.5157066 1.8094112 -2.9700719e+38
1.8019991 -0.52098626 1.8122531 -2.9565196e+38
1.8019838 -0.52405477 1.8122531 -2.9296748e+38
1.808959 -0.52909803 1.8147397 -2.9028817e+38
1.8089437 -0.53217989 1.8147397 -2.8630039e+38
1.8089285 -0.53526181 1.8147397 -2.8229699e+38
1.8169017 -0.5406462 1.8175817 -2.8091048e+38
1.8168864 -0.54374331 1.8175817 -2.782157e+38
1.8168709 -0.54684043 1.8175817 -2.8222415e+38
1.8168557 -0.54993755 1.8175817 -2.84961e+38
1.808852 -0.5506711 1.8147397 -2.9436474e+38
1.8088367 -0.55375296 1.8147397 -3.0369008e+38
1.8088214 -0.55683488 1.8147397 -3.1036214e+38
1.8088059 -0.55991673 1.8147397 -3.1569986e+38
1.8018012 -0.5608772 1.8122531 -3.196668e+38
1.8017859 -0.56394571 1.8122531 -3.249629e+38
1.8017707 -0.56701428 1.8122531 -3.2363363e+38
1.7867782 -0.56545126 1.8069246 -3.2365446e+38
1.7867632 -0.56849122 1.8069246 -3.3569027e+38
1.7797589 -0.56934315 1.8044379 nan
1.7797439 -0.57236975 1.8044379 nan
1.7797289 -0.57539642 1.8044379 nan
1.7717264 -0.57587671 1.8015959 nan
1.7717113 -0.57888806 1.8015959 nan
1.7716963 -0.58189946 1.8015959 -3.3965213e+38
1.7646928 -0.58264279 1.7991092 -3.3964694e+38
1.7646778 -0.58564085 1.7991092 nan
1.764663 -0.5886389 1.7991092 nan
1.764648 -0.59163696 1.7991092 nan
1.7576447 -0.59231365 1.7966226 nan
1.7576296 -0.59529835 1.7966226 nan
1.7576149 -0.59828311 1.7966226 nan
1.7576001 -0.60126781 1.7966226 nan
1.750597 -0.60187781 1.7941359 nan
1.7505822 -0.60484916 1.7941359 nan
1.7435794 -0.60541928 1.7916493 nan
1.7435646 -0.60837734 1.7916493 nan
1.7435501 -0.6113354 1.7916493 nan
1.7365475 -0.61185205 1.7891626 nan
1.7365327 -0.61479676 1.7891626 nan
1.7365181 -0.61774153 1.7891626 nan
1.7295158 -0.61820489 1.7866759 nan
1.7295012 -0.62113625 1.7866759 nan
1.7294867 -0.6240676 1.7866759 nan
1.7294722 -0.62699902 1.7866759 -3.3966753e+38
1.72247 -0.62739575 1.7841892 -3.369986e+38
1.7224555 -0.63031375 1.7841892 -3.3567449e+38
1.722441 -0.63323188 1.7841892 -3.3434001e+38
1.7224264 -0.63614988 1.7841892 -3.3432956e+38
1.7224121 -0.63906795 1.7841892 -3.3429324e+38
1.7223976 -0.64198601 1.7841892 -3.3430881e+38
1.722383 -0.64490408 1.7841892 -3.343193e+38
1.7223685 -0.64782214 1.7841892 -3.3432459e+38
1.7223542 -0.65074021 1.7841892 -3.3432978e+38
1.7223396 -0.65365821 1.7841892 -3.3564863e+38
1.7293119 -0.65924436 1.7866759 -3.3698307e+38
1.7292974 -0.66217577 1.7866759 -3.3698307e+38
1.7292829 -0.66510713 1.7866759 -3.3831757e+38
1.7222817 -0.66533047 1.7841892 -3.3965205e+38
1.7292538 -0.67096996 1.7866759 nan
1.7222526 -0.6711666 1.7841892 nan
1.7222383 -0.67408466 1.7841892 nan
1.7222238 -0.67700267 1.7841892 nan
1.7222092 -0.67992079 1.7841892 nan
1.7221947 -0.6828388 1.7841892 nan
1.7291665 -0.68855828 1.7866759 nan
1.729152 -0.69148964 1.7866759 nan
1.7291374 -0.69442105 1.7866759 nan
1.7291229 -0.69735241 1.7866759 nan
1.7360942 -0.70313853 1.7891626 nan
1.7360797 -0.70608324 1.7891626 nan
1.7360651 -0.70902801 1.7891626 nan
1.743036 -0.71486747 1.7916493 nan
1.7430215 -0.71782553 1.7916493 nan
1.7499924 -0.72370487 1.7941359 nan
1.756963 -0.72961104 1.7966226 nan
1.7569482 -0.73259574 1.7966226 nan
1.7569335 -0.73558044 1.7966226 nan
1.7639041 -0.7415399 1.7991092 -3.3831696e+38
1.7708743 -0.74752599 1.8015959 -3.2372653e+38
1.7788424 -0.75396758 1.8044379 -3.2091739e+38
1.7858126 -0.76000881 1.8069246 -3.1819156e+38
1.7857974 -0.76304883 1.8069246 -3.2222607e+38
1.7927673 -0.76913011 1.8094112 -3.2628649e+38
1.7927523 -0.77218348 1.8094112 -3.2899691e+38
1.8007197 -0.77874309 1.8122531 -3.3304187e+38
1.8076892 -0.78489304 1.8147397 -3.3035762e+38
1.8076739 -0.78797495 1.8147397 -3.2902841e+38
1.8156412 -0.79460877 1.8175817 -3.0636405e+38
1.8156259 -0.79770595 1.8175817 -2.8503923e+38
1.8235927 -0.80438554 1.8204236 nan
1.8155951 -0.80390012 1.8175817 nan
1.8235619 -0.81061023 1.8204236 nan
1.7783017 -0.86292624 1.8044379 nan
1.7703063 -0.86195886 1.8015959 nan
1.7702913 -0.86497027 1.8015959 nan
1.7632937 -0.86446029 1.7991092 nan
1.7702615 -0.87099302 1.8015959 nan
1.7702465 -0.87400448 1.8015959 nan
1.7632492 -0.87345445 1.7991092 nan
1.7632344 -0.87645251 1.7991092 nan
1.7632194 -0.87945062 1.7991092 nan
1.7632046 -0.88244861 1.7991092 nan
1.7631896 -0.88544667 1.7991092 nan
1.7631748 -0.88844478 1.7991092 -3.0760907e+38
1.76316 -0.89144278 1.7991092 -2.9018293e+38
1.7561631 -0.89078617 1.7966226 -2.7415455e+38
1.7561481 -0.89377093 1.7966226 -2.7422227e+38
1.7631152 -0.900437 1.7991092 -2.7418589e+38
1.7561185 -0.89974034 1.7966226 -2.7023449e+38
1.7561038 -0.9027251 1.7966226 -2.6620054e+38
1.756089 -0.9057098 1.7966226 -2.7826271e+38
1.7560742 -0.90869457 1.7966226 -2.9160639e+38
1.7560594 -0.91167927 1.7966226 -2.8896298e+38
1.763026 -0.91842538 1.7991092 -2.8767594e+38
1.763011 -0.92142338 1.7991092 -2.9563638e+38
1.9065053 -0.41926372 1.8459312 nan
1.8974981 -0.42069426 1.8427513 nan
1.8974819 -0.42394376 1.8427513 nan
1.8974659 -0.42719325 1.8427513 nan
1.8974497 -0.43044272 1.8427513 nan
1.889442 -0.43199918 1.8399246 nan
1.889426 -0.43523341 1.8399246 nan
1.8814182 -0.43674418 1.8370979 nan
1.8814023 -0.43996316 1.8370979 -3.3705101e+38
1.872396 -0.44120899 1.8339179 -3.1161369e+38
1.8643889 -0.44264162 1.8310912 -2.8504452e+38
1.8563819 -0.44404382 1.8282645 -2.7825282e+38
1.8483748 -0.4454155 1.8254378 -2.7166361e+38
1.840368 -0.44675675 1.8226112 -2.5027116e+38
1.8323615 -0.44806749 1.8197845 -2.2788748e+38
1.8253539 -0.44957843 1.8173112 -2.8517439e+38
1.8253384 -0.45269078 1.8173112 nan
1.8173323 -0.45392725 1.8144846 nan
1.8173168 -0.45702434 1.8144846 nan
1.8173015 -0.46012145 1.8144846 nan
1.8092957 -0.46129695 1.8116579 nan
1.8092802 -0.46437883 1.8116579 nan
1.8092649 -0.46746069 1.8116579 nan
1.8092496 -0.47054258 1.8116579 nan
1.8022428 -0.4718897 1.8091846 nan
1.8022275 -0.47495824 1.8091846 nan
1.8022125 -0.47802675 1.8091846 nan
1.8021972 -0.48109528 1.8091846 nan
1.802182 -0.48416382 1.8091846 -3.3968327e+38
1.8021667 -0.48723239 1.8091846 -3.3436631e+38
1.8021514 -0.49030089 1.8091846 -3.2901297e+38
1.8021362 -0.49336943 1.8091846 -3.2631292e+38
1.8021209 -0.49643797 1.8091846 -3.2230945e+38
1.8021057 -0.4995065 1.8091846 -3.1960404e+38
1.8020904 -0.50257504 1.8091846 -3.1563198e+38
1.8020754 -0.50564361 1.8091846 -3.1031509e+38
1.8020601 -0.50871211 1.8091846 -3.0499296e+38
1.7940555 -0.50960004 1.8063579 -2.996812e+38
1.7940404 -0.51265329 1.8063579 -2.9434871e+38
1.7940252 -0.5157066 1.8063579 -2.929935e+38
1.8019991 -0.52098626 1.8091846 -2.9031422e+38
1.8089743 -0.52601618 1.8116579 -2.8895895e+38
1.808959 -0.52909803 1.8116579 -2.8630043e+38
1.8089437 -0.53217989 1.8116579 -2.8231266e+38
1.8089285 -0.53526181 1.8116579 -2.7827815e+38
1.8169017 -0.5406462 1.8144846 -2.755573e+38
1.8168864 -0.54374331 1.8144846 -2.7291966e+38
1.8168709 -0.54684043 1.8144846 -2.8357429e+38
1.8168557 -0.54993755 1.8144846 -2.9297787e+38
1.808852 -0.5506711 1.8116579 -2.9967108e+38
1.8088367 -0.55375296 1.8116579 -3.0501397e+38
1.8088214 -0.55683488 1.8116579 -3.1169131e+38
1.8088059 -0.55991673 1.8116579 -3.1700826e+38
1.8018012 -0.5608772 1.8091846 -3.2231483e+38
1.8017859 -0.56394571 1.8091846 -3.2629205e+38
1.8017707 -0.56701428 1.8091846 -3.2361274e+38
1.7867782 -0.56545126 1.8038845 -3.2103767e+38
1.7867632 -0.56849122 1.8038845 nan
1.7797589 -0.56934315 1.8014112 nan
1.7797439 -0.57236975 1.8014112 nan
1.7797289 -0.57539642 1.8014112 nan
1.7717264 -0.57587671 1.7985845 nan
1.7717113 -0.57888806 1.7985845 -3.3965215e+38
1.7716963 -0.58189946 1.7985845 -3.3961061e+38
1.7716815 -0.58491087 1.7985845 -3.3831254e+38
1.7646778 -0.58564085 1.7961111 nan
1.764663 -0.5886389 1.7961111 nan
1.764648 -0.59163696 1.7961111 nan
1.7576447 -0.59231365 1.7936379 nan
1.7576296 -0.59529835 1.7936379 nan
1.7506266 -0.59593499 1.7911645 nan
1.7506118 -0.59890646 1.7911645 nan
1.750597 -0.60187781 1.7911645 nan
1.7505822 -0.60484916 1.7911645 nan
1.7435794 -0.60541928 1.7886912 nan
1.7435646 -0.60837734 1.7886912 nan
1.7435501 -0.6113354 1.7886912 nan
1.7365475 -0.61185205 1.7862179 nan
1.7365327 -0.61479676 1.7862179 nan
1.7365181 -0.61774153 1.7862179 nan
1.7295158 -0.61820489 1.7837446 nan
1.7295012 -0.62113625 1.7837446 nan
1.7294867 -0.6240676 1.7837446 nan
1.7294722 -0.62699902 1.7837446 -3.3966759e+38
1.72247 -0.62739575 1.7812712 -3.3699867e+38
1.7224555 -0.63031375 1.7812712 -3.369986e+38
1.722441 -0.63323188 1.7812712 -3.3565891e+38
1.7224264 -0.63614988 1.7812712 -3.3565364e+38
1.7224121 -0.63906795 1.7812712 -3.3564329e+38
1.7223976 -0.64198601 1.7812712 -3.3564853e+38
1.722383 -0.64490408 1.7812712 -3.3564339e+38
1.7223685 -0.64782214 1.7812712 -3.3430904e+38
1.7223542 -0.65074021 1.7812712 -3.3297981e+38
1.7223396 -0.65365821 1.7812712 -3.3429865e+38
1.7293119 -0.65924436 1.7837446 -3.3431946e+38
1.7292974 -0.66217577 1.7837446 -3.3564871e+38
1.7292829 -0.66510713 1.7837446 -3.3698836e+38
1.7292683 -0.66803849 1.7837446 nan
1.7292538 -0.67096996 1.7837446 nan
1.7222526 -0.6711666 1.7812712 nan
1.7222383 -0.67408466 1.7812712 nan
1.7222238 -0.67700267 1.7812712 nan
1.7222092 -0.67992079 1.7812712 nan
1.7291811 -0.68562692 1.7837446 nan
1.7291665 -0.68855828 1.7837446 nan
1.729152 -0.69148964 1.7837446 nan
1.7291374 -0.69442105 1.7837446 nan
1.7361088 -0.70019388 1.7862179 nan
1.7360942 -0.70313853 1.7862179 -3.3967799e+38
1.7360797 -0.70608324 1.7862179 -3.3969363e+38
1.7430508 -0.71190935 1.7886912 -3.3835913e+38
1.743036 -0.71486747 1.7886912 nan
1.7430215 -0.71782553 1.7886912 nan
1.7499924 -0.72370487 1.7911645 nan
1.756963 -0.72961104 1.7936379 nan
1.7569482 -0.73259574 1.7936379 nan
1.7569335 -0.73558044 1.7936379 nan
1.7639041 -0.7415399 1.7961111 -3.3301043e+38
1.7708743 -0.74752599 1.7985845 -3.036843e+38
1.7858276 -0.75696892 1.8038845 -3.0885581e+38
1.7858126 -0.76000881 1.8038845 -3.1290586e+38
1.7857974 -0.76304883 1.8038845 -3.1826956e+38
1.7927673 -0.76913011 1.8063579 -3.2228844e+38
1.800735 -0.77567458 1.8091846 -3.2764176e+38
1.8007197 -0.77874309 1.8091846 -3.3166591e+38
1.8076892 -0.78489304 1.8116579 -3.3167644e+38
1.8156567 -0.79151171 1.8144846 -3.3165551e+38
1.8156412 -0.79460877 1.8144846 -3.0367927e+38
1.8236082 -0.80127323 1.8173112 -2.7450414e+38
1.8305771 -0.80752027 1.8197845 nan
1.8235774 -0.80749792 1.8173112 nan
1.8235619 -0.81061023 1.8173112 nan
1.7703512 -0.8529247 1.7985845 nan
1.7783167 -0.85989964 1.8014112 nan
1.7703211 -0.85894752 1.7985845 nan
1.7703063 -0.86195886 1.7985845 nan
1.7702913 -0.86497027 1.7985845 nan
1.7632937 -0.86446029 1.7961111 nan
1.7702615 -0.87099302 1.7985845 nan
1.7632642 -0.8704564 1.7961111 nan
1.7632492 -0.87345445 1.7961111 nan
1.7632344 -0.87645251 1.7961111 nan
1.7632194 -0.87945062 1.7961111 nan
1.7632046 -0.88244861 1.7961111 nan
1.7631896 -0.88544667 1.7961111 nan
1.7561927 -0.88481671 1.7936379 nan
1.7561779 -0.88780147 1.7936379 -3.1950466e+38
1.7561631 -0.89078617 1.7936379 -2.9825786e+38
1.7561481 -0.89377093 1.7936379 -2.9836181e+38
1.7631152 -0.900437 1.7961111 -2.9698056e+38
1.7561185 -0.89974034 1.7936379 -2.9439469e+38
1.7561038 -0.9027251 1.7936379 -2.9163257e+38
1.756089 -0.9057098 1.7936379 -3.023185e+38
1.7560742 -0.90869457 1.7936379 -3.1292087e+38
1.7560594 -0.91167927 1.7936379 -3.0629002e+38
1.763026 -0.91842538 1.7961111 -2.9833064e+38
1.7560296 -0.91764873 1.7936379 -2.983622e+38
1.8975303 -0.4141953 1.8395016 nan
1.8975143 -0.4174448 1.8395016 nan
1.8974981 -0.42069426 1.8395016 nan
1.8974819 -0.42394376 1.8395016 nan
1.8974659 -0.42719325 1.8395016 nan
1.8974497 -0.43044272 1.8395016 nan
1.889442 -0.43199918 1.8366902 nan
1.889426 -0.43523341 1.8366902 nan
1.8724279 -0.43480524 1.8307159 nan
1.8644204 -0.43626839 1.8279045 -3.3166607e+38
1.8564134 -0.43770102 1.825093 -3.1295797e+38
1.8563976 -0.4408724 1.825093 -2.9557391e+38
1.8483906 -0.44225934 1.8222816 -3.0221981e+38
1.8403835 -0.44361582 1.8194702 -3.0888151e+38
1.840368 -0.44675675 1.8194702 -3.156626e+38
1.8323615 -0.44806749 1.8166587 -3.2233018e+38
1.8253539 -0.44957843 1.8141987 nan
1.8253384 -0.45269078 1.8141987 nan
1.8173323 -0.45392725 1.8113873 nan
1.8173168 -0.45702434 1.8113873 nan
1.8173015 -0.46012145 1.8113873 nan
1.817286 -0.46321857 1.8113873 nan
1.8172708 -0.46631566 1.8113873 nan
1.8092649 -0.46746069 1.8085759 nan
1.8092496 -0.47054258 1.8085759 nan
1.8092344 -0.47362441 1.8085759 nan
1.8022275 -0.47495824 1.8061159 nan
1.8092039 -0.47978815 1.8085759 nan
1.8021972 -0.48109528 1.8061159 nan
1.802182 -0.48416382 1.8061159 -3.3701432e+38
1.8091578 -0.48903376 1.8085759 -3.3167658e+38
1.8091426 -0.49211565 1.8085759 -3.2632845e+38
1.8021362 -0.49336943 1.8061159 -3.2231994e+38
1.8091121 -0.49827936 1.8085759 -3.1964581e+38
1.8021057 -0.4995065 1.8061159 -3.1565283e+38
1.8020904 -0.50257504 1.8061159 -3.1299435e+38
1.8020754 -0.50564361 1.8061159 -3.0898069e+38
1.8020601 -0.50871211 1.8061159 -3.0364816e+38
1.8020449 -0.51178068 1.8061159 -2.9966043e+38
1.8020296 -0.51484919 1.8061159 -2.9432792e+38
1.8020144 -0.51791769 1.8061159 -2.9165385e+38
1.8089895 -0.52293432 1.8085759 -2.8896935e+38
1.8089743 -0.52601618 1.8085759 -2.8630041e+38
1.8169479 -0.53135484 1.8113873 -2.8496076e+38
1.8169324 -0.53445196 1.8113873 -2.8227628e+38
1.8169172 -0.53754908 1.8113873 -2.8091586e+38
1.8169017 -0.5406462 1.8113873 -2.7956582e+38
1.8168864 -0.54374331 1.8113873 -2.7824706e+38
1.8168709 -0.54684043 1.8113873 -2.8763998e+38
1.8168557 -0.54993755 1.8113873 -2.9571938e+38
1.8168402 -0.5530346 1.8113873 -3.0101568e+38
1.8088367 -0.55375296 1.8085759 -3.0633789e+38
1.8088214 -0.55683488 1.8085759 -3.1166529e+38
1.8088059 -0.55991673 1.8085759 -3.1698743e+38
1.8018012 -0.5608772 1.8061159 -3.1832708e+38
1.8017859 -0.56394571 1.8061159 -3.1965619e+38
1.7937827 -0.56455934 1.8033044 -3.1433916e+38
1.7867782 -0.56545126 1.8008446 -3.0774549e+38
1.779774 -0.56631649 1.7983845 -3.3577405e+38
1.7797589 -0.56934315 1.7983845 nan
1.7797439 -0.57236975 1.7983845 nan
1.7797289 -0.57539642 1.7983845 nan
1.7717264 -0.57587671 1.7955731 nan
1.7717113 -0.57888806 1.7955731 -3.3698852e+38
1.7716963 -0.58189946 1.7955731 -3.3431447e+38
1.7716815 -0.58491087 1.7955731 -3.3299567e+38
1.7716665 -0.58792222 1.7955731 -3.3434571e+38
1.7716515 -0.59093362 1.7955731 -3.3570617e+38
1.764648 -0.59163696 1.7931131 nan
1.7646332 -0.59463507 1.7931131 nan
1.7576296 -0.59529835 1.7906531 nan
1.7576149 -0.59828311 1.7906531 nan
1.7506118 -0.59890646 1.7881931 nan
1.750597 -0.60187781 1.7881931 nan
1.7505822 -0.60484916 1.7881931 nan
1.7435794 -0.60541928 1.7857331 nan
1.7365766 -0.60596257 1.7832731 nan
1.736562 -0.60890734 1.7832731 nan
1.7365475 -0.61185205 1.7832731 nan
1.7365327 -0.61479676 1.7832731 nan
1.7365181 -0.61774153 1.7832731 nan
1.7295158 -0.61820489 1.7808131 nan
1.7295012 -0.62113625 1.7808131 nan
1.7294867 -0.6240676 1.7808131 nan
1.7294722 -0.62699902 1.7808131 nan
1.72247 -0.62739575 1.7783531 -3.3832276e+38
1.7224555 -0.63031375 1.7783531 -3.3565386e+38
1.722441 -0.63323188 1.7783531 -3.3431415e+38
1.7224264 -0.63614988 1.7783531 -3.3431924e+38
1.7224121 -0.63906795 1.7783531 -3.3431932e+38
1.7223976 -0.64198601 1.7783531 -3.3431938e+38
1.722383 -0.64490408 1.7783531 -3.3563824e+38
1.7223685 -0.64782214 1.7783531 -3.3563826e+38
1.7223542 -0.65074021 1.7783531 -3.3696232e+38
1.7293265 -0.65631294 1.7808131 -3.3564348e+38
1.7293119 -0.65924436 1.7808131 -3.3565911e+38
1.7292974 -0.66217577 1.7808131 -3.3698838e+38
1.7292829 -0.66510713 1.7808131 -3.383228e+38
1.7292683 -0.66803849 1.7808131 -3.3965201e+38
1.7292538 -0.67096996 1.7808131 nan
1.7292392 -0.67390132 1.7808131 nan
1.7292247 -0.67683274 1.7808131 nan
1.7292101 -0.67976409 1.7808131 nan
1.7291956 -0.68269545 1.7808131 nan
1.7291811 -0.68562692 1.7808131 nan
1.7291665 -0.68855828 1.7808131 nan
1.7361381 -0.69430441 1.7832731 nan
1.7361236 -0.69724911 1.7832731 nan
1.7361088 -0.70019388 1.7832731 nan
1.7360942 -0.70313853 1.7832731 nan
1.7360797 -0.70608324 1.7832731 nan
1.7430508 -0.71190935 1.7857331 nan
1.743036 -0.71486747 1.7857331 nan
1.7430215 -0.71782553 1.7857331 nan
1.7499924 -0.72370487 1.7881931 nan
1.756963 -0.72961104 1.7906531 nan
1.7569482 -0.73259574 1.7906531 nan
1.7569335 -0.73558044 1.7906531 nan
1.7639041 -0.7415399 1.7931131 -3.329637e+38
1.7708743 -0.74752599 1.7955731 -3.1293703e+38
1.7788424 -0.75396758 1.7983845 -3.1291629e+38
1.7858126 -0.76000881 1.8008446 -3.1427149e+38
1.7927825 -0.76607686 1.8033044 -3.1828514e+38
1.7927673 -0.76913011 1.8033044 -3.2360731e+38
1.800735 -0.77567458 1.8061159 -3.2764178e+38
1.8007197 -0.77874309 1.8061159 -3.3297956e+38
1.8156719 -0.78841466 1.8113873 -3.3698293e+38
1.8156567 -0.79151171 1.8113873 nan
1.8236237 -0.79816079 1.8141987 -3.2093808e+38
1.8305926 -0.80439454 1.8166587 -2.9961419e+38
1.8385596 -0.81110275 1.8194702 nan
1.8305616 -0.81064594 1.8166587 nan
1.8305461 -0.81377161 1.8166587 nan
1.7564149 -0.84004587 1.7906531 nan
1.7564001 -0.84303057 1.7906531 nan
1.7633681 -0.84947002 1.7931131 nan
1.7703362 -0.85593605 1.7955731 nan
1.7703211 -0.85894752 1.7955731 nan
1.7703063 -0.86195886 1.7955731 nan
1.7633088 -0.86146218 1.7931131 nan
1.7632937 -0.86446029 1.7931131 nan
1.763279 -0.86745834 1.7931131 nan
1.7632642 -0.8704564 1.7931131 nan
1.7632492 -0.87345445 1.7931131 nan
1.7632344 -0.87645251 1.7931131 nan
1.7632194 -0.87945062 1.7931131 nan
1.7632046 -0.88244861 1.7931131 nan
1.7562075 -0.881832 1.7906531 nan
1.7561927 -0.88481671 1.7906531 -3.2480174e+38
1.7561779 -0.88780147 1.7906531 -3.142301e+38
1.7561631 -0.89078617 1.7906531 -3.0366373e+38
1.7561481 -0.89377093 1.7906531 -3.0235002e+38
1.7631152 -0.900437 1.7931131 -3.0104661e+38
1.7561185 -0.89974034 1.7906531 -2.9835167e+38
1.7561038 -0.9027251 1.7906531 -2.956308e+38
1.756089 -0.9057098 1.7906531 -3.0230278e+38
1.7560742 -0.90869457 1.7906531 -3.0893848e+38
1.7560594 -0.91167927 1.7906531 -3.0496631e+38
1.7560444 -0.91466397 1.7906531 -3.0098398e+38
1.7560296 -0.91764873 1.7906531 -3.0099972e+38
1.9065216 -0.41599709 1.8393979 nan
1.8975143 -0.4174448 1.8362522 nan
1.9064891 -0.42253035 1.8393979 nan
1.9064729 -0.42579699 1.8393979 nan
1.9064567 -0.42906362 1.8393979 nan
1.9064405 -0.43233025 1.8393979 nan
1.8814502 -0.43030614 1.8306597 nan
1.8814342 -0.43352517 1.8306597 nan
1.8644364 -0.43308175 1.8247179 nan
1.8484375 -0.43279091 1.8191254 -3.2637537e+38
1.8484218 -0.43594706 1.8191254 -3.1564275e+38
1.8484063 -0.43910322 1.8191254 -3.0498282e+38
1.8403993 -0.4404749 1.8163292 -3.2483283e+38
1.8403835 -0.44361582 1.8163292 nan
1.832377 -0.44494179 1.8135331 nan
1.8253694 -0.44646609 1.8110864 nan
1.8253539 -0.44957843 1.8110864 nan
1.8173475 -0.45083016 1.8082902 nan
1.8173323 -0.45392725 1.8082902 nan
1.8173168 -0.45702434 1.8082902 nan
1.8173015 -0.46012145 1.8082902 nan
1.8092957 -0.46129695 1.8054941 -3.3846867e+38
1.8172708 -0.46631566 1.8082902 nan
1.8092649 -0.46746069 1.8054941 nan
1.8092496 -0.47054258 1.8054941 nan
1.8092344 -0.47362441 1.8054941 nan
1.8092191 -0.4767063 1.8054941 nan
1.8092039 -0.47978815 1.8054941 nan
1.8091884 -0.48287001 1.8054941 -3.3833842e+38
1.802182 -0.48416382 1.8030474 -3.3300066e+38
1.8091578 -0.48903376 1.8054941 -3.2899734e+38
1.8091426 -0.49211565 1.8054941 -3.2365959e+38
1.8091273 -0.49519747 1.8054941 -3.1965625e+38
1.8091121 -0.49827936 1.8054941 -3.1566851e+38
1.8090966 -0.50136125 1.8054941 -3.1301516e+38
1.8090813 -0.50444311 1.8054941 -3.1032032e+38
1.8020754 -0.50564361 1.8030474 -3.0629625e+38
1.8020601 -0.50871211 1.8030474 -3.0231893e+38
1.8020449 -0.51178068 1.8030474 -2.9832084e+38
1.8020296 -0.51484919 1.8030474 -2.9432792e+38
1.8020144 -0.51791769 1.8030474 -2.9165385e+38
1.8089895 -0.52293432 1.8054941 -2.8764532e+38
1.8089743 -0.52601618 1.8054941 -2.8497639e+38
1.8169479 -0.53135484 1.8082902 -2.822867e+38
1.8169324 -0.53445196 1.8082902 -2.822451e+38
1.8169172 -0.53754908 1.8082902 -2.8221373e+38
1.8169017 -0.5406462 1.8082902 -2.8353756e+38
1.8168864 -0.54374331 1.8082902 -2.836313e+38
1.8168709 -0.54684043 1.8082902 -2.9169525e+38
1.8168557 -0.54993755 1.8082902 -2.9835711e+38
1.8168402 -0.5530346 1.8082902 -3.0366897e+38
1.8088367 -0.55375296 1.8054941 -3.0765675e+38
1.8088214 -0.55683488 1.8054941 -3.1297377e+38
1.8088059 -0.55991673 1.8054941 -3.1698745e+38
1.8018012 -0.5608772 1.8030474 -3.1567386e+38
1.8087754 -0.56608045 1.8054941 -3.1301021e+38
1.7937827 -0.56455934 1.8002512 -3.0368487e+38
1.7867782 -0.56545126 1.7978046 -2.9446371e+38
1.779774 -0.56631649 1.7953579 -3.2116287e+38
1.7797589 -0.56934315 1.7953579 nan
1.7797439 -0.57236975 1.7953579 nan
1.7797289 -0.57539642 1.7953579 nan
1.7797139 -0.57842302 1.7953579 nan
1.7717113 -0.57888806 1.7925617 -3.3432479e+38
1.7716963 -0.58189946 1.7925617 -3.3032155e+38
1.7716815 -0.58491087 1.7925617 -3.2634945e+38
1.7716665 -0.58792222 1.7925617 -3.2635462e+38
1.7716515 -0.59093362 1.7925617 -3.2509829e+38
1.764648 -0.59163696 1.790115 nan
1.7646332 -0.59463507 1.790115 nan
1.7576296 -0.59529835 1.7876683 nan
1.7576149 -0.59828311 1.7876683 nan
1.7506118 -0.59890646 1.7852216 nan
1.750597 -0.60187781 1.7852216 nan
1.7505822 -0.60484916 1.7852216 nan
1.7435794 -0.60541928 1.7827749 nan
1.7435646 -0.60837734 1.7827749 nan
1.736562 -0.60890734 1.7803283 nan
1.7365475 -0.61185205 1.7803283 nan
1.7365327 -0.61479676 1.7803283 nan
1.7365181 -0.61774153 1.7803283 nan
1.7295158 -0.61820489 1.7778816 nan
1.7295012 -0.62113625 1.7778816 nan
1.7294867 -0.6240676 1.7778816 nan
1.7294722 -0.62699902 1.7778816 nan
1.72247 -0.62739575 1.775435 -3.3831234e+38
1.7224555 -0.63031375 1.775435 -3.3564346e+38
1.722441 -0.63323188 1.775435 -3.3299013e+38
1.7224264 -0.63614988 1.775435 -3.3299528e+38
1.7293992 -0.64165598 1.7778816 -3.3166088e+38
1.7293847 -0.6445874 1.7778816 -3.3431938e+38
1.7293701 -0.64751881 1.7778816 -3.3564341e+38
1.7293556 -0.65045017 1.7778816 -3.3829668e+38
1.729341 -0.65338153 1.7778816 -3.3962593e+38
1.7293265 -0.65631294 1.7778816 -3.383071e+38
1.7293119 -0.65924436 1.7778816 -3.3565388e+38
1.7292974 -0.66217577 1.7778816 -3.3698832e+38
1.7292829 -0.66510713 1.7778816 -3.3832795e+38
1.7292683 -0.66803849 1.7778816 -3.3966239e+38
1.7292538 -0.67096996 1.7778816 -3.3966755e+38
1.7292392 -0.67390132 1.7778816 nan
1.7292247 -0.67683274 1.7778816 nan
1.7292101 -0.67976409 1.7778816 nan
1.7291956 -0.68269545 1.7778816 nan
1.7291811 -0.68562692 1.7778816 nan
1.7361526 -0.6913597 1.7803283 nan
1.7361381 -0.69430441 1.7803283 nan
1.7361236 -0.69724911 1.7803283 nan
1.7361088 -0.70019388 1.7803283 nan
1.7360942 -0.70313853 1.7803283 nan
1.7430654 -0.70895135 1.7827749 nan
1.7430508 -0.71190935 1.7827749 nan
1.743036 -0.71486747 1.7827749 nan
1.7430215 -0.71782553 1.7827749 nan
1.7499924 -0.72370487 1.7852216 nan
1.756963 -0.72961104 1.7876683 nan
1.7569482 -0.73259574 1.7876683 nan
1.7639189 -0.73854184 1.790115 nan
1.7708893 -0.74451464 1.7925617 -3.3294297e+38
1.7708743 -0.74752599 1.7925617 -3.2093836e+38
1.7858276 -0.75696892 1.7978046 -3.1826433e+38
1.7858126 -0.76000881 1.7978046 -3.1563701e+38
1.7927825 -0.76607686 1.8002512 -3.1964027e+38
1.7927673 -0.76913011 1.8002512 -3.23654e+38
1.800735 -0.77567458 1.8030474 -3.2900216e+38
1.8007197 -0.77874309 1.8030474 -3.3432441e+38
1.8156719 -0.78841466 1.8082902 nan
1.8236392 -0.79504848 1.8110864 nan
1.8306081 -0.80126888 1.8135331 -3.3815062e+38
1.8385751 -0.80796182 1.8163292 -3.2503592e+38
1.8385596 -0.81110275 1.8163292 nan
1.8385439 -0.81424367 1.8163292 nan
1.8385284 -0.8173846 1.8163292 nan
1.8385127 -0.82052553 1.8163292 nan
1.749491 -0.82473224 1.7852216 nan
1.7494762 -0.8277036 1.7852216 nan
1.7494614 -0.83067501 1.7852216 nan
1.7564297 -0.83706111 1.7876683 nan
1.7633979 -0.84347385 1.790115 nan
1.7633832 -0.84647191 1.790115 nan
1.7633681 -0.84947002 1.790115 nan
1.7633533 -0.85246801 1.790115 nan
1.7633386 -0.85546613 1.790115 nan
1.7703063 -0.86195886 1.7925617 nan
1.7633088 -0.86146218 1.790115 nan
1.7632937 -0.86446029 1.790115 nan
1.763279 -0.86745834 1.790115 nan
1.7632642 -0.8704564 1.790115 nan
1.7562668 -0.86989313 1.7876683 -3.0217947e+38
1.7632344 -0.87645251 1.790115 -2.558742e+38
1.756237 -0.87586254 1.7876683 -2.662896e+38
1.7632046 -0.88244861 1.790115 -2.7577599e+38
1.7562075 -0.881832 1.7876683 -2.9297296e+38
1.7561927 -0.88481671 1.7876683 -3.0892361e+38
1.76316 -0.89144278 1.790115 -3.0893913e+38
1.763145 -0.89444089 1.790115 -3.0764101e+38
1.7631302 -0.89743894 1.790115 -3.0631696e+38
1.7631152 -0.900437 1.790115 -3.0367398e+38
1.7631004 -0.90343505 1.790115 -3.0233428e+38
1.7630856 -0.90643311 1.790115 -2.9966017e+38
1.756089 -0.9057098 1.7876683 -3.0231335e+38
1.7560742 -0.90869457 1.7876683 -3.0497696e+38
1.7560594 -0.91167927 1.7876683 -3.0498211e+38
1.7560444 -0.91466397 1.7876683 -3.0365298e+38
1.7560296 -0.91764873 1.7876683 -3.0364789e+38
1.9065378 -0.41273049 1.8361312 nan
1.9065216 -0.41599709 1.8361312 nan
1.8975143 -0.4174448 1.8330026 nan
1.8974981 -0.42069426 1.8330026 nan
1.8974819 -0.42394376 1.8330026 nan
1.8894742 -0.42553067 1.8302217 nan
1.8814662 -0.42708716 1.8274407 nan
1.8724597 -0.4284015 1.8243122 nan
1.8644521 -0.42989513 1.8215312 nan
1.8564448 -0.43135825 1.8187503 nan
1.8484375 -0.43279091 1.8159692 nan
1.8484218 -0.43594706 1.8159692 -3.3038402e+38
1.8404148 -0.43733397 1.8131883 -3.1710211e+38
1.8403993 -0.4404749 1.8131883 nan
1.8323925 -0.44181615 1.8104074 nan
1.8253849 -0.44335374 1.8079741 nan
1.8253694 -0.44646609 1.8079741 nan
1.817363 -0.44773304 1.8051931 nan
1.8173475 -0.45083016 1.8051931 nan
1.8173323 -0.45392725 1.8051931 nan
1.8173168 -0.45702434 1.8051931 nan
1.8093109 -0.45821509 1.8024122 nan
1.8092957 -0.46129695 1.8024122 nan
1.8092802 -0.46437883 1.8024122 nan
1.8092649 -0.46746069 1.8024122 nan
1.8092496 -0.47054258 1.8024122 nan
1.8092344 -0.47362441 1.8024122 nan
1.8092191 -0.4767063 1.8024122 nan
1.8092039 -0.47978815 1.8024122 -3.3963653e+38
1.8091884 -0.48287001 1.8024122 -3.3431956e+38
1.802182 -0.48416382 1.7999787 -3.2898182e+38
1.8091578 -0.48903376 1.8024122 -3.2498886e+38
1.8091426 -0.49211565 1.8024122 -3.2097514e+38
1.8091273 -0.49519747 1.8024122 -3.1567372e+38
1.8091121 -0.49827936 1.8024122 -3.116808e+38
1.8090966 -0.50136125 1.8024122 -3.0899115e+38
1.8090813 -0.50444311 1.8024122 -3.076359e+38
1.8020754 -0.50564361 1.7999787 -3.0365335e+38
1.8020601 -0.50871211 1.7999787 -2.9967605e+38
1.8020449 -0.51178068 1.7999787 -2.9700202e+38
1.8020296 -0.51484919 1.7999787 -2.9299872e+38
1.809005 -0.51985246 1.8024122 -2.9031424e+38
1.8089895 -0.52293432 1.8024122 -2.8630053e+38
1.8169632 -0.52825779 1.8051931 -2.8362642e+38
1.8169479 -0.53135484 1.8051931 -2.809419e+38
1.8169324 -0.53445196 1.8051931 -2.7556258e+38
1.8169172 -0.53754908 1.8051931 -2.715278e+38
1.8169017 -0.5406462 1.8051931 -2.7961182e+38
1.8168864 -0.54374331 1.8051931 -2.8768115e+38
1.8168709 -0.54684043 1.8051931 -2.9301934e+38
1.8168557 -0.54993755 1.8051931 -2.9834676e+38
1.8168402 -0.5530346 1.8051931 -3.0366379e+38
1.8088367 -0.55375296 1.8024122 -3.0898081e+38
1.8088214 -0.55683488 1.8024122 -3.1299453e+38
1.8088059 -0.55991673 1.8024122 -3.1700307e+38
1.8087907 -0.56299859 1.8024122 -3.1967197e+38
1.8087754 -0.56608045 1.8024122 -3.2233576e+38
1.7937827 -0.56455934 1.7971978 -3.1836378e+38
1.779789 -0.56328988 1.7923312 -3.1438668e+38
1.779774 -0.56631649 1.7923312 -3.3044664e+38
1.7797589 -0.56934315 1.7923312 nan
1.7797439 -0.57236975 1.7923312 nan
1.7797289 -0.57539642 1.7923312 nan
1.7797139 -0.57842302 1.7923312 -3.3964672e+38
1.7796988 -0.58144969 1.7923312 -3.3430392e+38
1.7716963 -0.58189946 1.7895503 -3.3034228e+38
1.7716815 -0.58491087 1.7895503 -3.2636492e+38
1.7716665 -0.58792222 1.7895503 -3.2637005e+38
1.7716515 -0.59093362 1.7895503 -3.2641192e+38
1.7716367 -0.59394503 1.7895503 nan
1.7646332 -0.59463507 1.7871169 nan
1.7576296 -0.59529835 1.7846836 nan
1.7576149 -0.59828311 1.7846836 nan
1.7506118 -0.59890646 1.7822502 nan
1.750597 -0.60187781 1.7822502 nan
1.7505822 -0.60484916 1.7822502 nan
1.7435794 -0.60541928 1.7798169 nan
1.7435646 -0.60837734 1.7798169 nan
1.736562 -0.60890734 1.7773836 nan
1.7365475 -0.61185205 1.7773836 nan
1.7365327 -0.61479676 1.7773836 nan
1.7365181 -0.61774153 1.7773836 nan
1.7295158 -0.61820489 1.7749503 nan
1.7295012 -0.62113625 1.7749503 nan
1.7294867 -0.6240676 1.7749503 nan
1.7294722 -0.62699902 1.7749503 -3.383123e+38
1.72247 -0.62739575 1.772517 -3.3431421e+38
1.7224555 -0.63031375 1.772517 -3.3298496e+38
1.722441 -0.63323188 1.772517 -3.3165573e+38
1.7224264 -0.63614988 1.772517 -3.3298496e+38
1.7293992 -0.64165598 1.7749503 -3.3297977e+38
1.7293847 -0.6445874 1.7749503 -3.3564859e+38
1.7293701 -0.64751881 1.7749503 -3.3830183e+38
1.7293556 -0.65045017 1.7749503 -3.3830181e+38
1.729341 -0.65338153 1.7749503 -3.3829147e+38
1.7293265 -0.65631294 1.7749503 -3.3697266e+38
1.7293119 -0.65924436 1.7749503 -3.3564865e+38
1.7292974 -0.66217577 1.7749503 -3.3566422e+38
1.7292829 -0.66510713 1.7749503 -3.3700388e+38
1.7292683 -0.66803849 1.7749503 -3.3833834e+38
1.7292538 -0.67096996 1.7749503 -3.3967791e+38
1.7292392 -0.67390132 1.7749503 -3.3835383e+38
1.7292247 -0.67683274 1.7749503 -3.3836422e+38
1.7292101 -0.67976409 1.7749503 -3.3836941e+38
1.736182 -0.68547022 1.7773836 -3.383746e+38
1.7361674 -0.68841493 1.7773836 nan
1.7361526 -0.6913597 1.7773836 nan
1.7431242 -0.69711906 1.7798169 nan
1.7361236 -0.69724911 1.7773836 nan
1.7361088 -0.70019388 1.7773836 nan
1.7430801 -0.70599324 1.7798169 nan
1.7430654 -0.70895135 1.7798169 nan
1.7430508 -0.71190935 1.7798169 nan
1.743036 -0.71486747 1.7798169 nan
1.7430215 -0.71782553 1.7798169 -3.383486e+38
1.7499924 -0.72370487 1.7822502 -3.3834852e+38
1.756963 -0.72961104 1.7846836 -3.3967247e+38
1.7639337 -0.73554373 1.7871169 -3.383172e+38
1.7709043 -0.74150318 1.7895503 -3.3829635e+38
1.7788725 -0.74791431 1.7923312 -3.2893973e+38
1.7788575 -0.75094092 1.7923312 -3.1959877e+38
1.7858276 -0.75696892 1.7947645 -3.1697143e+38
1.7858126 -0.76000881 1.7947645 -3.156837e+38
1.7927825 -0.76607686 1.7971978 -3.1834211e+38
1.8007503 -0.77260607 1.7999787 -3.2103706e+38
1.8077199 -0.77872932 1.8024122 -3.2635409e+38
1.8077047 -0.78181118 1.8024122 -3.3167636e+38
1.8236544 -0.79193616 1.8079741 -3.289973e+38
1.8236392 -0.79504848 1.8079741 -3.2634373e+38
1.8306081 -0.80126888 1.8104074 nan
1.8385751 -0.80796182 1.8131883 nan
1.8385596 -0.81110275 1.8131883 nan
1.8385439 -0.81424367 1.8131883 nan
1.8465106 -0.8209976 1.8159692 nan
1.8464949 -0.82415372 1.8159692 nan
1.7564743 -0.82810694 1.7846836 nan
1.7564592 -0.8310917 1.7846836 nan
1.7564445 -0.8340764 1.7846836 nan
1.763413 -0.84047586 1.7871169 nan
1.7633979 -0.84347385 1.7871169 nan
1.7633832 -0.84647191 1.7871169 nan
1.7633681 -0.84947002 1.7871169 nan
1.7633533 -0.85246801 1.7871169 nan
1.7633386 -0.85546613 1.7871169 nan
1.7633235 -0.85846418 1.7871169 nan
1.7633088 -0.86146218 1.7871169 nan
1.7632937 -0.86446029 1.7871169 nan
1.763279 -0.86745834 1.7871169 nan
1.7562816 -0.86690837 1.7846836 -3.2074059e+38
1.7562668 -0.86989313 1.7846836 -3.0223007e+38
1.7632344 -0.87645251 1.7871169 -2.8374547e+38
1.756237 -0.87586254 1.7846836 -2.8901042e+38
1.7632046 -0.88244861 1.7871169 -2.9436403e+38
1.7562075 -0.881832 1.7846836 -3.0232414e+38
1.7561927 -0.88481671 1.7846836 -3.1163391e+38
1.7561779 -0.88780147 1.7846836 -3.1029947e+38
1.7561631 -0.89078617 1.7846836 -3.1030466e+38
1.7561481 -0.89377093 1.7846836 -3.0898061e+38
1.7561333 -0.89675564 1.7846836 -3.0765134e+38
1.7561185 -0.89974034 1.7846836 -3.0633245e+38
1.7561038 -0.9027251 1.7846836 -3.0500318e+38
1.756089 -0.9057098 1.7846836 -3.0632718e+38
1.7560742 -0.90869457 1.7846836 -3.0899081e+38
1.7560594 -0.91167927 1.7846836 -3.0765115e+38
1.763026 -0.91842538 1.7871169 -3.0764602e+38
1.7560296 -0.91764873 1.7846836 -3.0765126e+38
1.906554 -0.40946385 1.8328645 nan
1.9065378 -0.41273049 1.8328645 nan
1.9065216 -0.41599709 1.8328645 nan
1.8975143 -0.4174448 1.8297532 nan
1.8974981 -0.42069426 1.8297532 nan
1.8894901 -0.42229643 1.8269874 nan
1.8814821 -0.42386815 1.8242216 nan
1.8814662 -0.42708716 1.8242216 nan
1.8724597 -0.4284015 1.8211102 nan
1.8564606 -0.42818683 1.8155788 nan
1.8564448 -0.43135825 1.8155788 nan
1.8484375 -0.43279091 1.812813 nan
1.8404305 -0.43419307 1.8100474 nan
1.8404148 -0.43733397 1.8100474 -3.2780345e+38
1.8403993 -0.4404749 1.8100474 nan
1.8323925 -0.44181615 1.8072817 nan
1.8253849 -0.44335374 1.8048617 nan
1.8253694 -0.44646609 1.8048617 nan
1.817363 -0.44773304 1.8020959 nan
1.8173475 -0.45083016 1.8020959 nan
1.8173323 -0.45392725 1.8020959 nan
1.8093262 -0.45513323 1.7993302 nan
1.8093109 -0.45821509 1.7993302 nan
1.8092957 -0.46129695 1.7993302 nan
1.8092802 -0.46437883 1.7993302 nan
1.8092649 -0.46746069 1.7993302 nan
1.8092496 -0.47054258 1.7993302 nan
1.8092344 -0.47362441 1.7993302 nan
1.8092191 -0.4767063 1.7993302 -3.3830211e+38
1.8092039 -0.47978815 1.7993302 -3.3564879e+38
1.8091884 -0.48287001 1.7993302 -3.3032664e+38
1.8091731 -0.4859519 1.7993302 -3.2499929e+38
1.8091578 -0.48903376 1.7993302 -3.2100118e+38
1.8091426 -0.49211565 1.7993302 -3.1701339e+38
1.8091273 -0.49519747 1.7993302 -3.1170159e+38
1.8091121 -0.49827936 1.7993302 -3.063327e+38
1.8090966 -0.50136125 1.7993302 -3.0496187e+38
1.8090813 -0.50444311 1.7993302 -3.0365337e+38
1.8020754 -0.50564361 1.7969103 -3.0101043e+38
1.8020601 -0.50871211 1.7969103 -2.9701755e+38
1.8020449 -0.51178068 1.7969103 -2.943591e+38
1.8090203 -0.51677054 1.7993302 -2.9165902e+38
1.809005 -0.51985246 1.7993302 -2.8897974e+38
1.8169787 -0.52516067 1.8020959 -2.8496084e+38
1.8169632 -0.52825779 1.8020959 -2.8227634e+38
1.8249369 -0.53361171 1.8048617 -2.7824184e+38
1.8249214 -0.53672403 1.8048617 -2.7018334e+38
1.8169172 -0.53754908 1.8020959 -2.6092008e+38
1.8248904 -0.54294872 1.8048617 -2.7569717e+38
1.8248751 -0.54606104 1.8048617 -2.9034503e+38
1.8248596 -0.54917341 1.8048617 -2.9434867e+38
1.8168557 -0.54993755 1.8020959 -2.9834167e+38
1.8168402 -0.5530346 1.8020959 -3.0365351e+38
1.8088367 -0.55375296 1.7993302 -3.0900164e+38
1.8088214 -0.55683488 1.7993302 -3.1302573e+38
1.8088059 -0.55991673 1.7993302 -3.1701341e+38
1.8087907 -0.56299859 1.7993302 -3.2366475e+38
1.8017859 -0.56394571 1.7969103 -3.3032149e+38
1.7937827 -0.56455934 1.7941445 -3.3170806e+38
1.7867782 -0.56545126 1.7917244 -3.3306335e+38
1.7867632 -0.56849122 1.7917244 nan
1.7797589 -0.56934315 1.7893045 nan
1.7867332 -0.57457113 1.7917244 nan
1.7797289 -0.57539642 1.7893045 -3.3966775e+38
1.7797139 -0.57842302 1.7893045 -3.3691563e+38
1.7796988 -0.58144969 1.7893045 -3.3431433e+38
1.7716963 -0.58189946 1.7865388 -3.3036822e+38
1.7716815 -0.58491087 1.7865388 -3.2635965e+38
1.7796538 -0.59052956 1.7893045 -3.2768356e+38
1.7716515 -0.59093362 1.7865388 -3.2775668e+38
1.764648 -0.59163696 1.7841189 nan
1.7646332 -0.59463507 1.7841189 nan
1.7576296 -0.59529835 1.7816988 nan
1.7576149 -0.59828311 1.7816988 nan
1.7506118 -0.59890646 1.7792788 nan
1.750597 -0.60187781 1.7792788 nan
1.7505822 -0.60484916 1.7792788 nan
1.7435794 -0.60541928 1.7768588 nan
1.7435646 -0.60837734 1.7768588 nan
1.736562 -0.60890734 1.7744389 nan
1.7365475 -0.61185205 1.7744389 nan
1.7365327 -0.61479676 1.7744389 nan
1.7365181 -0.61774153 1.7744389 nan
1.7295158 -0.61820489 1.7720188 nan
1.7295012 -0.62113625 1.7720188 nan
1.7294867 -0.6240676 1.7720188 nan
1.7294722 -0.62699902 1.7720188 -3.3564865e+38
1.7294576 -0.62993044 1.7720188 -3.3032131e+38
1.7294431 -0.63286185 1.7720188 -3.3032129e+38
1.7294285 -0.63579321 1.7720188 -3.3032129e+38
1.7294137 -0.63872457 1.7720188 -3.3297975e+38
1.7293992 -0.64165598 1.7720188 -3.3431936e+38
1.7293847 -0.6445874 1.7720188 -3.369882e+38
1.7293701 -0.64751881 1.7720188 -3.3964668e+38
1.7293556 -0.65045017 1.7720188 -3.3831745e+38
1.729341 -0.65338153 1.7720188 -3.3698305e+38
1.7293265 -0.65631294 1.7720188 -3.3564865e+38
1.7293119 -0.65924436 1.7720188 -3.3432461e+38
1.7292974 -0.66217577 1.7720188 -3.356642e+38
1.7292829 -0.66510713 1.7720188 -3.3566944e+38
1.7292683 -0.66803849 1.7720188 -3.3700392e+38
1.7292538 -0.67096996 1.7720188 -3.383487e+38
1.7292392 -0.67390132 1.7720188 -3.3570061e+38
1.7292247 -0.67683274 1.7720188 -3.3304733e+38
1.7361965 -0.68252546 1.7744389 -3.3437656e+38
1.736182 -0.68547022 1.7744389 -3.3571098e+38
1.7361674 -0.68841493 1.7744389 nan
1.7431388 -0.69416106 1.7768588 nan
1.7431242 -0.69711906 1.7768588 nan
1.7361236 -0.69724911 1.7744389 nan
1.7361088 -0.70019388 1.7744389 nan
1.7430801 -0.70599324 1.7768588 nan
1.7430654 -0.70895135 1.7768588 nan
1.7430508 -0.71190935 1.7768588 nan
1.743036 -0.71486747 1.7768588 -3.3833826e+38
1.7430215 -0.71782553 1.7768588 -3.343609e+38
1.7499924 -0.72370487 1.7792788 -3.3436603e+38
1.756963 -0.72961104 1.7816988 -3.343296e+38
1.7639337 -0.73554373 1.7841189 -3.3296914e+38
1.7709043 -0.74150318 1.7865388 -3.3161387e+38
1.7788725 -0.74791431 1.7893045 -3.2492611e+38
1.7788575 -0.75094092 1.7893045 -3.169663e+38
1.7858276 -0.75696892 1.7917244 -3.1699743e+38
1.7927976 -0.76302356 1.7941445 -3.1565778e+38
1.7927825 -0.76607686 1.7941445 -3.1701295e+38
1.8007503 -0.77260607 1.7969103 -3.170338e+38
1.8077199 -0.77872932 1.7993302 -3.2236117e+38
1.8156872 -0.78531748 1.8020959 -3.2766768e+38
1.8236544 -0.79193616 1.8048617 -3.1566828e+38
1.8306236 -0.79814327 1.8072817 -3.0239176e+38
1.8385906 -0.8048209 1.8100474 nan
1.8465576 -0.8115291 1.812813 nan
1.8465419 -0.81468529 1.812813 nan
1.8465264 -0.81784141 1.812813 nan
1.8465106 -0.8209976 1.812813 nan
1.7855108 -0.82080811 1.7917244 nan
1.7564743 -0.82810694 1.7816988 nan
1.7494762 -0.8277036 1.7792788 nan
1.7564445 -0.8340764 1.7816988 nan
1.7564297 -0.83706111 1.7816988 nan
1.7633979 -0.84347385 1.7841189 nan
1.7633832 -0.84647191 1.7841189 nan
1.7633681 -0.84947002 1.7841189 nan
1.7703362 -0.85593605 1.7865388 nan
1.7633386 -0.85546613 1.7841189 nan
1.7633235 -0.85846418 1.7841189 nan
1.7633088 -0.86146218 1.7841189 -3.3249137e+38
1.7632937 -0.86446029 1.7841189 -3.0086993e+38
1.763279 -0.86745834 1.7841189 -2.9679364e+38
1.7562816 -0.86690837 1.7816988 -2.928841e+38
1.7562668 -0.86989313 1.7816988 -3.0226165e+38
1.7562518 -0.87287784 1.7816988 -3.1162847e+38
1.756237 -0.87586254 1.7816988 -3.1297839e+38
1.7562222 -0.8788473 1.7816988 -3.1297338e+38
1.7562075 -0.881832 1.7816988 -3.1297354e+38
1.7561927 -0.88481671 1.7816988 -3.1296837e+38
1.7561779 -0.88780147 1.7816988 -3.1297876e+38
1.7561631 -0.89078617 1.7816988 -3.1164429e+38
1.7561481 -0.89377093 1.7816988 -3.1165466e+38
1.7561333 -0.89675564 1.7816988 -3.1032541e+38
1.7561185 -0.89974034 1.7816988 -3.1034097e+38
1.7561038 -0.9027251 1.7816988 -3.0900131e+38
1.756089 -0.9057098 1.7816988 -3.1033052e+38
1.7560742 -0.90869457 1.7816988 -3.1164934e+38
1.7630408 -0.91542727 1.7841189 -3.1164413e+38
1.763026 -0.91842538 1.7841189 -3.1164934e+38
1.763011 -0.92142338 1.7841189 -3.1298898e+38
1.9065864 -0.40293059 1.8295978 nan
1.9065702 -0.40619722 1.8295978 nan
1.906554 -0.40946385 1.8295978 nan
1.9065378 -0.41273049 1.8295978 nan
1.8975303 -0.4141953 1.8265035 nan
1.8975143 -0.4174448 1.8265035 nan
1.8895061 -0.4190622 1.8237531 nan
1.8814981 -0.42064911 1.8210026 -3.3973042e+38
1.8814821 -0.42386815 1.8210026 nan
1.8724756 -0.42519963 1.8179083 nan
1.8644679 -0.42670849 1.8151579 nan
1.8564606 -0.42818683 1.8124074 nan
1.8484533 -0.42963478 1.8096569 -3.3835961e+38
1.840446 -0.43105215 1.8069065 -3.3303713e+38
1.8404305 -0.43419307 1.8069065 nan
1.8404148 -0.43733397 1.8069065 nan
1.832408 -0.43869045 1.8041559 nan
1.8323925 -0.44181615 1.8041559 nan
1.8253849 -0.44335374 1.8017492 nan
1.8253694 -0.44646609 1.8017492 nan
1.817363 -0.44773304 1.7989988 nan
1.8173475 -0.45083016 1.7989988 nan
1.8093414 -0.45205134 1.7962483 nan
1.8093262 -0.45513323 1.7962483 nan
1.8093109 -0.45821509 1.7962483 nan
1.8092957 -0.46129695 1.7962483 nan
1.8092802 -0.46437883 1.7962483 nan
1.8092649 -0.46746069 1.7962483 -3.2909132e+38
1.8092496 -0.47054258 1.7962483 -3.3304749e+38
1.8092344 -0.47362441 1.7962483 -3.3566958e+38
1.8092191 -0.4767063 1.7962483 -3.3432995e+38
1.8092039 -0.47978815 1.7962483 -3.3166107e+38
1.8091884 -0.48287001 1.7962483 -3.2766813e+38
1.8091731 -0.4859519 1.7962483 -3.22346e+38
1.8091578 -0.48903376 1.7962483 -3.1967712e+38
1.8091426 -0.49211565 1.7962483 -3.1569455e+38
1.8091273 -0.49519747 1.7962483 -3.1033081e+38
1.8091121 -0.49827936 1.7962483 -3.0628592e+38
1.8090966 -0.50136125 1.7962483 -3.0364296e+38
1.8090813 -0.50444311 1.7962483 -3.0232927e+38
1.8020754 -0.50564361 1.7938416 -2.9834155e+38
1.8020601 -0.50871211 1.7938416 -2.9567271e+38
1.8020449 -0.51178068 1.7938416 -2.9166423e+38
1.8090203 -0.51677054 1.7962483 -2.8896935e+38
1.809005 -0.51985246 1.7962483 -2.8630043e+38
1.8169787 -0.52516067 1.7989988 -2.8361076e+38
1.8169632 -0.52825779 1.7989988 -2.8092626e+38
1.8169479 -0.53135484 1.7989988 -2.7823661e+38
1.8169324 -0.53445196 1.7989988 -2.701833e+38
1.8169172 -0.53754908 1.7989988 -2.6349043e+38
1.8248904 -0.54294872 1.8017492 -2.7830924e+38
1.8168864 -0.54374331 1.7989988 -2.930089e+38
1.8168709 -0.54684043 1.7989988 -2.9700723e+38
1.8168557 -0.54993755 1.7989988 -3.0232426e+38
1.808852 -0.5506711 1.7962483 -3.0499321e+38
1.8088367 -0.55375296 1.7962483 -3.0900689e+38
1.8088214 -0.55683488 1.7962483 -3.1034654e+38
1.8088059 -0.55991673 1.7962483 -3.1302571e+38
1.8087907 -0.56299859 1.7962483 -3.2099061e+38
1.8017859 -0.56394571 1.7938416 -3.2895592e+38
1.8017707 -0.56701428 1.7938416 nan
1.7867782 -0.56545126 1.7886846 nan
1.7867632 -0.56849122 1.7886846 nan
1.7797589 -0.56934315 1.7862778 nan
1.7797439 -0.57236975 1.7862778 nan
1.7797289 -0.57539642 1.7862778 -3.3830733e+38
1.7797139 -0.57842302 1.7862778 -3.3563317e+38
1.7796988 -0.58144969 1.7862778 -3.330007e+38
1.7716963 -0.58189946 1.7835274 -3.2368572e+38
1.7796688 -0.58750296 1.7862778 -3.1569459e+38
1.7796538 -0.59052956 1.7862778 -3.2769381e+38
1.7716515 -0.59093362 1.7835274 nan
1.7716367 -0.59394503 1.7835274 nan
1.7646332 -0.59463507 1.7811208 nan
1.7576296 -0.59529835 1.7787141 nan
1.7576149 -0.59828311 1.7787141 nan
1.7506118 -0.59890646 1.7763073 nan
1.750597 -0.60187781 1.7763073 nan
1.7435939 -0.60246122 1.7739007 nan
1.7435794 -0.60541928 1.7739007 nan
1.7435646 -0.60837734 1.7739007 nan
1.736562 -0.60890734 1.771494 nan
1.7365475 -0.61185205 1.771494 nan
1.7365327 -0.61479676 1.771494 nan
1.7365181 -0.61774153 1.771494 nan
1.7295158 -0.61820489 1.7690873 nan
1.7295012 -0.62113625 1.7690873 nan
1.7294867 -0.6240676 1.7690873 -3.3966237e+38
1.7294722 -0.62699902 1.7690873 -3.3565384e+38
1.7294576 -0.62993044 1.7690873 -3.3296938e+38
1.7294431 -0.63286185 1.7690873 -3.3297971e+38
1.7294285 -0.63579321 1.7690873 -3.3430895e+38
1.7294137 -0.63872457 1.7690873 -3.3431415e+38
1.7293992 -0.64165598 1.7690873 -3.3432455e+38
1.7293847 -0.6445874 1.7690873 -3.3432974e+38
1.7293701 -0.64751881 1.7690873 -3.356694e+38
1.7293556 -0.65045017 1.7690873 -3.3300579e+38
1.729341 -0.65338153 1.7690873 -3.3167656e+38
1.7293265 -0.65631294 1.7690873 -3.3166618e+38
1.7293119 -0.65924436 1.7690873 -3.3167135e+38
1.7292974 -0.66217577 1.7690873 -3.3300573e+38
1.7292829 -0.66510713 1.7690873 -3.3566424e+38
1.7292683 -0.66803849 1.7690873 -3.370039e+38
1.7292538 -0.67096996 1.7690873 -3.3834872e+38
1.7292392 -0.67390132 1.7690873 -3.370195e+38
1.7362113 -0.67958075 1.771494 -3.3570063e+38
1.7361965 -0.68252546 1.771494 -3.3437656e+38
1.736182 -0.68547022 1.771494 -3.3437658e+38
1.7431536 -0.691203 1.7739007 -3.3836426e+38
1.7431388 -0.69416106 1.7739007 nan
1.7431242 -0.69711906 1.7739007 nan
1.7431095 -0.70007718 1.7739007 nan
1.7430949 -0.70303524 1.7739007 -3.3967278e+38
1.7430801 -0.70599324 1.7739007 -3.3833313e+38
1.7430654 -0.70895135 1.7739007 -3.3701424e+38
1.7430508 -0.71190935 1.7739007 -3.3568499e+38
1.7500219 -0.71776211 1.7763073 -3.3303169e+38
1.7500072 -0.72073346 1.7763073 -3.3169723e+38
1.7569778 -0.72662628 1.7787141 -3.316764e+38
1.756963 -0.72961104 1.7787141 -3.329692e+38
1.7639337 -0.73554373 1.7811208 -3.3028989e+38
1.7788875 -0.74488765 1.7862778 -3.2761061e+38
1.7788725 -0.74791431 1.7862778 -3.2228844e+38
1.7858427 -0.75392896 1.7886846 -3.1830595e+38
1.7858276 -0.75696892 1.7886846 -3.1695074e+38
1.7927976 -0.76302356 1.7910912 -3.1560072e+38
1.7927825 -0.76607686 1.7910912 -3.1697664e+38
1.8007503 -0.77260607 1.7938416 -3.1834745e+38
1.8077199 -0.77872932 1.7962483 -3.2234034e+38
1.8156872 -0.78531748 1.7989988 -3.2633825e+38
1.8306394 -0.79501754 1.8041559 -3.1703347e+38
1.8306236 -0.79814327 1.8041559 -3.0902762e+38
1.8385906 -0.8048209 1.8069065 nan
1.8465576 -0.8115291 1.8096569 nan
1.8465419 -0.81468529 1.8096569 nan
1.8465264 -0.81784141 1.8096569 nan
1.8465106 -0.8209976 1.8096569 nan
1.7855561 -0.81168824 1.7886846 nan
1.7785571 -0.81147355 1.7862778 nan
1.778542 -0.81450015 1.7862778 nan
1.7855108 -0.82080811 1.7886846 nan
1.778512 -0.82055342 1.7862778 nan
1.778497 -0.82358003 1.7862778 nan
1.7634873 -0.82548553 1.7811208 nan
1.756489 -0.82512224 1.7787141 nan
1.7564743 -0.82810694 1.7787141 nan
1.7494762 -0.8277036 1.7763073 nan
1.7564445 -0.8340764 1.7787141 nan
1.7564297 -0.83706111 1.7787141 nan
1.7564149 -0.84004587 1.7787141 nan
1.7564001 -0.84303057 1.7787141 nan
1.7563853 -0.84601533 1.7787141 nan
1.7633533 -0.85246801 1.7811208 nan
1.7563555 -0.85198474 1.7787141 nan
1.7563407 -0.8549695 1.7787141 nan
1.756326 -0.8579542 1.7787141 nan
1.7563112 -0.86093891 1.7787141 -3.3664928e+38
1.7562964 -0.86392367 1.7787141 -3.3279696e+38
1.7562816 -0.86690837 1.7787141 -3.2884094e+38
1.7562668 -0.86989313 1.7787141 -3.2754854e+38
1.7562518 -0.87287784 1.7787141 -3.2626073e+38
1.756237 -0.87586254 1.7787141 -3.2360215e+38
1.7562222 -0.8788473 1.7787141 -3.2226775e+38
1.7562075 -0.881832 1.7787141 -3.196093e+38
1.7561927 -0.88481671 1.7787141 -3.1695088e+38
1.7561779 -0.88780147 1.7787141 -3.1563208e+38
1.7561631 -0.89078617 1.7787141 -3.1562683e+38
1.7561481 -0.89377093 1.7787141 -3.1430792e+38
1.7561333 -0.89675564 1.7787141 -3.1430792e+38
1.7561185 -0.89974034 1.7787141 -3.1431311e+38
1.7630856 -0.90643311 1.7811208 -3.143079e+38
1.7630706 -0.90943116 1.7811208 -3.156423e+38
1.7630558 -0.91242921 1.7811208 -3.1696634e+38
1.7630408 -0.91542727 1.7811208 -3.1696632e+38
1.763026 -0.91842538 1.7811208 -3.1696632e+38
1.763011 -0.92142338 1.7811208 -3.169767e+38
1.9065864 -0.40293059 1.8263311 nan
1.9065702 -0.40619722 1.8263311 nan
1.906554 -0.40946385 1.8263311 nan
1.8975465 -0.4109458 1.8232541 nan
1.8975303 -0.4141953 1.8232541 nan
1.8895223 -0.41582793 1.8205187 nan
1.8815141 -0.41743013 1.8177836 nan
