# .PCD v0.7 - Point Cloud Data file format
VERSION 0.7
FIELDS x y z rgb
SIZE 4 4 4 4
TYPE F F F F
COUNT 1 1 1 1
WIDTH 1049
HEIGHT 1
VIEWPOINT 0 0 0 1 0 0 0
POINTS 1049
DATA ascii
2.0947771 0.54476535 1.4521245 -2.7813715e+38
2.0947688 0.54113871 1.4521245 -2.7813715e+38
2.0947604 0.53751206 1.4521245 -2.7814238e+38
2.0947521 0.53388536 1.4521245 -2.7814242e+38
2.0947437 0.53025872 1.4521245 -2.7814246e+38
2.0947354 0.52663207 1.4521245 -2.794769e+38
2.094727 0.52300543 1.4521245 -2.821354e+38
2.0947187 0.51937878 1.4521245 -2.8480945e+38
2.0947106 0.51575208 1.4521245 -2.8747312e+38
2.10571 0.51548404 1.4533502 -2.8880237e+38
2.1057017 0.51183641 1.4533502 -2.9146606e+38
2.1056933 0.50818878 1.4533502 -2.9547974e+38
2.105685 0.50454122 1.4533502 -2.9948836e+38
2.1156833 0.50387067 1.4544644 -3.0746387e+38
2.115675 0.50020397 1.4544644 -3.1544948e+38
1.9865036 0.86177725 1.4365597 -2.3278704e+38
1.9955064 0.86300904 1.4375454 -2.314526e+38
2.0055103 0.8647213 1.4386407 -2.3410586e+38
1.9954906 0.85613668 1.4375454 -2.3676949e+38
2.0054946 0.85781085 1.4386407 -2.4075198e+38
1.9954748 0.84926426 1.4375454 -2.434364e+38
1.9954669 0.84582812 1.4375454 -2.4610526e+38
1.9954591 0.84239197 1.4375454 -2.4877937e+38
1.9954512 0.83895576 1.4375454 -2.5277233e+38
1.9954433 0.83551955 1.4375454 -2.5676527e+38
1.9954355 0.8320834 1.4375454 -2.5809455e+38
1.9954276 0.8286472 1.4375454 -2.59429e+38
1.9954197 0.82521099 1.4375454 -2.5810498e+38
1.9954119 0.82177484 1.4375454 -2.5678094e+38
1.995404 0.81833869 1.4375454 -2.5678094e+38
1.995396 0.81490248 1.4375454 -2.5677571e+38
1.9953882 0.81146628 1.4375454 -2.5676531e+38
1.9953803 0.80803013 1.4375454 -2.567705e+38
1.9953724 0.80459392 1.4375454 -2.5544646e+38
1.9953645 0.80115777 1.4375454 -2.5277762e+38
1.9953567 0.79772156 1.4375454 -2.5276205e+38
1.9953488 0.79428542 1.4375454 -2.5277764e+38
1.9953409 0.79084921 1.4375454 -2.5678612e+38
1.9953331 0.787413 1.4375454 -2.607842e+38
1.9953252 0.78397685 1.4375454 -2.6210309e+38
1.9953173 0.78054065 1.4375454 -2.6343755e+38
1.9953095 0.7771045 1.4375454 -2.6476163e+38
1.9953015 0.77366829 1.4375454 -2.6475643e+38
2.0053043 0.77488536 1.4386407 -2.6476165e+38
2.0052965 0.77143013 1.4386407 -2.6477203e+38
1.9952779 0.76335973 1.4375454 -2.6478242e+38
1.99527 0.75992358 1.4375454 -2.6477197e+38
1.9952621 0.75648737 1.4375454 -2.6210828e+38
2.0052648 0.75760919 1.4386407 -2.5944459e+38
2.0052569 0.75415397 1.4386407 -2.5811015e+38
2.005249 0.75069875 1.4386407 -2.5678612e+38
2.0052412 0.74724352 1.4386407 -2.5945496e+38
2.005233 0.7437883 1.4386407 -2.6211343e+38
2.0052252 0.74033302 1.4386407 -2.6343749e+38
2.0052173 0.7368778 1.4386407 -2.6343751e+38
2.0052094 0.73342264 1.4386407 -2.6476676e+38
2.0052013 0.72996742 1.4386407 -2.6477195e+38
2.0051935 0.72651213 1.4386407 -2.6477716e+38
2.0151956 0.7274245 1.4397359 -2.6343755e+38
2.0151877 0.72395021 1.4397359 -2.6210832e+38
2.0151796 0.72047591 1.4397359 -2.6076867e+38
2.0151718 0.71700162 1.4397359 -2.5942902e+38
2.0151639 0.71352738 1.4397359 -2.5809457e+38
2.0151558 0.71005315 1.4397359 -2.5807898e+38
2.0241566 0.71040678 1.4407216 -2.567705e+38
2.0241487 0.70691538 1.4407216 -2.5809451e+38
2.0341501 0.7076391 1.4418169 -2.5811009e+38
2.0241327 0.69993252 1.4407216 -2.5944451e+38
2.0241246 0.69644105 1.4407216 -2.6077895e+38
2.034126 0.69710767 1.4418169 -2.6210818e+38
2.0341179 0.6935972 1.4418169 -2.6343741e+38
2.0341101 0.69008672 1.4418169 -2.6476664e+38
2.034102 0.68657631 1.4418169 -2.6477185e+38
2.0340939 0.68306583 1.4418169 -2.6743034e+38
2.0340858 0.67955536 1.4418169 -2.6874919e+38
2.0440872 0.68008858 1.4429121 -2.6476148e+38
2.0440791 0.67655903 1.4429121 -2.6076861e+38
2.044071 0.67302954 1.4429121 -2.5943419e+38
2.0440629 0.66949999 1.4429121 -2.567706e+38
2.0440547 0.6659705 1.4429121 -2.5676026e+38
2.0540557 0.66638947 1.4440074 -2.554518e+38
2.0640569 0.66677034 1.4451026 -2.5679141e+38
2.0640485 0.66320282 1.4451026 -2.5812066e+38
2.0740495 0.66352654 1.4461979 -2.5812585e+38
2.0740411 0.65993983 1.4461979 -2.5812064e+38
2.074033 0.65635318 1.4461979 -2.5812581e+38
2.0740247 0.65276653 1.4461979 -2.5679137e+38
2.0740166 0.64917982 1.4461979 -2.5679135e+38
2.0740082 0.64559317 1.4461979 -2.5546208e+38
2.0850093 0.64616132 1.4474026 -2.5546204e+38
2.0850012 0.64255369 1.4474026 -2.5545685e+38
2.0849929 0.63894612 1.4474026 -2.5545685e+38
2.0949931 0.63905847 1.4484978 -2.5546202e+38
2.0949848 0.63543183 1.4484978 -2.541276e+38
2.0949767 0.63180512 1.4484978 -2.5279839e+38
2.0949683 0.62817848 1.4484978 -2.5146399e+38
2.09496 0.62455177 1.4484978 -2.4880554e+38
2.1059608 0.62491232 1.4497026 -2.5013478e+38
2.1059525 0.6212647 1.4497026 -2.5012959e+38
2.1159525 0.62120366 1.4507978 -2.5145882e+38
2.1269529 0.62146127 1.4520026 -2.5145359e+38
2.1269445 0.61777371 1.4520026 -2.5145355e+38
2.126936 0.61408609 1.4520026 -2.5145874e+38
2.1269276 0.61039847 1.4520026 -2.5145874e+38
2.126919 0.60671085 1.4520026 -2.5013474e+38
2.1159019 0.59920371 1.4507978 -2.501348e+38
2.1058855 0.59208387 1.4497026 -2.5013998e+38
2.0948684 0.58465856 1.4484978 -2.5280362e+38
2.0948601 0.58103192 1.4484978 -2.5413811e+38
2.0848441 0.57400918 1.4474026 -2.5680701e+38
2.0848358 0.57040155 1.4474026 -2.5947068e+38
2.0848274 0.56679392 1.4474026 -2.6345838e+38
2.0848193 0.56318629 1.4474026 -2.6745647e+38
2.084811 0.55957866 1.4474026 -2.7144417e+38
2.0848026 0.55597103 1.4474026 -2.741078e+38
2.0847943 0.55236346 1.4474026 -2.7677664e+38
2.0947936 0.55201864 1.4484978 -2.7811106e+38
2.0947852 0.54839206 1.4484978 -2.7945589e+38
2.0947771 0.54476535 1.4484978 -2.7946629e+38
2.0947688 0.54113871 1.4484978 -2.794715e+38
2.0947604 0.53751206 1.4484978 -2.7814232e+38
2.0947521 0.53388536 1.4484978 -2.7946639e+38
2.0947437 0.53025872 1.4484978 -2.7947165e+38
2.0947354 0.52663207 1.4484978 -2.8214053e+38
2.094727 0.52300543 1.4484978 -2.8347499e+38
2.0947187 0.51937878 1.4484978 -2.8614389e+38
2.0947106 0.51575208 1.4484978 -2.8746795e+38
2.10571 0.51548404 1.4497026 -2.9012125e+38
2.1057017 0.51183641 1.4497026 -2.9280571e+38
2.1056933 0.50818878 1.4497026 -2.9549536e+38
2.1156919 0.50753725 1.4507978 -2.9816432e+38
2.1156833 0.50387067 1.4507978 -3.0613981e+38
2.1056681 0.49724597 1.4497026 -3.1410465e+38
1.9865036 0.86177725 1.4331408 -2.3412144e+38
1.9864957 0.8583582 1.4331408 -2.3410588e+38
1.9954985 0.85957283 1.4341092 -2.3676434e+38
1.9954906 0.85613668 1.4341092 -2.39428e+38
1.9954827 0.85270047 1.4341092 -2.4209165e+38
1.9954748 0.84926426 1.4341092 -2.4476051e+38
1.9954669 0.84582812 1.4341092 -2.4744493e+38
1.9864486 0.83784401 1.4331408 -2.5011904e+38
1.9954512 0.83895576 1.4341092 -2.5277758e+38
1.9954433 0.83551955 1.4341092 -2.5543608e+38
1.9954355 0.8320834 1.4341092 -2.5809975e+38
1.9954276 0.8286472 1.4341092 -2.5943423e+38
1.9954197 0.82521099 1.4341092 -2.5943427e+38
1.9954119 0.82177484 1.4341092 -2.5811023e+38
1.995404 0.81833869 1.4341092 -2.5811023e+38
1.995396 0.81490248 1.4341092 -2.5677579e+38
1.9953882 0.81146628 1.4341092 -2.5677575e+38
1.9953803 0.80803013 1.4341092 -2.5810502e+38
1.9953724 0.80459392 1.4341092 -2.5677581e+38
1.9953645 0.80115777 1.4341092 -2.5544135e+38
1.9953567 0.79772156 1.4341092 -2.5544131e+38
1.9953488 0.79428542 1.4341092 -2.5545691e+38
2.005352 0.79561675 1.4351854 -2.5812056e+38
1.9953331 0.787413 1.4341092 -2.6211347e+38
1.9953252 0.78397685 1.4341092 -2.6343753e+38
1.9953173 0.78054065 1.4341092 -2.6476159e+38
2.0053203 0.7817958 1.4351854 -2.6476159e+38
2.0053124 0.77834058 1.4351854 -2.6475641e+38
2.0053043 0.77488536 1.4351854 -2.647668e+38
2.0052965 0.77143013 1.4351854 -2.6478237e+38
1.9952779 0.76335973 1.4341092 -2.6344276e+38
2.0052807 0.76451963 1.4351854 -2.6343757e+38
1.9952621 0.75648737 1.4341092 -2.6209277e+38
2.0052648 0.75760919 1.4351854 -2.5943427e+38
2.0052569 0.75415397 1.4351854 -2.5944461e+38
2.005249 0.75069875 1.4351854 -2.6078425e+38
2.0052412 0.74724352 1.4351854 -2.6211349e+38
2.005233 0.7437883 1.4351854 -2.6343753e+38
2.0052252 0.74033302 1.4351854 -2.6476676e+38
2.0052173 0.7368778 1.4351854 -2.6609599e+38
2.0052094 0.73342264 1.4351854 -2.6742521e+38
2.0052013 0.72996742 1.4351854 -2.6875444e+38
2.0051935 0.72651213 1.4351854 -2.6742002e+38
2.0151956 0.7274245 1.4362617 -2.6607524e+38
2.0151877 0.72395021 1.4362617 -2.6342719e+38
2.0151796 0.72047591 1.4362617 -2.607583e+38
2.0151718 0.71700162 1.4362617 -2.5942904e+38
2.0241725 0.71738958 1.4372302 -2.5809979e+38
2.0241647 0.71389818 1.4372302 -2.5677054e+38
2.0241566 0.71040678 1.4372302 -2.5678612e+38
2.0241487 0.70691538 1.4372302 -2.5678092e+38
2.0341501 0.7076391 1.4383065 -2.5811534e+38
2.0241327 0.69993252 1.4372302 -2.5944974e+38
2.0241246 0.69644105 1.4372302 -2.6078423e+38
2.0241165 0.69294965 1.4372302 -2.621083e+38
2.0341179 0.6935972 1.4383065 -2.6344268e+38
2.0341101 0.69008672 1.4383065 -2.6343743e+38
2.034102 0.68657631 1.4383065 -2.647667e+38
2.0340939 0.68306583 1.4383065 -2.6476672e+38
2.0340858 0.67955536 1.4383065 -2.6608556e+38
2.0440872 0.68008858 1.4393826 -2.6342708e+38
2.0440791 0.67655903 1.4393826 -2.5943423e+38
2.044071 0.67302954 1.4393826 -2.5809462e+38
2.0440629 0.66949999 1.4393826 -2.5675504e+38
2.0440547 0.6659705 1.4393826 -2.5544141e+38
2.0540557 0.66638947 1.4404588 -2.5545701e+38
2.0640569 0.66677034 1.441535 -2.5678626e+38
2.0640485 0.66320282 1.441535 -2.5811029e+38
2.0640404 0.65963519 1.441535 -2.5812068e+38
2.0640323 0.65606755 1.441535 -2.5812064e+38
2.064024 0.65249991 1.441535 -2.581206e+38
2.0640159 0.64893234 1.441535 -2.5811538e+38
2.0740166 0.64917982 1.4426112 -2.5678612e+38
2.0740082 0.64559317 1.4426112 -2.5545685e+38
2.0740001 0.64200658 1.4426112 -2.55462e+38
2.0850012 0.64255369 1.443795 -2.5678603e+38
2.0849929 0.63894612 1.443795 -2.5679121e+38
2.0849845 0.63533849 1.443795 -2.5679644e+38
2.0949848 0.63543183 1.4448712 -2.5413281e+38
2.0949767 0.63180512 1.4448712 -2.5279841e+38
2.0949683 0.62817848 1.4448712 -2.5146918e+38
2.09496 0.62455177 1.4448712 -2.5013478e+38
2.1059608 0.62491232 1.4460549 -2.5013478e+38
2.1059525 0.6212647 1.4460549 -2.5013478e+38
2.1269615 0.62514889 1.448315 -2.5013478e+38
2.1269529 0.62146127 1.448315 -2.5145878e+38
2.1269445 0.61777371 1.448315 -2.5146391e+38
2.126936 0.61408609 1.448315 -2.5146908e+38
2.1269276 0.61039847 1.448315 -2.5013983e+38
2.126919 0.60671085 1.448315 -2.4881069e+38
2.1159019 0.59920371 1.4471312 -2.5014519e+38
2.1058855 0.59208387 1.4460549 -2.5015036e+38
2.1058772 0.58843625 1.4460549 -2.5148476e+38
2.0948601 0.58103192 1.4448712 -2.5414849e+38
2.0948517 0.57740527 1.4448712 -2.5681222e+38
2.0848358 0.57040155 1.443795 -2.6080514e+38
2.0848274 0.56679392 1.443795 -2.6479803e+38
2.0848193 0.56318629 1.443795 -2.6746168e+38
2.084811 0.55957866 1.443795 -2.7144937e+38
2.0848026 0.55597103 1.443795 -2.754422e+38
2.0847943 0.55236346 1.443795 -2.7677658e+38
2.0847862 0.54875588 1.443795 -2.78111e+38
2.0847778 0.54514825 1.443795 -2.8077984e+38
2.0847695 0.54154062 1.443795 -2.8211949e+38
2.0847614 0.53793299 1.443795 -2.8079548e+38
2.084753 0.53432542 1.443795 -2.8079552e+38
2.0847447 0.53071779 1.443795 -2.8079556e+38
2.0847366 0.52711022 1.443795 -2.8080083e+38
2.0947354 0.52663207 1.4448712 -2.8214051e+38
2.094727 0.52300543 1.4448712 -2.8480422e+38
2.0947187 0.51937878 1.4448712 -2.861387e+38
2.0947106 0.51575208 1.4448712 -2.8879721e+38
2.10571 0.51548404 1.4460549 -2.9013687e+38
2.1057017 0.51183641 1.4460549 -2.9281613e+38
2.1056933 0.50818878 1.4460549 -2.9681941e+38
2.1156919 0.50753725 1.4471312 -3.0082797e+38
2.1056764 0.50089359 1.4460549 -3.0747419e+38
1.9955143 0.86644524 1.4306731 -2.3679028e+38
1.9955064 0.86300904 1.4306731 -2.354403e+38
1.9954985 0.85957283 1.4306731 -2.3807803e+38
1.9954906 0.85613668 1.4306731 -2.4075208e+38
1.9954827 0.85270047 1.4306731 -2.4341577e+38
1.9954748 0.84926426 1.4306731 -2.4477096e+38
1.9954669 0.84582812 1.4306731 -2.4746057e+38
1.9864486 0.83784401 1.4297216 -2.5011389e+38
1.9864408 0.83442497 1.4297216 -2.5277239e+38
1.9954433 0.83551955 1.4306731 -2.5411204e+38
1.9954355 0.8320834 1.4306731 -2.5677573e+38
1.9954276 0.8286472 1.4306731 -2.5943425e+38
1.9954197 0.82521099 1.4306731 -2.5943431e+38
1.9954119 0.82177484 1.4306731 -2.5943948e+38
1.995404 0.81833869 1.4306731 -2.5811025e+38
1.995396 0.81490248 1.4306731 -2.5678098e+38
1.9953882 0.81146628 1.4306731 -2.5811017e+38
1.9953803 0.80803013 1.4306731 -2.5811017e+38
1.9953724 0.80459392 1.4306731 -2.58105e+38
1.9953645 0.80115777 1.4306731 -2.5810496e+38
1.9953567 0.79772156 1.4306731 -2.5811011e+38
1.9953488 0.79428542 1.4306731 -2.5678088e+38
1.9953409 0.79084921 1.4306731 -2.5944455e+38
1.9953331 0.787413 1.4306731 -2.6210305e+38
1.9953252 0.78397685 1.4306731 -2.6343232e+38
1.9953173 0.78054065 1.4306731 -2.6476157e+38
1.9953095 0.7771045 1.4306731 -2.6476159e+38
1.9953015 0.77366829 1.4306731 -2.6343236e+38
2.0053043 0.77488536 1.4317303 -2.6343755e+38
2.0052965 0.77143013 1.4317303 -2.6343755e+38
1.9952779 0.76335973 1.4306731 -2.6342199e+38
1.99527 0.75992358 1.4306731 -2.6208238e+38
1.9952621 0.75648737 1.4306731 -2.6073756e+38
1.9952543 0.75305122 1.4306731 -2.5942906e+38
2.0052569 0.75415397 1.4317303 -2.6209788e+38
2.005249 0.75069875 1.4317303 -2.6343751e+38
2.0052412 0.74724352 1.4317303 -2.6343753e+38
2.005233 0.7437883 1.4317303 -2.6343753e+38
2.0052252 0.74033302 1.4317303 -2.6609599e+38
2.0152276 0.74132156 1.4327874 -2.6875444e+38
2.0052094 0.73342264 1.4317303 -2.7007848e+38
2.0052013 0.72996742 1.4317303 -2.7140249e+38
2.0051935 0.72651213 1.4317303 -2.7006807e+38
2.0151956 0.7274245 1.4327874 -2.6740962e+38
2.0151877 0.72395021 1.4327874 -2.6342712e+38
2.0151796 0.72047591 1.4327874 -2.5943423e+38
2.0151718 0.71700162 1.4327874 -2.5943421e+38
2.0241725 0.71738958 1.4337388 -2.5809975e+38
2.0151558 0.71005315 1.4327874 -2.5677048e+38
2.0241566 0.71040678 1.4337388 -2.5545683e+38
2.0241487 0.70691538 1.4337388 -2.5679125e+38
2.0241406 0.70342392 1.4337388 -2.5679129e+38
2.0241327 0.69993252 1.4337388 -2.5812056e+38
2.0241246 0.69644105 1.4337388 -2.594498e+38
2.0241165 0.69294965 1.4337388 -2.6077384e+38
2.0341179 0.6935972 1.434796 -2.6210824e+38
2.0341101 0.69008672 1.434796 -2.6343745e+38
2.034102 0.68657631 1.434796 -2.6343745e+38
2.0340939 0.68306583 1.434796 -2.6343747e+38
2.0340858 0.67955536 1.434796 -2.6342708e+38
2.0340779 0.67604488 1.434796 -2.6076344e+38
2.0440791 0.67655903 1.435853 -2.5809979e+38
2.044071 0.67302954 1.435853 -2.5676017e+38
2.0440629 0.66949999 1.435853 -2.5543616e+38
2.0440547 0.6659705 1.435853 -2.5544656e+38
2.064065 0.67033798 1.4379673 -2.5545174e+38
2.0640569 0.66677034 1.4379673 -2.5677575e+38
2.0640485 0.66320282 1.4379673 -2.5811017e+38
2.0640404 0.65963519 1.4379673 -2.5812056e+38
2.0640323 0.65606755 1.4379673 -2.5678608e+38
2.064024 0.65249991 1.4379673 -2.5811526e+38
2.0640159 0.64893234 1.4379673 -2.5811526e+38
2.0740166 0.64917982 1.4390244 -2.5678086e+38
2.0740082 0.64559317 1.4390244 -2.55462e+38
2.0740001 0.64200658 1.4390244 -2.5679123e+38
2.0850012 0.64255369 1.4401873 -2.567964e+38
2.0849929 0.63894612 1.4401873 -2.567964e+38
2.0849845 0.63533849 1.4401873 -2.5679644e+38
2.0949848 0.63543183 1.4412445 -2.5414322e+38
2.0949767 0.63180512 1.4412445 -2.5147438e+38
2.0949683 0.62817848 1.4412445 -2.514744e+38
2.09496 0.62455177 1.4412445 -2.5013996e+38
2.1059608 0.62491232 1.4424074 -2.5013994e+38
2.1059525 0.6212647 1.4424074 -2.5013992e+38
2.1159525 0.62120366 1.4434645 -2.501347e+38
2.1269529 0.62146127 1.4446274 -2.5013987e+38
2.1269445 0.61777371 1.4446274 -2.5013466e+38
2.126936 0.61408609 1.4446274 -2.5013983e+38
2.1269276 0.61039847 1.4446274 -2.488158e+38
2.126919 0.60671085 1.4446274 -2.4748665e+38
2.1159019 0.59920371 1.4434645 -2.4881596e+38
2.1058855 0.59208387 1.4424074 -2.5015038e+38
2.1058772 0.58843625 1.4424074 -2.5149001e+38
2.0948601 0.58103192 1.4412445 -2.5281928e+38
2.0848441 0.57400918 1.4401873 -2.5813626e+38
2.0848358 0.57040155 1.4401873 -2.6214473e+38
2.0848274 0.56679392 1.4401873 -2.648084e+38
2.0848193 0.56318629 1.4401873 -2.6746683e+38
2.084811 0.55957866 1.4401873 -2.7145452e+38
2.0848026 0.55597103 1.4401873 -2.7544737e+38
2.0847943 0.55236346 1.4401873 -2.7678177e+38
2.0847862 0.54875588 1.4401873 -2.7811619e+38
2.0847778 0.54514825 1.4401873 -2.8210388e+38
2.0847695 0.54154062 1.4401873 -2.8477793e+38
2.0847614 0.53793299 1.4401873 -2.8344874e+38
2.084753 0.53432542 1.4401873 -2.8211958e+38
2.0847447 0.53071779 1.4401873 -2.8211444e+38
2.0847366 0.52711022 1.4401873 -2.8080085e+38
2.0847282 0.52350259 1.4401873 -2.8346456e+38
2.094727 0.52300543 1.4412445 -2.8480424e+38
2.0947187 0.51937878 1.4412445 -2.8746797e+38
2.0947106 0.51575208 1.4412445 -2.8880245e+38
2.10571 0.51548404 1.4424074 -2.9146616e+38
2.1057017 0.51183641 1.4424074 -2.9281617e+38
2.1056933 0.50818878 1.4424074 -2.9813832e+38
2.1156919 0.50753725 1.4434645 -3.0214685e+38
2.1156833 0.50387067 1.4434645 -3.0879307e+38
2.115675 0.50020397 1.4434645 -3.1543396e+38
1.9955143 0.86644524 1.4272369 -2.3676951e+38
1.9955064 0.86300904 1.4272369 -2.3676955e+38
2.0055103 0.8647213 1.428275 -2.3808843e+38
1.9954906 0.85613668 1.4272369 -2.4076253e+38
1.9954827 0.85270047 1.4272369 -2.4475544e+38
1.9954748 0.84926426 1.4272369 -2.4743467e+38
1.9954669 0.84582812 1.4272369 -2.5010351e+38
1.9954591 0.84239197 1.4272369 -2.5276198e+38
1.9954512 0.83895576 1.4272369 -2.5410162e+38
2.005455 0.84053469 1.428275 -2.5677052e+38
1.9954355 0.8320834 1.4272369 -2.5677575e+38
2.005439 0.83362424 1.428275 -2.5811023e+38
1.9954197 0.82521099 1.4272369 -2.5811029e+38
1.9954119 0.82177484 1.4272369 -2.5811549e+38
1.995404 0.81833869 1.4272369 -2.5678105e+38
1.995396 0.81490248 1.4272369 -2.5678098e+38
1.9953882 0.81146628 1.4272369 -2.5678612e+38
1.9953803 0.80803013 1.4272369 -2.5811534e+38
1.9953724 0.80459392 1.4272369 -2.5810496e+38
1.9953645 0.80115777 1.4272369 -2.5942895e+38
1.9953567 0.79772156 1.4272369 -2.5943409e+38
1.9953488 0.79428542 1.4272369 -2.6076333e+38
1.9953409 0.79084921 1.4272369 -2.6475621e+38
1.9953331 0.787413 1.4272369 -2.6740954e+38
1.9953252 0.78397685 1.4272369 -2.6740958e+38
1.9953173 0.78054065 1.4272369 -2.6740962e+38
1.9953095 0.7771045 1.4272369 -2.6475639e+38
1.9953015 0.77366829 1.4272369 -2.6342714e+38
2.0053043 0.77488536 1.428275 -2.6342712e+38
2.0052965 0.77143013 1.428275 -2.6209794e+38
1.9952779 0.76335973 1.4272369 -2.6208757e+38
2.0052807 0.76451963 1.428275 -2.6206678e+38
1.9952621 0.75648737 1.4272369 -2.6075311e+38
2.0052648 0.75760919 1.428275 -2.6076348e+38
2.0052569 0.75415397 1.428275 -2.6209786e+38
2.005249 0.75069875 1.428275 -2.6476674e+38
2.0052412 0.74724352 1.428275 -2.6343753e+38
2.005233 0.7437883 1.428275 -2.6343753e+38
2.0052252 0.74033302 1.428275 -2.6609599e+38
2.0152276 0.74132156 1.4293131 -2.6742002e+38
2.0152194 0.73784727 1.4293131 -2.6874406e+38
2.0052013 0.72996742 1.428275 -2.7006288e+38
2.0051935 0.72651213 1.428275 -2.6740438e+38
2.0151956 0.7274245 1.4293131 -2.6474071e+38
2.0151877 0.72395021 1.4293131 -2.6209262e+38
2.0151796 0.72047591 1.4293131 -2.5943419e+38
2.0151718 0.71700162 1.4293131 -2.5810496e+38
2.0241725 0.71738958 1.4302473 -2.5676529e+38
2.0151558 0.71005315 1.4293131 -2.5678078e+38
2.0241566 0.71040678 1.4302473 -2.5679119e+38
2.0241487 0.70691538 1.4302473 -2.5679638e+38
2.0241406 0.70342392 1.4302473 -2.581309e+38
2.0241327 0.69993252 1.4302473 -2.5945502e+38
2.0241246 0.69644105 1.4302473 -2.6077903e+38
2.0241165 0.69294965 1.4302473 -2.6077899e+38
2.0341179 0.6935972 1.4312855 -2.6078418e+38
2.0341101 0.69008672 1.4312855 -2.6210822e+38
2.034102 0.68657631 1.4312855 -2.6343745e+38
2.0340939 0.68306583 1.4312855 -2.6210303e+38
2.0340858 0.67955536 1.4312855 -2.6076344e+38
2.0440872 0.68008858 1.4323236 -2.594394e+38
2.0440791 0.67655903 1.4323236 -2.5810496e+38
2.044071 0.67302954 1.4323236 -2.5677052e+38
2.0440629 0.66949999 1.4323236 -2.5677573e+38
2.0440547 0.6659705 1.4323236 -2.5677573e+38
2.064065 0.67033798 1.4343997 -2.5811011e+38
2.0640569 0.66677034 1.4343997 -2.5811005e+38
2.0640485 0.66320282 1.4343997 -2.5943928e+38
2.0640404 0.65963519 1.4343997 -2.5811522e+38
2.0640323 0.65606755 1.4343997 -2.5810999e+38
2.064024 0.65249991 1.4343997 -2.5811512e+38
2.0640159 0.64893234 1.4343997 -2.5944439e+38
2.0740166 0.64917982 1.4354378 -2.5812039e+38
2.0740082 0.64559317 1.4354378 -2.5679638e+38
2.0740001 0.64200658 1.4354378 -2.567964e+38
2.0850012 0.64255369 1.4365797 -2.5813082e+38
2.0849929 0.63894612 1.4365797 -2.567964e+38
2.0849845 0.63533849 1.4365797 -2.5679125e+38
2.0949848 0.63543183 1.4376178 -2.5413802e+38
2.0949767 0.63180512 1.4376178 -2.5280362e+38
2.0949683 0.62817848 1.4376178 -2.514744e+38
2.09496 0.62455177 1.4376178 -2.5147436e+38
2.1059608 0.62491232 1.4387597 -2.5014507e+38
2.1059525 0.6212647 1.4387597 -2.5014505e+38
2.1159525 0.62120366 1.4397979 -2.5014501e+38
2.1269529 0.62146127 1.4409398 -2.501502e+38
2.1269445 0.61777371 1.4409398 -2.5013981e+38
2.126936 0.61408609 1.4409398 -2.4881061e+38
2.1269276 0.61039847 1.4409398 -2.488158e+38
2.126919 0.60671085 1.4409398 -2.4882107e+38
2.1159019 0.59920371 1.4397979 -2.5015036e+38
2.1158936 0.59553707 1.4397979 -2.5147444e+38
2.1058772 0.58843625 1.4387597 -2.5281409e+38
2.0948601 0.58103192 1.4376178 -2.5547778e+38
2.0848441 0.57400918 1.4365797 -2.5815183e+38
2.0848358 0.57040155 1.4365797 -2.6216029e+38
2.0848274 0.56679392 1.4365797 -2.6480836e+38
2.0848193 0.56318629 1.4365797 -2.6880643e+38
2.084811 0.55957866 1.4365797 -2.7279409e+38
2.0848026 0.55597103 1.4365797 -2.7678697e+38
2.0847943 0.55236346 1.4365797 -2.7678697e+38
2.0847862 0.54875588 1.4365797 -2.7812139e+38
2.0847778 0.54514825 1.4365797 -2.7945579e+38
2.0847695 0.54154062 1.4365797 -2.8212467e+38
2.0847614 0.53793299 1.4365797 -2.8079029e+38
2.084753 0.53432542 1.4365797 -2.7946633e+38
2.0847447 0.53071779 1.4365797 -2.7946639e+38
2.0847366 0.52711022 1.4365797 -2.7947165e+38
2.0847282 0.52350259 1.4365797 -2.8214055e+38
2.094727 0.52300543 1.4376178 -2.8480428e+38
2.0947187 0.51937878 1.4376178 -2.8746799e+38
2.0947106 0.51575208 1.4376178 -2.9013172e+38
2.10571 0.51548404 1.4387597 -2.9147139e+38
2.1057017 0.51183641 1.4387597 -2.9282143e+38
2.1056933 0.50818878 1.4387597 -2.9814355e+38
2.1156919 0.50753725 1.4397979 -3.0215209e+38
2.1156833 0.50387067 1.4397979 -3.087879e+38
2.1266825 0.50345784 1.4409398 -3.1544445e+38
1.9955143 0.86644524 1.4238007 -2.3806243e+38
1.9955064 0.86300904 1.4238007 -2.3675918e+38
2.0055103 0.8647213 1.4248197 -2.3940728e+38
1.9954906 0.85613668 1.4238007 -2.4075729e+38
1.9954827 0.85270047 1.4238007 -2.4607942e+38
1.9954748 0.84926426 1.4238007 -2.5008785e+38
1.9954669 0.84582812 1.4238007 -2.527515e+38
1.9954591 0.84239197 1.4238007 -2.5542036e+38
1.9954512 0.83895576 1.4238007 -2.5676001e+38
2.005455 0.84053469 1.4248197 -2.5809969e+38
2.0054469 0.83707947 1.4248197 -2.5809977e+38
2.005439 0.83362424 1.4248197 -2.5678098e+38
1.9954197 0.82521099 1.4238007 -2.5678622e+38
1.9954119 0.82177484 1.4238007 -2.554518e+38
1.995404 0.81833869 1.4238007 -2.554518e+38
1.995396 0.81490248 1.4238007 -2.5545691e+38
1.9953882 0.81146628 1.4238007 -2.5679127e+38
1.9953803 0.80803013 1.4238007 -2.5678086e+38
1.9953724 0.80459392 1.4238007 -2.5809969e+38
1.9953645 0.80115777 1.4238007 -2.5942891e+38
1.9953567 0.79772156 1.4238007 -2.6208735e+38
1.9953488 0.79428542 1.4238007 -2.6475102e+38
1.9953409 0.79084921 1.4238007 -2.687387e+38
1.9953331 0.787413 1.4238007 -2.7272645e+38
1.9953252 0.78397685 1.4238007 -2.7139207e+38
1.9953173 0.78054065 1.4238007 -2.6873882e+38
1.9953095 0.7771045 1.4238007 -2.6608558e+38
1.9953015 0.77366829 1.4238007 -2.6342712e+38
1.9952936 0.77023214 1.4238007 -2.620927e+38
2.0052965 0.77143013 1.4248197 -2.6076348e+38
1.9952779 0.76335973 1.4238007 -2.6075309e+38
1.99527 0.75992358 1.4238007 -2.6075828e+38
1.9952621 0.75648737 1.4238007 -2.6209788e+38
1.9952543 0.75305122 1.4238007 -2.6209788e+38
2.0052569 0.75415397 1.4248197 -2.6342708e+38
2.005249 0.75069875 1.4248197 -2.6476152e+38
2.0052412 0.74724352 1.4248197 -2.6475635e+38
2.005233 0.7437883 1.4248197 -2.6343751e+38
2.0052252 0.74033302 1.4248197 -2.6476674e+38
2.0052173 0.7368778 1.4248197 -2.6608558e+38
2.0052094 0.73342264 1.4248197 -2.674044e+38
2.0052013 0.72996742 1.4248197 -2.6873359e+38
2.0051935 0.72651213 1.4248197 -2.6607507e+38
2.0051856 0.72305691 1.4248197 -2.6208739e+38
2.0151877 0.72395021 1.4258388 -2.6076333e+38
2.0151796 0.72047591 1.4258388 -2.5810488e+38
2.0151718 0.71700162 1.4258388 -2.5678084e+38
2.0241725 0.71738958 1.4267559 -2.5412237e+38
2.0151558 0.71005315 1.4258388 -2.5545675e+38
2.0241566 0.71040678 1.4267559 -2.5679119e+38
2.0241487 0.70691538 1.4267559 -2.5812043e+38
2.0241406 0.70342392 1.4267559 -2.581205e+38
2.0241327 0.69993252 1.4267559 -2.594498e+38
2.0241246 0.69644105 1.4267559 -2.6077901e+38
2.0241165 0.69294965 1.4267559 -2.6077899e+38
2.0341179 0.6935972 1.427775 -2.5944976e+38
2.0341101 0.69008672 1.427775 -2.6077899e+38
2.034102 0.68657631 1.427775 -2.6210299e+38
2.0340939 0.68306583 1.427775 -2.5943932e+38
2.0340858 0.67955536 1.427775 -2.5678606e+38
2.0440872 0.68008858 1.428794 -2.5678606e+38
2.0440791 0.67655903 1.428794 -2.5677569e+38
2.044071 0.67302954 1.428794 -2.5677052e+38
2.0440629 0.66949999 1.428794 -2.5677048e+38
2.0440547 0.6659705 1.428794 -2.5809969e+38
2.064065 0.67033798 1.4308321 -2.5943405e+38
2.0640569 0.66677034 1.4308321 -2.594392e+38
2.0640485 0.66320282 1.4308321 -2.5943922e+38
2.0640404 0.65963519 1.4308321 -2.5943924e+38
2.0640323 0.65606755 1.4308321 -2.5943922e+38
2.064024 0.65249991 1.4308321 -2.594392e+38
2.0740247 0.65276653 1.4318511 -2.5944443e+38
2.0740166 0.64917982 1.4318511 -2.5944968e+38
2.0740082 0.64559317 1.4318511 -2.5812048e+38
2.0850093 0.64616132 1.4329721 -2.581205e+38
2.0850012 0.64255369 1.4329721 -2.5812569e+38
2.0849929 0.63894612 1.4329721 -2.5679127e+38
2.0849845 0.63533849 1.4329721 -2.5546206e+38
2.0949848 0.63543183 1.4339912 -2.5413285e+38
2.0949767 0.63180512 1.4339912 -2.528036e+38
2.0949683 0.62817848 1.4339912 -2.528088e+38
2.09496 0.62455177 1.4339912 -2.5147955e+38
2.1059608 0.62491232 1.4351121 -2.5015032e+38
2.1059525 0.6212647 1.4351121 -2.4882103e+38
2.1159525 0.62120366 1.4361311 -2.5015022e+38
2.1269529 0.62146127 1.4372522 -2.5014503e+38
2.1269445 0.61777371 1.4372522 -2.4881061e+38
2.126936 0.61408609 1.4372522 -2.4748657e+38
2.1269276 0.61039847 1.4372522 -2.488158e+38
2.126919 0.60671085 1.4372522 -2.4882103e+38
2.1269107 0.60302323 1.4372522 -2.5147953e+38
2.1158936 0.59553707 1.4361311 -2.528088e+38
2.1058772 0.58843625 1.4351121 -2.5546731e+38
2.0948601 0.58103192 1.4339912 -2.5681216e+38
2.0848441 0.57400918 1.4329721 -2.5948623e+38
2.0848358 0.57040155 1.4329721 -2.6213948e+38
2.0848274 0.56679392 1.4329721 -2.6611677e+38
2.0738108 0.55951339 1.4318511 -2.68796e+38
2.0738027 0.55592674 1.4318511 -2.7278888e+38
2.0848026 0.55597103 1.4329721 -2.7678175e+38
2.0847943 0.55236346 1.4329721 -2.7677658e+38
2.0847862 0.54875588 1.4329721 -2.7678699e+38
2.0847778 0.54514825 1.4329721 -2.7812143e+38
2.0847695 0.54154062 1.4329721 -2.7945067e+38
2.0847614 0.53793299 1.4329721 -2.7811627e+38
2.084753 0.53432542 1.4329721 -2.7679749e+38
2.0847447 0.53071779 1.4329721 -2.7813197e+38
2.0847366 0.52711022 1.4329721 -2.7814242e+38
2.0947354 0.52663207 1.4339912 -2.8081132e+38
2.094727 0.52300543 1.4339912 -2.8347503e+38
2.0947187 0.51937878 1.4339912 -2.8746277e+38
2.0947106 0.51575208 1.4339912 -2.9012648e+38
2.10571 0.51548404 1.4351121 -2.9146098e+38
2.1057017 0.51183641 1.4351121 -2.92811e+38
2.1056933 0.50818878 1.4351121 -2.9813315e+38
2.105685 0.50454122 1.4351121 -3.0213132e+38
2.1156833 0.50387067 1.4361311 -3.0876719e+38
2.1266825 0.50345784 1.4372522 -3.1410485e+38
1.9955143 0.86644524 1.4203645 -2.3544036e+38
1.9955064 0.86300904 1.4203645 -2.3545075e+38
1.9954985 0.85957283 1.4203645 -2.380988e+38
1.9954906 0.85613668 1.4203645 -2.4076764e+38
1.9954827 0.85270047 1.4203645 -2.4476049e+38
1.9954748 0.84926426 1.4203645 -2.5009298e+38
1.9954669 0.84582812 1.4203645 -2.5275661e+38
1.9954591 0.84239197 1.4203645 -2.554203e+38
1.9954512 0.83895576 1.4203645 -2.5676512e+38
2.005455 0.84053469 1.4213645 -2.5809965e+38
1.9954355 0.8320834 1.4203645 -2.5810494e+38
2.005439 0.83362424 1.4213645 -2.5811017e+38
1.9954197 0.82521099 1.4203645 -2.5811021e+38
1.9954119 0.82177484 1.4203645 -2.5810502e+38
1.995404 0.81833869 1.4203645 -2.5678098e+38
1.995396 0.81490248 1.4203645 -2.5545687e+38
1.9953882 0.81146628 1.4203645 -2.5678082e+38
1.9953803 0.80803013 1.4203645 -2.5942368e+38
1.9953724 0.80459392 1.4203645 -2.580996e+38
1.9953645 0.80115777 1.4203645 -2.5809445e+38
1.9953567 0.79772156 1.4203645 -2.594237e+38
1.9953488 0.79428542 1.4203645 -2.6208737e+38
1.9953409 0.79084921 1.4203645 -2.6607505e+38
1.9953331 0.787413 1.4203645 -2.7006799e+38
1.9953252 0.78397685 1.4203645 -2.687388e+38
1.9953173 0.78054065 1.4203645 -2.6740958e+38
1.9953095 0.7771045 1.4203645 -2.6475629e+38
1.9953015 0.77366829 1.4203645 -2.6342189e+38
1.9952936 0.77023214 1.4203645 -2.6209268e+38
2.0052965 0.77143013 1.4213645 -2.6076863e+38
1.9952779 0.76335973 1.4203645 -2.6076342e+38
1.99527 0.75992358 1.4203645 -2.6209784e+38
1.9952621 0.75648737 1.4203645 -2.6342187e+38
1.9952543 0.75305122 1.4203645 -2.6475112e+38
1.9952464 0.74961501 1.4203645 -2.6342708e+38
2.005249 0.75069875 1.4213645 -2.6342708e+38
1.9952307 0.74274266 1.4203645 -2.6343747e+38
2.005233 0.7437883 1.4213645 -2.6344787e+38
2.0052252 0.74033302 1.4213645 -2.6476152e+38
2.0052173 0.7368778 1.4213645 -2.6740438e+38
2.0052094 0.73342264 1.4213645 -2.6740436e+38
2.0052013 0.72996742 1.4213645 -2.6873872e+38
2.0051935 0.72651213 1.4213645 -2.6607499e+38
2.0151956 0.7274245 1.4223645 -2.6341654e+38
2.0151877 0.72395021 1.4223645 -2.6076327e+38
2.0151796 0.72047591 1.4223645 -2.5943405e+38
2.0151718 0.71700162 1.4223645 -2.5810999e+38
2.0241725 0.71738958 1.4232645 -2.5678078e+38
2.0241647 0.71389818 1.4232645 -2.581152e+38
2.0241566 0.71040678 1.4232645 -2.5944445e+38
2.0241487 0.70691538 1.4232645 -2.5811524e+38
2.0241406 0.70342392 1.4232645 -2.581153e+38
2.0241327 0.69993252 1.4232645 -2.5944978e+38
2.0241246 0.69644105 1.4232645 -2.6211341e+38
2.0241165 0.69294965 1.4232645 -2.6077897e+38
2.0341179 0.6935972 1.4242644 -2.5944455e+38
2.0341101 0.69008672 1.4242644 -2.6077378e+38
2.034102 0.68657631 1.4242644 -2.6209777e+38
2.0340939 0.68306583 1.4242644 -2.5944445e+38
2.0340858 0.67955536 1.4242644 -2.5812041e+38
2.0340779 0.67604488 1.4242644 -2.5811001e+38
2.0440791 0.67655903 1.4252645 -2.5809969e+38
2.044071 0.67302954 1.4252645 -2.5810492e+38
2.0440629 0.66949999 1.4252645 -2.5809967e+38
2.0440547 0.6659705 1.4252645 -2.5942881e+38
2.064065 0.67033798 1.4272645 -2.5943396e+38
2.0640569 0.66677034 1.4272645 -2.5943912e+38
2.0540395 0.6592924 1.4262645 -2.5943916e+38
2.0540314 0.65574384 1.4262645 -2.594392e+38
2.0640323 0.65606755 1.4272645 -2.5943403e+38
2.064024 0.65249991 1.4272645 -2.5943405e+38
2.0740247 0.65276653 1.4282645 -2.5943411e+38
2.0740166 0.64917982 1.4282645 -2.5811011e+38
2.0740082 0.64559317 1.4282645 -2.5811013e+38
2.0850093 0.64616132 1.4293644 -2.5811534e+38
2.0850012 0.64255369 1.4293644 -2.5944976e+38
2.0849929 0.63894612 1.4293644 -2.5811534e+38
2.0849845 0.63533849 1.4293644 -2.5678092e+38
2.0949848 0.63543183 1.4303645 -2.554517e+38
2.0949767 0.63180512 1.4303645 -2.5411726e+38
2.0949683 0.62817848 1.4303645 -2.5280358e+38
2.09496 0.62455177 1.4303645 -2.5147438e+38
2.1059608 0.62491232 1.4314644 -2.5015036e+38
2.1059525 0.6212647 1.4314644 -2.501503e+38
2.1159525 0.62120366 1.4324645 -2.5014505e+38
2.1159439 0.61753702 1.4324645 -2.5013466e+38
2.1269445 0.61777371 1.4335645 -2.4881063e+38
2.126936 0.61408609 1.4335645 -2.4748657e+38
2.1269276 0.61039847 1.4335645 -2.4748655e+38
2.126919 0.60671085 1.4335645 -2.488158e+38
2.1269107 0.60302323 1.4335645 -2.5015022e+38
2.1158936 0.59553707 1.4324645 -2.5280356e+38
2.1058772 0.58843625 1.4314644 -2.5414843e+38
2.0948601 0.58103192 1.4303645 -2.5681731e+38
2.0848441 0.57400918 1.4293644 -2.5947581e+38
2.0848358 0.57040155 1.4293644 -2.6212386e+38
2.0738192 0.5631001 1.4282645 -2.6479268e+38
2.0738108 0.55951339 1.4282645 -2.6879077e+38
2.0738027 0.55592674 1.4282645 -2.7145961e+38
2.0737944 0.55234009 1.4282645 -2.754577e+38
2.0737863 0.5487535 1.4282645 -2.7545252e+38
2.0737779 0.54516679 1.4282645 -2.7545778e+38
2.0737698 0.54158014 1.4282645 -2.7678705e+38
2.0737617 0.53799349 1.4282645 -2.781111e+38
2.0847614 0.53793299 1.4293644 -2.7678707e+38
2.084753 0.53432542 1.4293644 -2.7546826e+38
2.0847447 0.53071779 1.4293644 -2.7680792e+38
2.0847366 0.52711022 1.4293644 -2.7814759e+38
2.0947354 0.52663207 1.4303645 -2.7947688e+38
2.094727 0.52300543 1.4303645 -2.8214059e+38
2.0947187 0.51937878 1.4303645 -2.8613351e+38
2.0947106 0.51575208 1.4303645 -2.9012127e+38
2.0947022 0.51212543 1.4303645 -2.9146096e+38
2.1057017 0.51183641 1.4314644 -2.9413502e+38
2.1056933 0.50818878 1.4314644 -2.9812272e+38
2.105685 0.50454122 1.4314644 -3.0212095e+38
2.1056764 0.50089359 1.4314644 -3.0877762e+38
2.115675 0.50020397 1.4324645 -3.1412566e+38
2.0055263 0.87163174 1.4179093 -2.3412669e+38
1.9955064 0.86300904 1.4169283 -2.3411628e+38
1.9954985 0.85957283 1.4169283 -2.3676953e+38
1.9954906 0.85613668 1.4169283 -2.3943835e+38
1.9954827 0.85270047 1.4169283 -2.4476041e+38
1.9954748 0.84926426 1.4169283 -2.4876369e+38
1.9954669 0.84582812 1.4169283 -2.5275659e+38
2.0054708 0.84744513 1.4179093 -2.5543068e+38
1.9954512 0.83895576 1.4169283 -2.5677553e+38
2.005455 0.84053469 1.4179093 -2.5677561e+38
2.0054469 0.83707947 1.4179093 -2.581153e+38
2.005439 0.83362424 1.4179093 -2.5943938e+38
1.9954197 0.82521099 1.4169283 -2.5943944e+38
1.9954119 0.82177484 1.4169283 -2.594394e+38
1.995404 0.81833869 1.4169283 -2.5678612e+38
1.995396 0.81490248 1.4169283 -2.5412241e+38
1.9953882 0.81146628 1.4169283 -2.5809965e+38
1.9953803 0.80803013 1.4169283 -2.6075808e+38
1.9953724 0.80459392 1.4169283 -2.5943403e+38
1.9953645 0.80115777 1.4169283 -2.5676525e+38
1.9953567 0.79772156 1.4169283 -2.5808932e+38
1.9953488 0.79428542 1.4169283 -2.5809453e+38
1.9953409 0.79084921 1.4169283 -2.6341147e+38
1.9953331 0.787413 1.4169283 -2.6740954e+38
1.9953252 0.78397685 1.4169283 -2.6608552e+38
1.9953173 0.78054065 1.4169283 -2.6475629e+38
1.9953095 0.7771045 1.4169283 -2.647615e+38
1.9953015 0.77366829 1.4169283 -2.6342708e+38
1.9952936 0.77023214 1.4169283 -2.6209268e+38
1.9952857 0.76679593 1.4169283 -2.594394e+38
1.9952779 0.76335973 1.4169283 -2.6076863e+38
1.99527 0.75992358 1.4169283 -2.6209784e+38
1.9952621 0.75648737 1.4169283 -2.6474591e+38
1.9952543 0.75305122 1.4169283 -2.6608033e+38
1.9952464 0.74961501 1.4169283 -2.6475631e+38
1.9952385 0.74617887 1.4169283 -2.6210822e+38
1.9952307 0.74274266 1.4169283 -2.6345303e+38
2.005233 0.7437883 1.4179093 -2.6343745e+38
2.0052252 0.74033302 1.4179093 -2.6608033e+38
2.0052173 0.7368778 1.4179093 -2.6740956e+38
2.0052094 0.73342264 1.4179093 -2.6740434e+38
2.0052013 0.72996742 1.4179093 -2.674043e+38
2.0051935 0.72651213 1.4179093 -2.6607503e+38
2.0051856 0.72305691 1.4179093 -2.6475096e+38
2.0151877 0.72395021 1.4188902 -2.6209248e+38
2.0151796 0.72047591 1.4188902 -2.5943922e+38
2.0151718 0.71700162 1.4188902 -2.5943922e+38
2.0241725 0.71738958 1.4197731 -2.5811003e+38
2.0151558 0.71005315 1.4188902 -2.5943928e+38
2.0241566 0.71040678 1.4197731 -2.6077374e+38
2.0241487 0.70691538 1.4197731 -2.5943934e+38
2.0241406 0.70342392 1.4197731 -2.5811534e+38
2.0241327 0.69993252 1.4197731 -2.6077382e+38
2.0241246 0.69644105 1.4197731 -2.621082e+38
2.0241165 0.69294965 1.4197731 -2.6077374e+38
2.0241086 0.68945819 1.4197731 -2.594393e+38
2.0341101 0.69008672 1.420754 -2.6076331e+38
2.034102 0.68657631 1.420754 -2.6076849e+38
2.0340939 0.68306583 1.420754 -2.6077364e+38
2.0340858 0.67955536 1.420754 -2.5943924e+38
2.0340779 0.67604488 1.420754 -2.5943926e+38
2.0440791 0.67655903 1.4217349 -2.5943413e+38
2.044071 0.67302954 1.4217349 -2.5943936e+38
2.0440629 0.66949999 1.4217349 -2.5943413e+38
2.0440547 0.6659705 1.4217349 -2.5942887e+38
2.0540557 0.66638947 1.4227159 -2.5943403e+38
2.0640569 0.66677034 1.4236969 -2.5943918e+38
2.0540395 0.6592924 1.4227159 -2.594392e+38
2.0540314 0.65574384 1.4227159 -2.5943924e+38
2.0640323 0.65606755 1.4236969 -2.5943407e+38
2.074033 0.65635318 1.4246778 -2.5943411e+38
2.0740247 0.65276653 1.4246778 -2.5943934e+38
2.0740166 0.64917982 1.4246778 -2.5810496e+38
2.0740082 0.64559317 1.4246778 -2.5678612e+38
2.0850093 0.64616132 1.4257569 -2.5944455e+38
2.0850012 0.64255369 1.4257569 -2.607738e+38
2.0849929 0.63894612 1.4257569 -2.5943938e+38
2.0849845 0.63533849 1.4257569 -2.5811013e+38
2.0949848 0.63543183 1.4267378 -2.5677571e+38
2.0949767 0.63180512 1.4267378 -2.5545685e+38
2.0949683 0.62817848 1.4267378 -2.5280878e+38
2.09496 0.62455177 1.4267378 -2.501503e+38
2.1059608 0.62491232 1.4278169 -2.5015549e+38
2.1059525 0.6212647 1.4278169 -2.5015028e+38
2.1159525 0.62120366 1.4287978 -2.5013468e+38
2.1159439 0.61753702 1.4287978 -2.5013987e+38
2.1269445 0.61777371 1.4298769 -2.4881582e+38
2.126936 0.61408609 1.4298769 -2.4615736e+38
2.1269276 0.61039847 1.4298769 -2.474814e+38
2.1159103 0.60287035 1.4287978 -2.4881582e+38
2.1159019 0.59920371 1.4287978 -2.5015024e+38
2.1058855 0.59208387 1.4278169 -2.5148989e+38
2.1058772 0.58843625 1.4278169 -2.5415879e+38
2.0948601 0.58103192 1.4267378 -2.5681729e+38
2.0948517 0.57740527 1.4267378 -2.5947059e+38
2.0848358 0.57040155 1.4257569 -2.6213422e+38
2.0848274 0.56679392 1.4257569 -2.6479787e+38
2.0738108 0.55951339 1.4246778 -2.6746152e+38
2.0738027 0.55592674 1.4246778 -2.7012519e+38
2.0848026 0.55597103 1.4257569 -2.7278888e+38
2.0737863 0.5487535 1.4246778 -2.7411295e+38
2.0737779 0.54516679 1.4246778 -2.7412336e+38
2.0737698 0.54158014 1.4246778 -2.7545263e+38
2.0737617 0.53799349 1.4246778 -2.7678707e+38
2.0847614 0.53793299 1.4257569 -2.7545786e+38
2.0737453 0.53082013 1.4246778 -2.7413906e+38
2.0737369 0.52723354 1.4246778 -2.7547352e+38
2.0737288 0.52364689 1.4246778 -2.76808e+38
2.0947354 0.52663207 1.4267378 -2.7947173e+38
2.094727 0.52300543 1.4267378 -2.8081138e+38
2.0947187 0.51937878 1.4267378 -2.848043e+38
2.0947106 0.51575208 1.4267378 -2.8878683e+38
2.0947022 0.51212543 1.4267378 -2.9144533e+38
2.1057017 0.51183641 1.4278169 -2.941194e+38
2.1056933 0.50818878 1.4278169 -2.9810712e+38
2.105685 0.50454122 1.4278169 -3.0211051e+38
2.1056764 0.50089359 1.4278169 -3.0875679e+38
2.1056681 0.49724597 1.4278169 -3.1408916e+38
2.0055342 0.87508696 1.414454 -2.3544551e+38
2.0055263 0.87163174 1.414454 -2.3544551e+38
1.9955064 0.86300904 1.4134921 -2.3411107e+38
1.9954985 0.85957283 1.4134921 -2.3677468e+38
1.9954906 0.85613668 1.4134921 -2.4077271e+38
1.9954827 0.85270047 1.4134921 -2.4343629e+38
1.9954748 0.84926426 1.4134921 -2.4743962e+38
1.9954669 0.84582812 1.4134921 -2.501085e+38
2.0054708 0.84744513 1.414454 -2.5411184e+38
2.0054629 0.84398997 1.414454 -2.5544113e+38
2.005455 0.84053469 1.414454 -2.5809965e+38
2.0054469 0.83707947 1.414454 -2.594393e+38
2.005439 0.83362424 1.414454 -2.6076859e+38
2.0054312 0.83016902 1.414454 -2.6076865e+38
1.9954119 0.82177484 1.4134921 -2.6076861e+38
1.995404 0.81833869 1.4134921 -2.5811009e+38
1.995396 0.81490248 1.4134921 -2.5677044e+38
1.9953882 0.81146628 1.4134921 -2.580996e+38
1.9953803 0.80803013 1.4134921 -2.5943403e+38
1.9953724 0.80459392 1.4134921 -2.5942883e+38
1.9953645 0.80115777 1.4134921 -2.5809449e+38
1.9953567 0.79772156 1.4134921 -2.5809455e+38
1.9953488 0.79428542 1.4134921 -2.5942902e+38
1.9953409 0.79084921 1.4134921 -2.6209268e+38
1.9953331 0.787413 1.4134921 -2.6475629e+38
1.9953252 0.78397685 1.4134921 -2.6476144e+38
1.9953173 0.78054065 1.4134921 -2.6476148e+38
1.9953095 0.7771045 1.4134921 -2.6343228e+38
1.9953015 0.77366829 1.4134921 -2.634271e+38
1.9952936 0.77023214 1.4134921 -2.6077384e+38
1.9952857 0.76679593 1.4134921 -2.5944461e+38
1.9952779 0.76335973 1.4134921 -2.6077382e+38
1.99527 0.75992358 1.4134921 -2.6343226e+38
1.9952621 0.75648737 1.4134921 -2.6342185e+38
1.9952543 0.75305122 1.4134921 -2.6474591e+38
1.9952464 0.74961501 1.4134921 -2.6342708e+38
1.9952385 0.74617887 1.4134921 -2.6211341e+38
1.9952307 0.74274266 1.4134921 -2.6343741e+38
2.005233 0.7437883 1.414454 -2.6475106e+38
2.0052252 0.74033302 1.414454 -2.6608548e+38
2.0052173 0.7368778 1.414454 -2.6874394e+38
2.0052094 0.73342264 1.414454 -2.6873874e+38
2.0052013 0.72996742 1.414454 -2.7005759e+38
2.0051935 0.72651213 1.414454 -2.6873353e+38
2.0051856 0.72305691 1.414454 -2.6740943e+38
2.0151877 0.72395021 1.4154159 -2.6343205e+38
2.0151796 0.72047591 1.4154159 -2.6076843e+38
2.0151718 0.71700162 1.4154159 -2.5944441e+38
2.0151639 0.71352738 1.4154159 -2.5943928e+38
2.0151558 0.71005315 1.4154159 -2.5943932e+38
2.0241566 0.71040678 1.4162817 -2.6077378e+38
2.0241487 0.70691538 1.4162817 -2.6077382e+38
2.0241406 0.70342392 1.4162817 -2.6077901e+38
2.0151241 0.69615597 1.4154159 -2.6077382e+38
2.015116 0.69268167 1.4154159 -2.6210299e+38
2.0151081 0.68920743 1.4154159 -2.6076851e+38
2.0241086 0.68945819 1.4162817 -2.6076327e+38
2.0241005 0.68596685 1.4162817 -2.6208727e+38
2.034102 0.68657631 1.4172435 -2.6474572e+38
2.0340939 0.68306583 1.4172435 -2.6209244e+38
2.0340858 0.67955536 1.4172435 -2.6075808e+38
2.0340779 0.67604488 1.4172435 -2.6076851e+38
2.0440791 0.67655903 1.4182055 -2.5943415e+38
2.044071 0.67302954 1.4182055 -2.5943419e+38
2.0440629 0.66949999 1.4182055 -2.5809975e+38
2.0440547 0.6659705 1.4182055 -2.5943413e+38
2.0540557 0.66638947 1.4191674 -2.5943928e+38
2.0540476 0.66284096 1.4191674 -2.5943403e+38
2.0540395 0.6592924 1.4191674 -2.5942887e+38
2.0540314 0.65574384 1.4191674 -2.5943409e+38
2.0640323 0.65606755 1.4201293 -2.5943413e+38
2.074033 0.65635318 1.4210912 -2.5943934e+38
2.0740247 0.65276653 1.4210912 -2.5944457e+38
2.0740166 0.64917982 1.4210912 -2.5811538e+38
2.0740082 0.64559317 1.4210912 -2.5812054e+38
2.0850093 0.64616132 1.4221493 -2.581153e+38
2.0850012 0.64255369 1.4221493 -2.5943936e+38
2.0849929 0.63894612 1.4221493 -2.5811015e+38
2.0849845 0.63533849 1.4221493 -2.5810494e+38
2.0949848 0.63543183 1.4231112 -2.5678606e+38
2.0949767 0.63180512 1.4231112 -2.5546202e+38
2.0949683 0.62817848 1.4231112 -2.5280356e+38
2.09496 0.62455177 1.4231112 -2.5146912e+38
2.1059608 0.62491232 1.4241693 -2.5014505e+38
2.1059525 0.6212647 1.4241693 -2.5015026e+38
2.1059442 0.61761713 1.4241693 -2.5013989e+38
2.1159439 0.61753702 1.4251312 -2.5013468e+38
2.1159356 0.61387038 1.4251312 -2.4881063e+38
2.126936 0.61408609 1.4261893 -2.4881065e+38
2.1159189 0.60653704 1.4251312 -2.4748661e+38
2.1059022 0.599379 1.4241693 -2.4748661e+38
2.1058939 0.5957315 1.4241693 -2.488262e+38
2.1058855 0.59208387 1.4241693 -2.5017105e+38
2.0948684 0.58465856 1.4231112 -2.5282433e+38
2.0948601 0.58103192 1.4231112 -2.5548283e+38
2.0848441 0.57400918 1.4221493 -2.5814133e+38
2.0848358 0.57040155 1.4221493 -2.621342e+38
2.0738192 0.5631001 1.4210912 -2.6479785e+38
2.0738108 0.55951339 1.4210912 -2.6879594e+38
2.0738027 0.55592674 1.4210912 -2.7013038e+38
2.0848026 0.55597103 1.4221493 -2.7146486e+38
2.0737863 0.5487535 1.4210912 -2.7279413e+38
2.0737779 0.54516679 1.4210912 -2.7412338e+38
2.0737698 0.54158014 1.4210912 -2.7545782e+38
2.0737617 0.53799349 1.4210912 -2.7679228e+38
2.0737534 0.53440678 1.4210912 -2.7678711e+38
2.0737453 0.53082013 1.4210912 -2.7679234e+38
2.0737369 0.52723354 1.4210912 -2.781268e+38
2.0737288 0.52364689 1.4210912 -2.794613e+38
2.0847282 0.52350259 1.4221493 -2.821302e+38
2.0847199 0.51989496 1.4221493 -2.8479389e+38
2.0947187 0.51937878 1.4231112 -2.8479391e+38
2.0947106 0.51575208 1.4231112 -2.8611278e+38
2.0947022 0.51212543 1.4231112 -2.9012123e+38
2.1057017 0.51183641 1.4241693 -2.9279013e+38
2.1056933 0.50818878 1.4241693 -2.9678824e+38
2.105685 0.50454122 1.4241693 -3.0212085e+38
2.1056764 0.50089359 1.4241693 -3.0877228e+38
2.115675 0.50020397 1.4251312 -3.1544936e+38
2.005542 0.87854224 1.4109988 -2.381092e+38
2.0055342 0.87508696 1.4109988 -2.3677476e+38
2.0055263 0.87163174 1.4109988 -2.3543515e+38
1.9955064 0.86300904 1.4100559 -2.3410588e+38
2.0055103 0.8647213 1.4109988 -2.3809874e+38
1.9954906 0.85613668 1.4100559 -2.4076756e+38
1.9954827 0.85270047 1.4100559 -2.4343118e+38
1.9954748 0.84926426 1.4100559 -2.4610526e+38
1.9954669 0.84582812 1.4100559 -2.4877414e+38
2.0054708 0.84744513 1.4109988 -2.5144306e+38
1.9954512 0.83895576 1.4100559 -2.55436e+38
2.005455 0.84053469 1.4109988 -2.5942891e+38
2.0054469 0.83707947 1.4109988 -2.6076335e+38
2.005439 0.83362424 1.4109988 -2.607634e+38
1.9954197 0.82521099 1.4100559 -2.6209786e+38
1.9954119 0.82177484 1.4100559 -2.620978e+38
1.995404 0.81833869 1.4100559 -2.6076851e+38
1.995396 0.81490248 1.4100559 -2.5810482e+38
1.9953882 0.81146628 1.4100559 -2.5809956e+38
1.9953803 0.80803013 1.4100559 -2.5809958e+38
1.9953724 0.80459392 1.4100559 -2.5942885e+38
1.9953645 0.80115777 1.4100559 -2.594237e+38
1.9953567 0.79772156 1.4100559 -2.5941857e+38
1.9953488 0.79428542 1.4100559 -2.5943417e+38
1.9953409 0.79084921 1.4100559 -2.6077378e+38
1.9953331 0.787413 1.4100559 -2.621082e+38
1.9863154 0.77972031 1.4092073 -2.634426e+38
1.9953173 0.78054065 1.4100559 -2.6343741e+38
1.9953095 0.7771045 1.4100559 -2.6343222e+38
1.9953015 0.77366829 1.4100559 -2.6210301e+38
1.9952936 0.77023214 1.4100559 -2.6077901e+38
1.9952857 0.76679593 1.4100559 -2.5944978e+38
1.9952779 0.76335973 1.4100559 -2.6210824e+38
1.99527 0.75992358 1.4100559 -2.6342706e+38
1.9952621 0.75648737 1.4100559 -2.6342185e+38
1.9952543 0.75305122 1.4100559 -2.6209262e+38
1.9952464 0.74961501 1.4100559 -2.6209264e+38
2.005249 0.75069875 1.4109988 -2.6210301e+38
1.9952307 0.74274266 1.4100559 -2.6342704e+38
2.005233 0.7437883 1.4109988 -2.6475627e+38
2.0052252 0.74033302 1.4109988 -2.6741473e+38
2.0052173 0.7368778 1.4109988 -2.6874398e+38
2.0052094 0.73342264 1.4109988 -2.7006803e+38
2.0052013 0.72996742 1.4109988 -2.713972e+38
2.0051935 0.72651213 1.4109988 -2.7006274e+38
2.0051856 0.72305691 1.4109988 -2.6874905e+38
2.0151877 0.72395021 1.4119416 -2.6610613e+38
2.0151796 0.72047591 1.4119416 -2.6210806e+38
2.0151718 0.71700162 1.4119416 -2.6078404e+38
2.0151639 0.71352738 1.4119416 -2.5944447e+38
2.0151558 0.71005315 1.4119416 -2.6076855e+38
2.0151479 0.70657885 1.4119416 -2.6077378e+38
2.0151398 0.70310456 1.4119416 -2.6209786e+38
2.015132 0.69963026 1.4119416 -2.6210303e+38
2.0151241 0.69615597 1.4119416 -2.6209784e+38
2.015116 0.69268167 1.4119416 -2.6076859e+38
2.0151081 0.68920743 1.4119416 -2.6209777e+38
2.0241086 0.68945819 1.4127902 -2.6208735e+38
2.0241005 0.68596685 1.4127902 -2.6474055e+38
2.034102 0.68657631 1.413733 -2.674042e+38
2.0340939 0.68306583 1.413733 -2.6475094e+38
2.0340858 0.67955536 1.413733 -2.6209769e+38
2.0340779 0.67604488 1.413733 -2.6077889e+38
2.0440791 0.67655903 1.414676 -2.5943932e+38
2.044071 0.67302954 1.414676 -2.5809977e+38
2.0440629 0.66949999 1.414676 -2.5677052e+38
2.0440547 0.6659705 1.414676 -2.5809975e+38
2.0540557 0.66638947 1.4156188 -2.5943415e+38
2.0640569 0.66677034 1.4165616 -2.5942893e+38
2.0640485 0.66320282 1.4165616 -2.5809973e+38
2.0540314 0.65574384 1.4156188 -2.5809973e+38
2.0640323 0.65606755 1.4165616 -2.5811013e+38
2.074033 0.65635318 1.4175045 -2.5811013e+38
2.0740247 0.65276653 1.4175045 -2.5811534e+38
2.0740166 0.64917982 1.4175045 -2.5812056e+38
2.0850177 0.64976895 1.4185417 -2.5812054e+38
2.0850093 0.64616132 1.4185417 -2.5812052e+38
2.0850012 0.64255369 1.4185417 -2.5678608e+38
2.0849929 0.63894612 1.4185417 -2.5678606e+38
2.0849845 0.63533849 1.4185417 -2.5678608e+38
2.0949848 0.63543183 1.4194845 -2.5546206e+38
2.0949767 0.63180512 1.4194845 -2.5412762e+38
2.0949683 0.62817848 1.4194845 -2.5280358e+38
2.09496 0.62455177 1.4194845 -2.5146914e+38
2.0949516 0.62092513 1.4194845 -2.5146914e+38
2.1059525 0.6212647 1.4205216 -2.5013992e+38
2.1059442 0.61761713 1.4205216 -2.501347e+38
2.1059358 0.6139695 1.4205216 -2.5013468e+38
2.1059275 0.61032188 1.4205216 -2.5013466e+38
2.1159272 0.61020368 1.4214644 -2.5013989e+38
