# .PCD v0.7 - Point Cloud Data file format
VERSION 0.7
FIELDS x y z rgb
SIZE 4 4 4 4
TYPE F F F F
COUNT 1 1 1 1
WIDTH 1038
HEIGHT 1
VIEWPOINT 0 0 0 1 0 0 0
POINTS 1038
DATA ascii
6.1017952 -0.43777394 1.6399312 -2.5949656e+38
6.0017834 -0.4426136 1.6331693 -2.6481349e+38
6.0017571 -0.45368975 1.6331693 -2.7012498e+38
6.2055936 -0.10031275 1.6354331 nan
6.1025677 -0.1110415 1.6286645 -3.2460761e+38
6.002543 -0.12140498 1.6220931 -2.22086e+38
6.0025167 -0.13248113 1.6220931 -2.4484929e+38
5.9064932 -0.14232454 1.6157845 -2.6749805e+38
6.0024643 -0.15463346 1.6220931 -2.6616357e+38
5.9064417 -0.16411114 1.6157845 -2.648343e+38
5.9064159 -0.17500445 1.6157845 -2.6217061e+38
6.0023856 -0.18786193 1.6220931 -2.5950177e+38
6.0023594 -0.19893809 1.6220931 -2.5816733e+38
6.1023278 -0.21244122 1.6286645 -2.5683289e+38
6.1023011 -0.22370787 1.6286645 -2.5549845e+38
6.1022749 -0.23497449 1.6286645 -2.5549325e+38
6.1022482 -0.24624112 1.6286645 -2.5415883e+38
6.1022215 -0.25750774 1.6286645 -2.5415364e+38
6.2051868 -0.27225512 1.6354331 -2.5282441e+38
6.1021681 -0.28004104 1.6286645 -2.5282439e+38
6.1021414 -0.29130769 1.6286645 -2.5148993e+38
6.1021147 -0.30257431 1.6286645 -2.5148997e+38
6.102088 -0.31384096 1.6286645 -2.5016077e+38
6.1020617 -0.32510757 1.6286645 -2.5016079e+38
6.102035 -0.33637422 1.6286645 -2.4883677e+38
6.1020083 -0.34764087 1.6286645 -2.4884198e+38
6.1019816 -0.35890746 1.6286645 -2.4884198e+38
6.1019549 -0.37017411 1.6286645 -2.5017644e+38
6.2049155 -0.38688338 1.6354331 -2.5017646e+38
6.2048888 -0.39834619 1.6354331 -2.5150567e+38
6.1018748 -0.40397406 1.6286645 -2.5283488e+38
6.1018486 -0.41524065 1.6286645 -2.5549851e+38
6.1018219 -0.42650729 1.6286645 -2.5683289e+38
6.1017952 -0.43777394 1.6286645 -2.5949654e+38
6.0017834 -0.4426136 1.6220931 -2.5949654e+38
6.0017571 -0.45368975 1.6220931 -2.6083069e+38
6.2055936 -0.10031275 1.6239703 nan
6.1025677 -0.1110415 1.6173978 -3.190726e+38
6.102541 -0.12230814 1.6173978 -1.9554815e+38
6.0025167 -0.13248113 1.6110169 -2.2896607e+38
6.0024905 -0.14355728 1.6110169 -2.6219152e+38
6.0024643 -0.15463346 1.6110169 -2.6218627e+38
5.9064417 -0.16411114 1.6048912 -2.6084661e+38
6.0024118 -0.17678577 1.6110169 -2.6083621e+38
6.0023856 -0.18786193 1.6110169 -2.5950177e+38
6.0023594 -0.19893809 1.6110169 -2.5816733e+38
6.0023332 -0.21001425 1.6110169 -2.5683287e+38
6.1023011 -0.22370787 1.6173978 -2.5549323e+38
6.1022749 -0.23497449 1.6173978 -2.5416401e+38
6.1022482 -0.24624112 1.6173978 -2.5415883e+38
6.205214 -0.26079232 1.6239703 -2.5282961e+38
6.2051868 -0.27225512 1.6239703 -2.5415366e+38
6.1021681 -0.28004104 1.6173978 -2.5414845e+38
6.1021414 -0.29130769 1.6173978 -2.5281922e+38
6.1021147 -0.30257431 1.6173978 -2.5016079e+38
6.102088 -0.31384096 1.6173978 -2.5149001e+38
6.1020617 -0.32510757 1.6173978 -2.5149003e+38
6.102035 -0.33637422 1.6173978 -2.5149003e+38
6.1020083 -0.34764087 1.6173978 -2.5016081e+38
6.1019816 -0.35890746 1.6173978 -2.5149005e+38
6.1019549 -0.37017411 1.6173978 -2.5149525e+38
6.1019282 -0.38144076 1.6173978 -2.5149527e+38
6.2048888 -0.39834619 1.6239703 -2.5150044e+38
6.1018748 -0.40397406 1.6173978 -2.541537e+38
6.1018486 -0.41524065 1.6173978 -2.5549332e+38
6.1018219 -0.42650729 1.6173978 -2.5682254e+38
6.1017952 -0.43777394 1.6173978 -2.5816218e+38
6.1017685 -0.44904059 1.6173978 -2.5417449e+38
6.0017571 -0.45368975 1.6110169 -2.5017107e+38
6.2055936 -0.10031275 1.6125073 nan
6.1025677 -0.1110415 1.6061312 -3.2199583e+38
6.002543 -0.12140498 1.5999407 -1.9682026e+38
6.0025167 -0.13248113 1.5999407 -2.3024338e+38
6.0024905 -0.14355728 1.5999407 -2.6219152e+38
6.0024643 -0.15463346 1.5999407 -2.6218627e+38
6.0024381 -0.16570961 1.5999407 -2.6217067e+38
6.0024118 -0.17678577 1.5999407 -2.6083621e+38
6.0023856 -0.18786193 1.5999407 -2.5949658e+38
6.0023594 -0.19893809 1.5999407 -2.5816212e+38
6.1023278 -0.21244122 1.6061312 -2.5682767e+38
6.1023011 -0.22370787 1.6061312 -2.5549321e+38
6.1022749 -0.23497449 1.6061312 -2.5416401e+38
6.1022482 -0.24624112 1.6061312 -2.5282959e+38
6.1022215 -0.25750774 1.6061312 -2.5282961e+38
6.1021948 -0.26877439 1.6061312 -2.5281924e+38
6.1021681 -0.28004104 1.6061312 -2.5281407e+38
6.1021414 -0.29130769 1.6061312 -2.5149005e+38
6.1021147 -0.30257431 1.6061312 -2.5015563e+38
6.102088 -0.31384096 1.6061312 -2.5015561e+38
6.2050514 -0.32956928 1.6125073 -2.5147965e+38
6.2050242 -0.34103209 1.6125073 -2.5015561e+38
6.1020083 -0.34764087 1.6061312 -2.5015561e+38
6.1019816 -0.35890746 1.6061312 -2.5016081e+38
6.1019549 -0.37017411 1.6061312 -2.50166e+38
6.2049155 -0.38688338 1.6125073 -2.515004e+38
6.2048888 -0.39834619 1.6125073 -2.5150042e+38
6.1018748 -0.40397406 1.6061312 -2.5416407e+38
6.1018486 -0.41524065 1.6061312 -2.5549853e+38
6.1018219 -0.42650729 1.6061312 -2.5682258e+38
6.1017952 -0.43777394 1.6061312 -2.5948625e+38
6.0017834 -0.4426136 1.5999407 -2.5682782e+38
6.2055936 -0.10031275 1.6010445 nan
6.1025677 -0.1110415 1.5948645 -3.2593664e+38
6.102541 -0.12230814 1.5948645 -1.9826362e+38
6.1025147 -0.13357478 1.5948645 -2.3032641e+38
6.102488 -0.1448414 1.5948645 -2.6219669e+38
6.1024613 -0.15610805 1.5948645 -2.6218625e+38
6.1024346 -0.16737469 1.5948645 -2.6217065e+38
6.1024079 -0.17864132 1.5948645 -2.60831e+38
6.1023812 -0.18990797 1.5948645 -2.5816214e+38
6.1023545 -0.20117459 1.5948645 -2.5682767e+38
6.1023278 -0.21244122 1.5948645 -2.5549845e+38
6.1023011 -0.22370787 1.5948645 -2.5549323e+38
6.1022749 -0.23497449 1.5948645 -2.5415881e+38
6.1022482 -0.24624112 1.5948645 -2.5282439e+38
6.1022215 -0.25750774 1.5948645 -2.5148999e+38
6.1021948 -0.26877439 1.5948645 -2.5147963e+38
6.1021681 -0.28004104 1.5948645 -2.5015559e+38
6.1021414 -0.29130769 1.5948645 -2.50166e+38
6.1021147 -0.30257431 1.5948645 -2.4883156e+38
6.102088 -0.31384096 1.5948645 -2.5016079e+38
6.2050514 -0.32956928 1.6010445 -2.5148999e+38
6.102035 -0.33637422 1.5948645 -2.5016077e+38
6.1020083 -0.34764087 1.5948645 -2.4883154e+38
6.1019816 -0.35890746 1.5948645 -2.4883154e+38
6.1019549 -0.37017411 1.5948645 -2.4884192e+38
6.1019282 -0.38144076 1.5948645 -2.5017634e+38
6.1019015 -0.39270741 1.5948645 -2.5150557e+38
6.1018748 -0.40397406 1.5948645 -2.5416405e+38
6.1018486 -0.41524065 1.5948645 -2.5548812e+38
6.1018219 -0.42650729 1.5948645 -2.5813623e+38
6.1017952 -0.43777394 1.5948645 -2.5948627e+38
6.1017685 -0.44904059 1.5948645 -2.5816228e+38
6.1026211 -0.088508233 1.5835979 nan
6.1025944 -0.099774867 1.5835979 nan
6.1025677 -0.1110415 1.5835979 -3.394001e+38
6.102541 -0.12230814 1.5835979 -2.2473904e+38
6.1025147 -0.13357478 1.5835979 -2.4751288e+38
6.102488 -0.1448414 1.5835979 -2.6883241e+38
6.1024613 -0.15610805 1.5835979 -2.6616872e+38
6.1024346 -0.16737469 1.5835979 -2.6349986e+38
6.1024079 -0.17864132 1.5835979 -2.621602e+38
6.1023812 -0.18990797 1.5835979 -2.5948615e+38
6.1023545 -0.20117459 1.5835979 -2.5682765e+38
6.1023278 -0.21244122 1.5835979 -2.5416922e+38
6.1023011 -0.22370787 1.5835979 -2.5416403e+38
6.1022749 -0.23497449 1.5835979 -2.5415883e+38
6.1022482 -0.24624112 1.5835979 -2.5414843e+38
6.1022215 -0.25750774 1.5835979 -2.5280884e+38
6.1021948 -0.26877439 1.5835979 -2.514848e+38
6.1021681 -0.28004104 1.5835979 -2.4882637e+38
6.1021414 -0.29130769 1.5835979 -2.4883156e+38
6.1021147 -0.30257431 1.5835979 -2.4883154e+38
6.102088 -0.31384096 1.5835979 -2.5016075e+38
6.2050514 -0.32956928 1.5895816 -2.5149515e+38
6.2050242 -0.34103209 1.5895816 -2.5149513e+38
6.1020083 -0.34764087 1.5835979 -2.5017111e+38
6.1019816 -0.35890746 1.5835979 -2.5016592e+38
6.1019549 -0.37017411 1.5835979 -2.5150036e+38
6.1019282 -0.38144076 1.5835979 -2.5282959e+38
6.1019015 -0.39270741 1.5835979 -2.5416401e+38
6.1018748 -0.40397406 1.5835979 -2.5549323e+38
6.1018486 -0.41524065 1.5835979 -2.5681733e+38
6.1018219 -0.42650729 1.5835979 -2.5682258e+38
6.1017952 -0.43777394 1.5835979 -2.5684341e+38
6.1017685 -0.44904059 1.5835979 -2.5150058e+38
6.0025954 -0.099252649 1.5667121 nan
6.0025692 -0.11032881 1.5667121 nan
6.002543 -0.12140498 1.5667121 -2.5150005e+38
6.1025147 -0.13357478 1.5723312 -2.6349976e+38
6.102488 -0.1448414 1.5723312 -2.7547325e+38
6.1024613 -0.15610805 1.5723312 -2.7016159e+38
6.1024346 -0.16737469 1.5723312 -2.6482907e+38
6.1024079 -0.17864132 1.5723312 -2.6348943e+38
6.1023812 -0.18990797 1.5723312 -2.6082055e+38
6.1023545 -0.20117459 1.5723312 -2.5682765e+38
6.1023278 -0.21244122 1.5723312 -2.5283997e+38
6.1023011 -0.22370787 1.5723312 -2.541692e+38
6.1022749 -0.23497449 1.5723312 -2.5416403e+38
6.1022482 -0.24624112 1.5723312 -2.5414845e+38
6.1022215 -0.25750774 1.5723312 -2.5414845e+38
6.1021948 -0.26877439 1.5723312 -2.5149519e+38
6.1021681 -0.28004104 1.5723312 -2.4750231e+38
6.1021414 -0.29130769 1.5723312 -2.4883673e+38
6.1021147 -0.30257431 1.5723312 -2.4883152e+38
6.102088 -0.31384096 1.5723312 -2.501607e+38
6.1020617 -0.32510757 1.5723312 -2.5148991e+38
6.102035 -0.33637422 1.5723312 -2.5148472e+38
6.1020083 -0.34764087 1.5723312 -2.514951e+38
6.1019816 -0.35890746 1.5723312 -2.5281916e+38
6.1019549 -0.37017411 1.5723312 -2.5282435e+38
6.1019282 -0.38144076 1.5723312 -2.5548281e+38
6.2048888 -0.39834619 1.5781188 -2.5681725e+38
6.1018748 -0.40397406 1.5723312 -2.5681725e+38
6.1018486 -0.41524065 1.5723312 -2.5682248e+38
6.1018219 -0.42650729 1.5723312 -2.5549849e+38
6.1017952 -0.43777394 1.5723312 -2.528453e+38
6.1017685 -0.44904059 1.5723312 -2.4485965e+38
6.1025944 -0.099774867 1.5610645 nan
6.1025677 -0.1110415 1.5610645 nan
6.002543 -0.12140498 1.5556359 -2.8597165e+38
6.0025167 -0.13248113 1.5556359 -2.7409184e+38
6.102488 -0.1448414 1.5610645 -2.6351529e+38
6.1024613 -0.15610805 1.5610645 -2.6351026e+38
6.1024346 -0.16737469 1.5610645 -2.6482907e+38
6.1024079 -0.17864132 1.5610645 -2.6216018e+38
6.1023812 -0.18990797 1.5610645 -2.5949132e+38
6.1023545 -0.20117459 1.5610645 -2.5550362e+38
6.1023278 -0.21244122 1.5610645 -2.5284516e+38
6.1023011 -0.22370787 1.5610645 -2.5417437e+38
6.1022749 -0.23497449 1.5610645 -2.5549845e+38
6.1022482 -0.24624112 1.5610645 -2.5548808e+38
6.1022215 -0.25750774 1.5610645 -2.5548287e+38
6.1021948 -0.26877439 1.5610645 -2.528192e+38
6.1021681 -0.28004104 1.5610645 -2.5147959e+38
6.1021414 -0.29130769 1.5610645 -2.5015555e+38
6.1021147 -0.30257431 1.5610645 -2.5015551e+38
6.102088 -0.31384096 1.5610645 -2.5016066e+38
6.2050514 -0.32956928 1.5666559 -2.5016586e+38
6.102035 -0.33637422 1.5610645 -2.5016064e+38
6.1020083 -0.34764087 1.5610645 -2.5149508e+38
6.1019816 -0.35890746 1.5610645 -2.5149508e+38
6.1019549 -0.37017411 1.5610645 -2.528295e+38
6.1019282 -0.38144076 1.5610645 -2.5415354e+38
6.1019015 -0.39270741 1.5610645 -2.5548279e+38
6.1018748 -0.40397406 1.5610645 -2.55488e+38
6.1018486 -0.41524065 1.5610645 -2.5549321e+38
6.1018219 -0.42650729 1.5610645 -2.5550362e+38
6.0018096 -0.43153745 1.5556359 -2.5551413e+38
6.0017834 -0.4426136 1.5556359 -2.461733e+38
6.1025944 -0.099774867 1.5497978 nan
6.1025677 -0.1110415 1.5497978 nan
6.002543 -0.12140498 1.5445597 -3.1933747e+38
6.0025167 -0.13248113 1.5445597 -2.8470465e+38
6.102488 -0.1448414 1.5497978 -2.5019691e+38
6.1024613 -0.15610805 1.5497978 -2.5819852e+38
6.1024346 -0.16737469 1.5497978 -2.6482904e+38
6.1024079 -0.17864132 1.5497978 -2.6083096e+38
6.1023812 -0.18990797 1.5497978 -2.5683806e+38
6.1023545 -0.20117459 1.5497978 -2.5417439e+38
6.1023278 -0.21244122 1.5497978 -2.5151593e+38
6.1023011 -0.22370787 1.5497978 -2.5417437e+38
6.1022749 -0.23497449 1.5497978 -2.5549843e+38
6.1022482 -0.24624112 1.5497978 -2.5681729e+38
6.1022215 -0.25750774 1.5497978 -2.5681208e+38
6.1021948 -0.26877439 1.5497978 -2.5547244e+38
6.1021681 -0.28004104 1.5497978 -2.5414322e+38
6.1021414 -0.29130769 1.5497978 -2.5281399e+38
6.2051053 -0.30664361 1.5551931 -2.5016068e+38
6.2050781 -0.31810644 1.5551931 -2.5015547e+38
6.2050514 -0.32956928 1.5551931 -2.4883142e+38
6.2050242 -0.34103209 1.5551931 -2.5015545e+38
6.1020083 -0.34764087 1.5497978 -2.5016066e+38
6.1019816 -0.35890746 1.5497978 -2.5148989e+38
6.1019549 -0.37017411 1.5497978 -2.514951e+38
6.1019282 -0.38144076 1.5497978 -2.5281395e+38
6.1019015 -0.39270741 1.5497978 -2.5415358e+38
6.1018748 -0.40397406 1.5497978 -2.5415879e+38
6.1018486 -0.41524065 1.5497978 -2.5283478e+38
6.1018219 -0.42650729 1.5497978 -2.5549845e+38
6.1017952 -0.43777394 1.5497978 -2.568277e+38
6.0017834 -0.4426136 1.5445597 -2.488316e+38
6.1025944 -0.099774867 1.5385312 nan
6.1025677 -0.1110415 1.5385312 nan
6.002543 -0.12140498 1.5334835 -3.2992988e+38
6.1025147 -0.13357478 1.5385312 -2.9004207e+38
6.102488 -0.1448414 1.5385312 -2.4887273e+38
6.1024613 -0.15610805 1.5385312 -2.5552964e+38
6.1024346 -0.16737469 1.5385312 -2.6217059e+38
6.1024079 -0.17864132 1.5385312 -2.5950173e+38
6.1023812 -0.18990797 1.5385312 -2.581621e+38
6.0023594 -0.19893809 1.5334835 -2.5550362e+38
6.1023278 -0.21244122 1.5385312 -2.5283997e+38
6.1023011 -0.22370787 1.5385312 -2.5416918e+38
6.1022749 -0.23497449 1.5385312 -2.5549323e+38
6.1022482 -0.24624112 1.5385312 -2.5415881e+38
6.1022215 -0.25750774 1.5385312 -2.5414841e+38
6.1021948 -0.26877439 1.5385312 -2.5281914e+38
6.2051597 -0.28371796 1.5437303 -2.5148991e+38
6.2051325 -0.2951808 1.5437303 -2.5016068e+38
6.2051053 -0.30664361 1.5437303 -2.4884182e+38
6.2050781 -0.31810644 1.5437303 -2.4883142e+38
6.2050514 -0.32956928 1.5437303 -2.5016064e+38
6.2050242 -0.34103209 1.5437303 -2.4883142e+38
6.2049971 -0.35249496 1.5437303 -2.4883663e+38
6.1019816 -0.35890746 1.5385312 -2.5016586e+38
6.1019549 -0.37017411 1.5385312 -2.515003e+38
6.1019282 -0.38144076 1.5385312 -2.5282435e+38
6.1019015 -0.39270741 1.5385312 -2.5282437e+38
6.1018748 -0.40397406 1.5385312 -2.5283476e+38
6.1018486 -0.41524065 1.5385312 -2.5283997e+38
6.1018219 -0.42650729 1.5385312 -2.5417441e+38
6.0018096 -0.43153745 1.5334835 -2.5417956e+38
6.0017834 -0.4426136 1.5334835 -2.4216453e+38
5.9065704 -0.10964462 1.5177445 nan
6.002543 -0.12140498 1.5224073 nan
6.1025147 -0.13357478 1.5272645 -2.9400925e+38
6.102488 -0.1448414 1.5272645 -2.4752805e+38
6.1024613 -0.15610805 1.5272645 -2.5421078e+38
6.1024346 -0.16737469 1.5272645 -2.5951728e+38
6.1024079 -0.17864132 1.5272645 -2.595069e+38
6.1023812 -0.18990797 1.5272645 -2.5817246e+38
6.0023594 -0.19893809 1.5224073 -2.5683804e+38
6.1023278 -0.21244122 1.5272645 -2.5417439e+38
6.1023011 -0.22370787 1.5272645 -2.5416918e+38
6.0022807 -0.23216657 1.5224073 -2.5416399e+38
6.1022482 -0.24624112 1.5272645 -2.5282957e+38
6.1022215 -0.25750774 1.5272645 -2.5149513e+38
6.1021948 -0.26877439 1.5272645 -2.501659e+38
6.1021681 -0.28004104 1.5272645 -2.4750223e+38
6.1021414 -0.29130769 1.5272645 -2.4750223e+38
6.1021147 -0.30257431 1.5272645 -2.4617819e+38
6.2050781 -0.31810644 1.5322673 -2.4882626e+38
6.2050514 -0.32956928 1.5322673 -2.5015547e+38
6.2050242 -0.34103209 1.5322673 -2.4882622e+38
6.1020083 -0.34764087 1.5272645 -2.475074e+38
6.1019816 -0.35890746 1.5272645 -2.5017107e+38
6.1019549 -0.37017411 1.5272645 -2.515003e+38
6.1019282 -0.38144076 1.5272645 -2.5150551e+38
6.1019015 -0.39270741 1.5272645 -2.5151072e+38
6.1018748 -0.40397406 1.5272645 -2.5284516e+38
6.0018616 -0.40938509 1.5224073 -2.5284001e+38
6.0018353 -0.4204613 1.5224073 -2.5284524e+38
6.0018096 -0.43153745 1.5224073 -2.5150555e+38
5.9057975 -0.43644375 1.5177445 -2.3551322e+38
5.9065962 -0.098751321 1.5068512 nan
5.8135719 -0.10898182 1.5025111 nan
5.9065447 -0.12053793 1.5068512 nan
6.0025167 -0.13248113 1.5113312 -2.9407699e+38
6.2054849 -0.14616406 1.5208045 -2.4618856e+38
6.2054577 -0.15762688 1.5208045 -2.5286595e+38
6.0024381 -0.16570961 1.5113312 -2.5951726e+38
6.0024118 -0.17678577 1.5113312 -2.5818282e+38
6.0023856 -0.18786193 1.5113312 -2.5685881e+38
6.0023594 -0.19893809 1.5113312 -2.55514e+38
6.0023332 -0.21001425 1.5113312 -2.5550881e+38
6.0023069 -0.22109042 1.5113312 -2.5416918e+38
6.0022807 -0.23216657 1.5113312 -2.5282955e+38
6.1022482 -0.24624112 1.5159979 -2.515003e+38
6.1022215 -0.25750774 1.5159979 -2.501659e+38
6.2051868 -0.27225512 1.5208045 -2.4883667e+38
6.2051597 -0.28371796 1.5208045 -2.4749706e+38
6.2051325 -0.2951808 1.5208045 -2.4617819e+38
6.2051053 -0.30664361 1.5208045 -2.4617821e+38
6.2050781 -0.31810644 1.5208045 -2.4749706e+38
6.2050514 -0.32956928 1.5208045 -2.4882107e+38
6.2050242 -0.34103209 1.5208045 -2.47497e+38
6.1020083 -0.34764087 1.5159979 -2.4617817e+38
6.1019816 -0.35890746 1.5159979 -2.4751261e+38
6.1019549 -0.37017411 1.5159979 -2.4884186e+38
6.0019403 -0.37615663 1.5113312 -2.5017628e+38
6.001914 -0.38723278 1.5113312 -2.5151593e+38
6.0018878 -0.39830893 1.5113312 -2.5283999e+38
6.0018616 -0.40938509 1.5113312 -2.541589e+38
6.0018353 -0.4204613 1.5113312 -2.5549855e+38
5.9058232 -0.42555046 1.5068512 -2.5683808e+38
5.9057975 -0.43644375 1.5068512 -2.5013994e+38
5.9057717 -0.44733703 1.5068512 -2.4343688e+38
5.8135719 -0.10898182 1.4917949 nan
6.002543 -0.12140498 1.500255 nan
6.0025167 -0.13248113 1.500255 -2.9267507e+38
6.102488 -0.1448414 1.5047312 -2.435301e+38
6.1024613 -0.15610805 1.5047312 -2.5154713e+38
6.0024381 -0.16570961 1.500255 -2.5818806e+38
6.0024118 -0.17678577 1.500255 -2.5685364e+38
6.0023856 -0.18786193 1.500255 -2.5551922e+38
6.0023594 -0.19893809 1.500255 -2.5550883e+38
6.0023332 -0.21001425 1.500255 -2.5550362e+38
6.0023069 -0.22109042 1.500255 -2.5416918e+38
6.0022807 -0.23216657 1.500255 -2.5150551e+38
6.0022545 -0.24324274 1.500255 -2.5017626e+38
6.1022215 -0.25750774 1.5047312 -2.4884184e+38
6.2051868 -0.27225512 1.5093417 -2.4883665e+38
6.2051597 -0.28371796 1.5093417 -2.4750742e+38
6.2051325 -0.2951808 1.5093417 -2.4618339e+38
6.2051053 -0.30664361 1.5093417 -2.4484377e+38
6.2050781 -0.31810644 1.5093417 -2.4615744e+38
6.2050514 -0.32956928 1.5093417 -2.4749704e+38
6.102035 -0.33637422 1.5047312 -2.4616779e+38
6.1020083 -0.34764087 1.5047312 -2.4484896e+38
6.1019816 -0.35890746 1.5047312 -2.4618341e+38
6.1019549 -0.37017411 1.5047312 -2.4618862e+38
6.1019282 -0.38144076 1.5047312 -2.4884707e+38
6.1019015 -0.39270741 1.5047312 -2.5151074e+38
6.0018878 -0.39830893 1.500255 -2.5416403e+38
6.0018616 -0.40938509 1.500255 -2.554933e+38
5.905849 -0.41465712 1.4959579 -2.5948623e+38
5.9058232 -0.42555046 1.4959579 -2.6213935e+38
5.9057975 -0.43644375 1.4959579 -2.6609574e+38
5.8127861 -0.44118279 1.4917949 -2.6881679e+38
6.0025692 -0.11032881 1.4891788 nan
6.002543 -0.12140498 1.4891788 nan
6.0025167 -0.13248113 1.4891788 -2.9539064e+38
6.102488 -0.1448414 1.4934645 -2.3953203e+38
6.1024613 -0.15610805 1.4934645 -2.4887829e+38
6.0024381 -0.16570961 1.4891788 -2.5819329e+38
6.0024118 -0.17678577 1.4891788 -2.5685887e+38
6.0023856 -0.18786193 1.4891788 -2.5551926e+38
6.0023594 -0.19893809 1.4891788 -2.5550885e+38
6.0023332 -0.21001425 1.4891788 -2.5549845e+38
6.0023069 -0.22109042 1.4891788 -2.5416918e+38
6.0022807 -0.23216657 1.4891788 -2.5282955e+38
6.0022545 -0.24324274 1.4891788 -2.515003e+38
6.1022215 -0.25750774 1.4934645 -2.514951e+38
6.1021948 -0.26877439 1.4934645 -2.4883663e+38
6.2051597 -0.28371796 1.4978788 -2.475074e+38
6.2051325 -0.2951808 1.4978788 -2.4617817e+38
6.2051053 -0.30664361 1.4978788 -2.46173e+38
6.2050781 -0.31810644 1.4978788 -2.4617302e+38
6.2050514 -0.32956928 1.4978788 -2.4750744e+38
6.102035 -0.33637422 1.4934645 -2.4617819e+38
6.1020083 -0.34764087 1.4934645 -2.4618341e+38
6.1019816 -0.35890746 1.4934645 -2.4751265e+38
6.1019549 -0.37017411 1.4934645 -2.4751787e+38
6.0019403 -0.37615663 1.4891788 -2.5017632e+38
6.001914 -0.38723278 1.4891788 -2.5150557e+38
6.0018878 -0.39830893 1.4891788 -2.5416403e+38
6.0018616 -0.40938509 1.4891788 -2.554933e+38
6.0018353 -0.4204613 1.4891788 -2.5549853e+38
5.9058232 -0.42555046 1.4850645 -2.5549835e+38
5.9057975 -0.43644375 1.4850645 -2.6870215e+38
6.1025677 -0.1110415 1.4821979 nan
6.102541 -0.12230814 1.4821979 nan
6.1025147 -0.13357478 1.4821979 -2.9793975e+38
6.102488 -0.1448414 1.4821979 -2.3418902e+38
6.1024613 -0.15610805 1.4821979 -2.4623543e+38
6.0024381 -0.16570961 1.4781026 -2.581881e+38
6.0024118 -0.17678577 1.4781026 -2.5685887e+38
6.0023856 -0.18786193 1.4781026 -2.5419003e+38
6.0023594 -0.19893809 1.4781026 -2.5550887e+38
6.0023332 -0.21001425 1.4781026 -2.5550364e+38
6.0023069 -0.22109042 1.4781026 -2.555036e+38
6.0022807 -0.23216657 1.4781026 -2.5416397e+38
6.1022482 -0.24624112 1.4821979 -2.5416395e+38
6.1022215 -0.25750774 1.4821979 -2.5282433e+38
6.2051868 -0.27225512 1.4864159 -2.5016586e+38
6.2051597 -0.28371796 1.4864159 -2.475074e+38
6.2051325 -0.2951808 1.4864159 -2.4750221e+38
6.2051053 -0.30664361 1.4864159 -2.4617298e+38
6.2050781 -0.31810644 1.4864159 -2.46173e+38
6.2050514 -0.32956928 1.4864159 -2.46173e+38
6.102035 -0.33637422 1.4821979 -2.4750223e+38
6.1020083 -0.34764087 1.4821979 -2.4750744e+38
6.1019816 -0.35890746 1.4821979 -2.4883669e+38
6.0019665 -0.36508048 1.4781026 -2.488419e+38
6.0019403 -0.37615663 1.4781026 -2.5017636e+38
6.1019015 -0.39270741 1.4821979 -2.5150042e+38
6.0018878 -0.39830893 1.4781026 -2.541589e+38
6.0018616 -0.40938509 1.4781026 -2.5549334e+38
6.0018353 -0.4204613 1.4781026 -2.5284009e+38
6.0018096 -0.43153745 1.4781026 -2.4879511e+38
6.002543 -0.12140498 1.4670264 nan
6.0025167 -0.13248113 1.4670264 -3.139992e+38
6.102488 -0.1448414 1.4709312 -2.4343114e+38
6.1024613 -0.15610805 1.4709312 -2.515108e+38
6.0024381 -0.16570961 1.4670264 -2.6082578e+38
6.0024118 -0.17678577 1.4670264 -2.581725e+38
6.0023856 -0.18786193 1.4670264 -2.5550887e+38
6.0023594 -0.19893809 1.4670264 -2.555037e+38
6.0023332 -0.21001425 1.4670264 -2.5549325e+38
6.0023069 -0.22109042 1.4670264 -2.5416397e+38
6.0022807 -0.23216657 1.4670264 -2.5415877e+38
6.1022482 -0.24624112 1.4709312 -2.5282953e+38
6.1022215 -0.25750774 1.4709312 -2.5281914e+38
6.2051868 -0.27225512 1.4749531 -2.4883663e+38
6.2051597 -0.28371796 1.4749531 -2.4617817e+38
6.2051325 -0.2951808 1.4749531 -2.4617815e+38
6.2051053 -0.30664361 1.4749531 -2.4617298e+38
6.2050781 -0.31810644 1.4749531 -2.4617298e+38
6.2050514 -0.32956928 1.4749531 -2.46173e+38
6.102035 -0.33637422 1.4709312 -2.4616781e+38
6.1020083 -0.34764087 1.4709312 -2.4750225e+38
6.1019816 -0.35890746 1.4709312 -2.4750744e+38
6.1019549 -0.37017411 1.4709312 -2.4884192e+38
6.0019403 -0.37615663 1.4670264 -2.5017119e+38
6.001914 -0.38723278 1.4670264 -2.5149527e+38
6.0018878 -0.39830893 1.4670264 -2.5282971e+38
6.0018616 -0.40938509 1.4670264 -2.5416934e+38
6.0018353 -0.4204613 1.4670264 -2.5016089e+38
6.0018096 -0.43153745 1.4670264 -2.4747109e+38
5.9057975 -0.43644375 1.4632778 -2.8203603e+38
6.102541 -0.12230814 1.4596645 nan
6.1025147 -0.13357478 1.4596645 -3.3123286e+38
6.102488 -0.1448414 1.4596645 -2.5143263e+38
6.1024613 -0.15610805 1.4596645 -2.5687954e+38
6.1024346 -0.16737469 1.4596645 -2.6216536e+38
6.1024079 -0.17864132 1.4596645 -2.5950177e+38
6.1023812 -0.18990797 1.4596645 -2.5550372e+38
6.1023545 -0.20117459 1.4596645 -2.5549336e+38
6.1023278 -0.21244122 1.4596645 -2.554881e+38
6.1023011 -0.22370787 1.4596645 -2.5415883e+38
6.1022749 -0.23497449 1.4596645 -2.5282957e+38
6.1022482 -0.24624112 1.4596645 -2.5282435e+38
6.205214 -0.26079232 1.4634902 -2.514951e+38
6.2051868 -0.27225512 1.4634902 -2.4883663e+38
6.2051597 -0.28371796 1.4634902 -2.4484892e+38
6.2051325 -0.2951808 1.4634902 -2.4617813e+38
6.2051053 -0.30664361 1.4634902 -2.4617296e+38
6.2050781 -0.31810644 1.4634902 -2.4617298e+38
6.1020617 -0.32510757 1.4596645 -2.4616779e+38
6.102035 -0.33637422 1.4596645 -2.461574e+38
6.0020189 -0.34292817 1.4559503 -2.4616781e+38
6.0019927 -0.35400432 1.4559503 -2.4750744e+38
6.0019665 -0.36508048 1.4559503 -2.4750748e+38
6.0019403 -0.37615663 1.4559503 -2.4883156e+38
6.001914 -0.38723278 1.4559503 -2.50166e+38
6.0018878 -0.39830893 1.4559503 -2.5149527e+38
6.0018616 -0.40938509 1.4559503 -2.5282452e+38
6.0018353 -0.4204613 1.4559503 -2.4882647e+38
6.0018096 -0.43153745 1.4559503 -2.4483347e+38
5.9057975 -0.43644375 1.4523845 -2.9138229e+38
6.002543 -0.12140498 1.444874 nan
6.0025167 -0.13248113 1.444874 nan
6.102488 -0.1448414 1.4483979 -2.6457969e+38
6.1024613 -0.15610805 1.4483979 -2.620925e+38
6.1024346 -0.16737469 1.4483979 -2.5816725e+38
6.1024079 -0.17864132 1.4483979 -2.5684333e+38
6.0023856 -0.18786193 1.444874 -2.5549855e+38
6.1023545 -0.20117459 1.4483979 -2.5549338e+38
6.1023278 -0.21244122 1.4483979 -2.5548295e+38
6.1023011 -0.22370787 1.4483979 -2.5415887e+38
6.1022749 -0.23497449 1.4483979 -2.5282441e+38
6.2052412 -0.24932949 1.4520273 -2.5150032e+38
6.205214 -0.26079232 1.4520273 -2.5017107e+38
6.2051868 -0.27225512 1.4520273 -2.4883661e+38
6.2051597 -0.28371796 1.4520273 -2.4750736e+38
6.2051325 -0.2951808 1.4520273 -2.4750215e+38
6.2051053 -0.30664361 1.4520273 -2.4882101e+38
6.2050781 -0.31810644 1.4520273 -2.4882103e+38
6.1020617 -0.32510757 1.4483979 -2.5014507e+38
6.102035 -0.33637422 1.4483979 -2.4882103e+38
6.0020189 -0.34292817 1.444874 -2.4882624e+38
6.1019816 -0.35890746 1.4483979 -2.4749704e+38
6.0019665 -0.36508048 1.444874 -2.4750227e+38
6.0019403 -0.37615663 1.444874 -2.4750229e+38
6.001914 -0.38723278 1.444874 -2.4750752e+38
6.0018878 -0.39830893 1.444874 -2.4883679e+38
6.0018616 -0.40938509 1.444874 -2.5016606e+38
6.0018353 -0.4204613 1.444874 -2.4748685e+38
6.0018096 -0.43153745 1.444874 -2.4481795e+38
5.9057975 -0.43644375 1.4414911 -3.021045e+38
6.1025147 -0.13357478 1.4371312 nan
6.102488 -0.1448414 1.4371312 -2.7807449e+38
6.1024613 -0.15610805 1.4371312 -2.6608534e+38
6.1024346 -0.16737469 1.4371312 -2.5417952e+38
6.1024079 -0.17864132 1.4371312 -2.5552447e+38
6.1023812 -0.18990797 1.4371312 -2.555141e+38
6.1023545 -0.20117459 1.4371312 -2.5549855e+38
6.1023278 -0.21244122 1.4371312 -2.5416407e+38
6.1023011 -0.22370787 1.4371312 -2.5282961e+38
6.1022749 -0.23497449 1.4371312 -2.5150555e+38
6.1022482 -0.24624112 1.4371312 -2.5018669e+38
6.205214 -0.26079232 1.4405645 -2.4884184e+38
6.2051868 -0.27225512 1.4405645 -2.5016586e+38
6.2051597 -0.28371796 1.4405645 -2.5016062e+38
6.2051325 -0.2951808 1.4405645 -2.5015541e+38
6.2051053 -0.30664361 1.4405645 -2.5015022e+38
6.2050781 -0.31810644 1.4405645 -2.5147425e+38
6.1020617 -0.32510757 1.4371312 -2.528035e+38
6.102035 -0.33637422 1.4371312 -2.5147432e+38
6.0020189 -0.34292817 1.4337978 -2.5014509e+38
6.1019816 -0.35890746 1.4371312 -2.4881588e+38
6.0019665 -0.36508048 1.4337978 -2.4616783e+38
6.1019282 -0.38144076 1.4371312 -2.4484379e+38
6.001914 -0.38723278 1.4337978 -2.435198e+38
6.1018748 -0.40397406 1.4371312 -2.4618347e+38
6.1018486 -0.41524065 1.4371312 -2.4749708e+38
6.1018219 -0.42650729 1.4371312 -2.4614185e+38
6.0018096 -0.43153745 1.4337978 -2.4355105e+38
5.9057975 -0.43644375 1.4305978 -3.1155475e+38
6.205512 -0.13470122 1.4291017 nan
6.2054849 -0.14616406 1.4291017 -3.20615e+38
6.1024613 -0.15610805 1.4258645 -2.8606006e+38
6.1024346 -0.16737469 1.4258645 -2.5023855e+38
6.1024079 -0.17864132 1.4258645 -2.5154713e+38
6.1023812 -0.18990797 1.4258645 -2.5419522e+38
6.1023545 -0.20117459 1.4258645 -2.5152121e+38
6.1023278 -0.21244122 1.4258645 -2.5018156e+38
6.2052951 -0.22640383 1.4291017 -2.501763e+38
6.2052679 -0.23786667 1.4291017 -2.5017111e+38
6.2052412 -0.24932949 1.4291017 -2.5017111e+38
6.205214 -0.26079232 1.4291017 -2.501659e+38
6.2051868 -0.27225512 1.4291017 -2.5016586e+38
6.2051597 -0.28371796 1.4291017 -2.4883142e+38
6.2051325 -0.2951808 1.4291017 -2.4884176e+38
6.2051053 -0.30664361 1.4291017 -2.5015539e+38
6.2050781 -0.31810644 1.4291017 -2.5015018e+38
6.1020617 -0.32510757 1.4258645 -2.5014505e+38
6.102035 -0.33637422 1.4258645 -2.4881067e+38
6.0020189 -0.34292817 1.4227216 -2.4881069e+38
6.1019816 -0.35890746 1.4258645 -2.4615742e+38
6.1019549 -0.37017411 1.4258645 -2.4483858e+38
6.1019282 -0.38144076 1.4258645 -2.4616779e+38
6.1019015 -0.39270741 1.4258645 -2.4616781e+38
6.1018748 -0.40397406 1.4258645 -2.4882628e+38
6.1018486 -0.41524065 1.4258645 -2.5015541e+38
6.1018219 -0.42650729 1.4258645 -2.4348319e+38
6.0018096 -0.43153745 1.4227216 -2.3814072e+38
5.9057975 -0.43644375 1.4197044 -3.141771e+38
5.9057717 -0.44733703 1.4197044 nan
6.1025147 -0.13357478 1.4145979 nan
6.102488 -0.1448414 1.4145979 nan
6.2054577 -0.15762688 1.4176388 -3.0464863e+38
6.1024346 -0.16737469 1.4145979 -2.4619902e+38
6.1024079 -0.17864132 1.4145979 -2.4887833e+38
6.1023812 -0.18990797 1.4145979 -2.5153157e+38
6.1023545 -0.20117459 1.4145979 -2.488679e+38
6.1023278 -0.21244122 1.4145979 -2.4619385e+38
6.2052951 -0.22640383 1.4176388 -2.4752308e+38
6.2052679 -0.23786667 1.4176388 -2.4751267e+38
6.2052412 -0.24932949 1.4176388 -2.5016594e+38
6.205214 -0.26079232 1.4176388 -2.5148989e+38
6.2051868 -0.27225512 1.4176388 -2.5016578e+38
6.2051597 -0.28371796 1.4176388 -2.4755417e+38
6.2051325 -0.2951808 1.4176388 -2.4887835e+38
6.2051053 -0.30664361 1.4176388 -2.4883671e+38
6.102088 -0.31384096 1.4145979 -2.4882622e+38
6.1020617 -0.32510757 1.4145979 -2.4748663e+38
6.102035 -0.33637422 1.4145979 -2.4747629e+38
6.0020189 -0.34292817 1.4116454 -2.4615225e+38
6.0019927 -0.35400432 1.4116454 -2.4482302e+38
6.0019665 -0.36508048 1.4116454 -2.4349897e+38
6.0019403 -0.37615663 1.4116454 -2.4615742e+38
6.001914 -0.38723278 1.4116454 -2.4882105e+38
6.1018748 -0.40397406 1.4145979 -2.5147432e+38
6.1018486 -0.41524065 1.4145979 -2.528033e+38
6.1018219 -0.42650729 1.4145979 -2.4214329e+38
6.0018096 -0.43153745 1.4116454 -2.3158778e+38
5.9057975 -0.43644375 1.4088112 -3.1692879e+38
6.102488 -0.1448414 1.4033312 nan
6.2054577 -0.15762688 1.406176 -2.9937859e+38
6.205431 -0.1690897 1.406176 -2.3286529e+38
6.2054038 -0.18055253 1.406176 -2.4088221e+38
6.1023812 -0.18990797 1.4033312 -2.5019715e+38
6.1023545 -0.20117459 1.4033312 -2.4752825e+38
6.1023278 -0.21244122 1.4033312 -2.4618347e+38
6.2052951 -0.22640383 1.406176 -2.4485426e+38
6.2052679 -0.23786667 1.406176 -2.4351982e+38
6.2052412 -0.24932949 1.406176 -2.4218538e+38
6.1022215 -0.25750774 1.4033312 -2.3951122e+38
6.2051868 -0.27225512 1.406176 -2.5950664e+38
6.1021681 -0.28004104 1.4033312 -2.7823034e+38
6.2051325 -0.2951808 1.406176 -2.7018776e+38
6.2051053 -0.30664361 1.406176 -2.6210836e+38
6.102088 -0.31384096 1.4033312 -2.5679127e+38
6.1020617 -0.32510757 1.4033312 -2.5146918e+38
6.102035 -0.33637422 1.4033312 -2.4881073e+38
6.0020189 -0.34292817 1.4005692 -2.4615746e+38
6.1019816 -0.35890746 1.4033312 -2.4482302e+38
6.0019665 -0.36508048 1.4005692 -2.434938e+38
6.0019403 -0.37615663 1.4005692 -2.448282e+38
6.001914 -0.38723278 1.4005692 -2.4482818e+38
6.1018748 -0.40397406 1.4033312 -2.4882101e+38
6.1018486 -0.41524065 1.4033312 -2.5281871e+38
6.1018219 -0.42650729 1.4033312 -2.5011316e+38
6.1017952 -0.43777394 1.4033312 -2.4876882e+38
6.2054849 -0.14616406 1.394713 nan
6.2054577 -0.15762688 1.394713 -2.9526582e+38
6.205431 -0.1690897 1.394713 -2.1824351e+38
6.2054038 -0.18055253 1.394713 -2.3292238e+38
6.1023812 -0.18990797 1.3920645 -2.4753346e+38
6.1023545 -0.20117459 1.3920645 -2.4618345e+38
6.1023278 -0.21244122 1.3920645 -2.4485424e+38
6.2052951 -0.22640383 1.394713 -2.4219061e+38
6.2052679 -0.23786667 1.394713 -2.3953213e+38
6.1022482 -0.24624112 1.3920645 -2.3421522e+38
6.1022215 -0.25750774 1.3920645 -2.2756383e+38
6.2051868 -0.27225512 1.394713 -2.687958e+38
6.2051597 -0.28371796 1.394713 -3.0876618e+38
6.2051325 -0.2951808 1.394713 -2.9152262e+38
6.2051053 -0.30664361 1.394713 -2.7410756e+38
6.102088 -0.31384096 1.3920645 -2.6475096e+38
6.1020617 -0.32510757 1.3920645 -2.554464e+38
6.102035 -0.33637422 1.3920645 -2.5014513e+38
6.0020189 -0.34292817 1.3894931 -2.44823e+38
6.0019927 -0.35400432 1.3894931 -2.4481779e+38
6.0019665 -0.36508048 1.3894931 -2.4349378e+38
6.0019403 -0.37615663 1.3894931 -2.4216976e+38
6.001914 -0.38723278 1.3894931 -2.408457e+38
6.1018748 -0.40397406 1.3920645 -2.4616781e+38
6.1018486 -0.41524065 1.3920645 -2.5146373e+38
6.1018219 -0.42650729 1.3920645 -2.5938697e+38
6.2054849 -0.14616406 1.3832502 nan
6.2054577 -0.15762688 1.3832502 -2.9804323e+38
6.205431 -0.1690897 1.3832502 -2.3021151e+38
6.2054038 -0.18055253 1.3832502 -2.3954769e+38
6.1023812 -0.18990797 1.3807979 -2.4885748e+38
6.1023545 -0.20117459 1.3807979 -2.4485422e+38
6.1023278 -0.21244122 1.3807979 -2.4219059e+38
6.2052951 -0.22640383 1.3832502 -2.4086136e+38
6.1022749 -0.23497449 1.3807979 -2.4086136e+38
6.1022482 -0.24624112 1.3807979 -2.3287042e+38
6.205214 -0.26079232 1.3832502 -2.2620872e+38
6.2051868 -0.27225512 1.3832502 -2.7146997e+38
6.1021681 -0.28004104 1.3807979 -3.1676743e+38
6.2051325 -0.2951808 1.3832502 -3.0611789e+38
6.2051053 -0.30664361 1.3832502 -2.9531791e+38
6.102088 -0.31384096 1.3807979 -2.7004698e+38
6.1020617 -0.32510757 1.3807979 -2.4345733e+38
6.102035 -0.33637422 1.3807979 -2.4348339e+38
6.0020189 -0.34292817 1.3784169 -2.4348856e+38
6.0019927 -0.35400432 1.3784169 -2.4216449e+38
6.0019665 -0.36508048 1.3784169 -2.4216972e+38
6.0019403 -0.37615663 1.3784169 -2.4084053e+38
6.001914 -0.38723278 1.3784169 -2.4084574e+38
6.1018748 -0.40397406 1.3807979 -2.4350422e+38
6.1018486 -0.41524065 1.3807979 -2.44823e+38
6.205431 -0.1690897 1.3717873 -2.4082459e+38
6.2054038 -0.18055253 1.3717873 -2.4487497e+38
6.2053766 -0.19201535 1.3717873 -2.4884707e+38
6.2053494 -0.20347819 1.3717873 -2.4484901e+38
6.2053223 -0.21494101 1.3717873 -2.3953211e+38
6.2052951 -0.22640383 1.3717873 -2.4086134e+38
6.1022749 -0.23497449 1.3695312 -2.4085617e+38
6.1022482 -0.24624112 1.3695312 -2.3286005e+38
6.1022215 -0.25750774 1.3695312 -2.2488988e+38
6.2051868 -0.27225512 1.3717873 -2.7542652e+38
6.2051597 -0.28371796 1.3717873 -3.2474805e+38
6.2051325 -0.2951808 1.3717873 -3.2085894e+38
6.2051053 -0.30664361 1.3717873 -3.1669468e+38
6.2050781 -0.31810644 1.3717873 -2.7399319e+38
6.1020617 -0.32510757 1.3695312 -2.314943e+38
6.102035 -0.33637422 1.3695312 -2.3684244e+38
6.0020189 -0.34292817 1.3673407 -2.408353e+38
6.0019927 -0.35400432 1.3673407 -2.4084047e+38
6.0019665 -0.36508048 1.3673407 -2.3951128e+38
6.0019403 -0.37615663 1.3673407 -2.4083536e+38
6.001914 -0.38723278 1.3673407 -2.4084576e+38
6.0018878 -0.39830893 1.3673407 -2.3951658e+38
6.1018486 -0.41524065 1.3695312 -2.381821e+38
6.205512 -0.13470122 1.3603245 nan
6.2054577 -0.15762688 1.3603245 -2.9934664e+38
6.205431 -0.1690897 1.3603245 -2.4474999e+38
6.2054038 -0.18055253 1.3603245 -2.4748665e+38
6.2053766 -0.19201535 1.3603245 -2.5147955e+38
6.2053494 -0.20347819 1.3603245 -2.4750744e+38
6.2053223 -0.21494101 1.3603245 -2.4484901e+38
6.2052951 -0.22640383 1.3603245 -2.4351978e+38
6.1022749 -0.23497449 1.3582644 -2.4351463e+38
6.1022482 -0.24624112 1.3582644 -2.3685814e+38
6.205214 -0.26079232 1.3603245 -2.3152565e+38
6.2051868 -0.27225512 1.3603245 -2.7947651e+38
6.2051597 -0.28371796 1.3603245 -3.2612407e+38
6.3111234 -0.29916671 1.3624445 -3.2480518e+38
6.2051053 -0.30664361 1.3603245 -3.2343955e+38
6.2050781 -0.31810644 1.3603245 -2.7672957e+38
6.1020617 -0.32510757 1.3582644 -2.301599e+38
6.102035 -0.33637422 1.3582644 -2.35508e+38
6.1020083 -0.34764087 1.3582644 -2.4216972e+38
6.0019927 -0.35400432 1.3562645 -2.4084047e+38
6.0019665 -0.36508048 1.3562645 -2.4083532e+38
6.0019403 -0.37615663 1.3562645 -2.4084055e+38
6.001914 -0.38723278 1.3562645 -2.4217501e+38
6.0018878 -0.39830893 1.3562645 -2.3817699e+38
6.0018616 -0.40938509 1.3562645 -2.341737e+38
6.205512 -0.13470122 1.3488617 nan
6.2054849 -0.14616406 1.3488617 nan
6.2054577 -0.15762688 1.3488617 -2.992586e+38
6.205431 -0.1690897 1.3488617 -2.4743451e+38
6.2054038 -0.18055253 1.3488617 -2.5017109e+38
6.2053766 -0.19201535 1.3488617 -2.5282435e+38
6.2053494 -0.20347819 1.3488617 -2.5150551e+38
6.1023278 -0.21244122 1.3469979 -2.5017109e+38
6.1023011 -0.22370787 1.3469979 -2.4750746e+38
6.1022749 -0.23497449 1.3469979 -2.4484385e+38
6.1022482 -0.24624112 1.3469979 -2.4218546e+38
6.1022215 -0.25750774 1.3469979 -2.3822372e+38
6.2051868 -0.27225512 1.3488617 -2.8350572e+38
6.2051597 -0.28371796 1.3488617 -3.274377e+38
6.2051325 -0.2951808 1.3488617 -3.2879285e+38
6.2051053 -0.30664361 1.3488617 -3.2868363e+38
6.2050781 -0.31810644 1.3488617 -2.7933066e+38
6.1020617 -0.32510757 1.3469979 -2.2884091e+38
6.102035 -0.33637422 1.3469979 -2.3552354e+38
6.1020083 -0.34764087 1.3469979 -2.4216966e+38
6.1019816 -0.35890746 1.3469979 -2.4216966e+38
6.0019665 -0.36508048 1.3451883 -2.4083526e+38
6.0019403 -0.37615663 1.3451883 -2.4216453e+38
6.001914 -0.38723278 1.3451883 -2.4216461e+38
6.0018878 -0.39830893 1.3451883 -2.3684259e+38
6.1018486 -0.41524065 1.3469979 -2.3019638e+38
6.1025147 -0.13357478 1.3357311 nan
6.102488 -0.1448414 1.3357311 -2.9962267e+38
6.2054577 -0.15762688 1.3373988 -2.7807942e+38
6.205431 -0.1690897 1.3373988 -2.580373e+38
6.1024079 -0.17864132 1.3357311 -2.5545687e+38
6.1023812 -0.18990797 1.3357311 -2.5414839e+38
6.1023545 -0.20117459 1.3357311 -2.5282433e+38
6.1023278 -0.21244122 1.3357311 -2.5149513e+38
6.1023011 -0.22370787 1.3357311 -2.488315e+38
6.1022749 -0.23497449 1.3357311 -2.461731e+38
6.2052412 -0.24932949 1.3373988 -2.4085623e+38
6.205214 -0.26079232 1.3373988 -2.3554966e+38
6.2051868 -0.27225512 1.3373988 -2.7682838e+38
6.2051597 -0.28371796 1.3373988 -3.1815383e+38
6.2051325 -0.2951808 1.3373988 -3.154486e+38
6.3110957 -0.31083143 1.339115 -3.1272756e+38
6.3110681 -0.32249618 1.339115 -2.727258e+38
6.2050514 -0.32956928 1.3373988 -2.3282324e+38
6.102035 -0.33637422 1.3357311 -2.3816636e+38
6.1020083 -0.34764087 1.3357311 -2.4348846e+38
6.1019816 -0.35890746 1.3357311 -2.4348846e+38
6.0019665 -0.36508048 1.3341122 -2.4348329e+38
6.0019403 -0.37615663 1.3341122 -2.4348848e+38
6.001914 -0.38723278 1.3341122 -2.4216457e+38
6.0018878 -0.39830893 1.3341122 -2.3417894e+38
6.0018616 -0.40938509 1.3341122 -2.2618791e+38
6.205512 -0.13470122 1.325936 nan
6.2054849 -0.14616406 1.325936 -2.4890409e+38
6.2054577 -0.15762688 1.325936 -2.5806281e+38
6.205431 -0.1690897 1.325936 -2.6739885e+38
6.1024079 -0.17864132 1.3244644 -2.6213414e+38
6.1023812 -0.18990797 1.3244644 -2.5548279e+38
6.1023545 -0.20117459 1.3244644 -2.5414835e+38
6.1023278 -0.21244122 1.3244644 -2.5148991e+38
6.1023011 -0.22370787 1.3244644 -2.5015549e+38
6.1022749 -0.23497449 1.3244644 -2.474971e+38
6.1022482 -0.24624112 1.3244644 -2.3952179e+38
6.205214 -0.26079232 1.325936 -2.315464e+38
6.2051868 -0.27225512 1.325936 -2.7010438e+38
6.2051597 -0.28371796 1.325936 -3.074473e+38
6.2051325 -0.2951808 1.325936 -3.0212513e+38
6.3110957 -0.31083143 1.3274502 -2.954062e+38
6.3110681 -0.32249618 1.3274502 -2.6602289e+38
6.2050514 -0.32956928 1.325936 -2.3547671e+38
6.2050242 -0.34103209 1.325936 -2.3949565e+38
6.1020083 -0.34764087 1.3244644 -2.4348331e+38
6.1019816 -0.35890746 1.3244644 -2.4481252e+38
6.1019549 -0.37017411 1.3244644 -2.4614175e+38
6.1019282 -0.38144076 1.3244644 -2.4481254e+38
6.1019015 -0.39270741 1.3244644 -2.421594e+38
6.0018878 -0.39830893 1.323036 -2.3284454e+38
6.0018616 -0.40938509 1.323036 -2.2223659e+38
6.205512 -0.13470122 1.314473 nan
6.2054849 -0.14616406 1.314473 -2.9258666e+38
6.2054577 -0.15762688 1.314473 -2.7003594e+38
6.205431 -0.1690897 1.314473 -2.4749661e+38
6.1024079 -0.17864132 1.3131979 -2.5016066e+38
6.1023812 -0.18990797 1.3131979 -2.5414835e+38
6.2053494 -0.20347819 1.314473 -2.5281391e+38
6.1023278 -0.21244122 1.3131979 -2.5148468e+38
6.1023011 -0.22370787 1.3131979 -2.5015545e+38
6.1022749 -0.23497449 1.3131979 -2.5015553e+38
6.1022482 -0.24624112 1.3131979 -2.4616272e+38
6.1022215 -0.25750774 1.3131979 -2.4215946e+38
6.2051868 -0.27225512 1.314473 -2.7680763e+38
6.2051597 -0.28371796 1.314473 -3.1281613e+38
6.2051325 -0.2951808 1.314473 -3.0745239e+38
6.3110957 -0.31083143 1.3157854 -3.0207327e+38
6.2050781 -0.31810644 1.314473 -2.7005765e+38
6.2050514 -0.32956928 1.314473 -2.394594e+38
6.102035 -0.33637422 1.3131979 -2.4214897e+38
6.2049971 -0.35249496 1.314473 -2.4481258e+38
6.1019816 -0.35890746 1.3131979 -2.4481252e+38
6.1019549 -0.37017411 1.3131979 -2.4614177e+38
6.1019282 -0.38144076 1.3131979 -2.434885e+38
6.1019015 -0.39270741 1.3131979 -2.4083536e+38
6.0018878 -0.39830893 1.3119597 -2.2885166e+38
6.0018616 -0.40938509 1.3119597 -2.1551776e+38
6.205512 -0.13470122 1.3030102 nan
6.2054849 -0.14616406 1.3030102 -3.353195e+38
6.2054577 -0.15762688 1.3030102 -2.8199932e+38
6.205431 -0.1690897 1.3030102 -2.2751681e+38
6.2054038 -0.18055253 1.3030102 -2.3951128e+38
6.1023812 -0.18990797 1.3019311 -2.5147951e+38
6.1023545 -0.20117459 1.3019311 -2.5147432e+38
6.1023278 -0.21244122 1.3019311 -2.5015547e+38
6.1023011 -0.22370787 1.3019311 -2.5148468e+38
6.1022749 -0.23497449 1.3019311 -2.5281395e+38
6.1022482 -0.24624112 1.3019311 -2.5280362e+38
6.205214 -0.26079232 1.3030102 -2.5149515e+38
6.2051868 -0.27225512 1.3030102 -2.8480892e+38
6.2051597 -0.28371796 1.3030102 -3.1677787e+38
6.2051325 -0.2951808 1.3030102 -3.1279015e+38
6.3110957 -0.31083143 1.3041207 -3.0736424e+38
6.2050781 -0.31810644 1.3030102 -2.7533821e+38
6.2050514 -0.32956928 1.3030102 -2.4214382e+38
6.2050242 -0.34103209 1.3030102 -2.4349378e+38
6.2049971 -0.35249496 1.3030102 -2.4482296e+38
6.1019816 -0.35890746 1.3019311 -2.4481771e+38
6.1019549 -0.37017411 1.3019311 -2.4481773e+38
6.1019282 -0.38144076 1.3019311 -2.4216449e+38
6.1019015 -0.39270741 1.3019311 -2.3950613e+38
6.1018748 -0.40397406 1.3019311 -2.2487434e+38
6.1018486 -0.41524065 1.3019311 -2.0894949e+38
6.205512 -0.13470122 1.2915473 nan
6.2054849 -0.14616406 1.2915473 -3.1416635e+38
6.2054577 -0.15762688 1.2915473 -2.7673466e+38
6.205431 -0.1690897 1.2915473 -2.4075214e+38
6.2054038 -0.18055253 1.2915473 -2.4614185e+38
6.1023812 -0.18990797 1.2906644 -2.5280876e+38
6.0023594 -0.19893809 1.2898073 -2.5148472e+38
6.0023332 -0.21001425 1.2898073 -2.514847e+38
6.1023011 -0.22370787 1.2906644 -2.5148468e+38
6.0022807 -0.23216657 1.2898073 -2.5281393e+38
6.1022482 -0.24624112 1.2906644 -2.5147953e+38
6.1022215 -0.25750774 1.2906644 -2.5013992e+38
6.2051868 -0.27225512 1.2915473 -2.8346408e+38
6.2051597 -0.28371796 1.2915473 -3.1682462e+38
6.3111234 -0.29916671 1.2924559 -3.0079602e+38
6.2051053 -0.30664361 1.2915473 -2.8341741e+38
6.3110681 -0.32249618 1.2924559 -2.6342187e+38
6.2050514 -0.32956928 1.2915473 -2.435042e+38
6.2050242 -0.34103209 1.2915473 -2.4350416e+38
6.2049971 -0.35249496 1.2915473 -2.4483335e+38
6.1019816 -0.35890746 1.2906644 -2.4482809e+38
6.1019549 -0.37017411 1.2906644 -2.4482292e+38
6.1019282 -0.38144076 1.2906644 -2.435041e+38
6.1019015 -0.39270741 1.2906644 -2.4217497e+38
6.1018748 -0.40397406 1.2906644 -2.3154123e+38
6.1018486 -0.41524065 1.2906644 -2.209229e+38
6.205512 -0.13470122 1.2800845 nan
6.2054849 -0.14616406 1.2800845 -2.9150191e+38
6.2054577 -0.15762688 1.2800845 -2.7267432e+38
6.205431 -0.1690897 1.2800845 -2.5409638e+38
6.2054038 -0.18055253 1.2800845 -2.5415881e+38
6.1023812 -0.18990797 1.2793978 -2.5281918e+38
6.1023545 -0.20117459 1.2793978 -2.5281918e+38
6.0023332 -0.21001425 1.2787311 -2.5148993e+38
6.0023069 -0.22109042 1.2787311 -2.5148991e+38
6.0022807 -0.23216657 1.2787311 -2.5148993e+38
6.1022482 -0.24624112 1.2793978 -2.5016073e+38
6.1022215 -0.25750774 1.2793978 -2.4882633e+38
6.2051868 -0.27225512 1.2800845 -2.8341223e+38
6.2051597 -0.28371796 1.2800845 -3.1675189e+38
6.2051325 -0.2951808 1.2800845 -2.8881727e+38
6.2051053 -0.30664361 1.2800845 -2.5947562e+38
6.3110681 -0.32249618 1.2807912 -2.5142241e+38
6.2050514 -0.32956928 1.2800845 -2.4348856e+38
6.2050242 -0.34103209 1.2800845 -2.4350412e+38
6.2049971 -0.35249496 1.2800845 -2.435041e+38
6.1019816 -0.35890746 1.2793978 -2.4349891e+38
6.1019549 -0.37017411 1.2793978 -2.435041e+38
6.1019282 -0.38144076 1.2793978 -2.435145e+38
6.1019015 -0.39270741 1.2793978 -2.4350937e+38
6.1018748 -0.40397406 1.2793978 -2.3818735e+38
6.1018486 -0.41524065 1.2793978 -2.3290137e+38
6.205512 -0.13470122 1.2686217 nan
6.2054849 -0.14616406 1.2686217 -3.2743776e+38
6.2054577 -0.15762688 1.2686217 -2.8470491e+38
6.205431 -0.1690897 1.2686217 -2.4214897e+38
6.2054038 -0.18055253 1.2686217 -2.4750752e+38
6.1023812 -0.18990797 1.2681311 -2.5415366e+38
6.1023545 -0.20117459 1.2681311 -2.5282961e+38
6.0023332 -0.21001425 1.267655 -2.5150036e+38
6.1023011 -0.22370787 1.2681311 -2.5148993e+38
6.0022807 -0.23216657 1.267655 -2.5148995e+38
6.0022545 -0.24324274 1.267655 -2.4350941e+38
6.1022215 -0.25750774 1.2681311 -2.3684254e+38
6.2051868 -0.27225512 1.2686217 -2.8610191e+38
6.2051597 -0.28371796 1.2686217 -3.3674221e+38
6.2051325 -0.2951808 1.2686217 -3.0080095e+38
6.2051053 -0.30664361 1.2686217 -2.6607493e+38
6.2050781 -0.31810644 1.2686217 -2.5808924e+38
6.1020617 -0.32510757 1.2681311 -2.4881061e+38
6.2050242 -0.34103209 1.2686217 -2.4749176e+38
6.2049971 -0.35249496 1.2686217 -2.4616775e+38
6.1019816 -0.35890746 1.2681311 -2.4483854e+38
6.1019549 -0.37017411 1.2681311 -2.435145e+38
6.1019282 -0.38144076 1.2681311 -2.4484373e+38
6.001914 -0.38723278 1.267655 -2.4617302e+38
6.1018748 -0.40397406 1.2681311 -2.4084057e+38
6.2054849 -0.14616406 1.2571588 nan
6.2054577 -0.15762688 1.2571588 -2.9654832e+38
6.205431 -0.1690897 1.2571588 -2.2884618e+38
6.2054038 -0.18055253 1.2571588 -2.4221655e+38
6.1023812 -0.18990797 1.2568644 -2.5416403e+38
6.1023545 -0.20117459 1.2568644 -2.528348e+38
6.1023278 -0.21244122 1.2568644 -2.5149515e+38
6.1023011 -0.22370787 1.2568644 -2.5148472e+38
6.0022807 -0.23216657 1.2565788 -2.5015555e+38
6.1022482 -0.24624112 1.2568644 -2.3686333e+38
6.1022215 -0.25750774 1.2568644 -2.2356069e+38
6.2051868 -0.27225512 1.2571588 -2.9006367e+38
6.2051597 -0.28371796 1.2571588 nan
6.2051325 -0.2951808 1.2571588 -3.1422361e+38
6.2051053 -0.30664361 1.2571588 -2.7279387e+38
6.102088 -0.31384096 1.2568644 -2.6339021e+38
6.1020617 -0.32510757 1.2568644 -2.5412214e+38
6.2050242 -0.34103209 1.2571588 -2.5147945e+38
6.2049971 -0.35249496 1.2571588 -2.474918e+38
6.2049699 -0.36395776 1.2571588 -2.4483337e+38
6.1019549 -0.37017411 1.2568644 -2.421853e+38
6.0019403 -0.37615663 1.2565788 -2.46173e+38
6.001914 -0.38723278 1.2565788 -2.4882101e+38
6.1018748 -0.40397406 1.2568644 -2.4214366e+38
6.2054849 -0.14616406 1.2456959 nan
6.2054577 -0.15762688 1.2456959 -2.980279e+38
6.205431 -0.1690897 1.2456959 -2.354922e+38
6.2054038 -0.18055253 1.2456959 -2.4485422e+38
6.1023812 -0.18990797 1.2455978 -2.5416401e+38
6.1023545 -0.20117459 1.2455978 -2.5282959e+38
6.1023278 -0.21244122 1.2455978 -2.5148993e+38
6.1023011 -0.22370787 1.2455978 -2.4882622e+38
6.1022749 -0.23497449 1.2455978 -2.4616787e+38
6.1022482 -0.24624112 1.2455978 -2.3286011e+38
6.1022215 -0.25750774 1.2455978 -2.1953153e+38
6.2051868 -0.27225512 1.2456959 -2.8485584e+38
6.2051597 -0.28371796 1.2456959 nan
6.2051325 -0.2951808 1.2456959 -3.102157e+38
6.2051053 -0.30664361 1.2456959 -2.7140241e+38
6.102088 -0.31384096 1.2455978 -2.6473463e+38
6.1020617 -0.32510757 1.2455978 -2.5812003e+38
6.102035 -0.33637422 1.2455978 -2.5280348e+38
6.0020189 -0.34292817 1.2455026 -2.4882103e+38
6.1019816 -0.35890746 1.2455978 -2.4616781e+38
6.1019549 -0.37017411 1.2455978 -2.4351976e+38
6.0019403 -0.37615663 1.2455026 -2.4750744e+38
6.001914 -0.38723278 1.2455026 -2.5149496e+38
6.1018748 -0.40397406 1.2455978 -2.3414732e+38
6.2054577 -0.15762688 1.234233 -3.0047852e+38
6.205431 -0.1690897 1.234233 -2.4078307e+38
6.2054038 -0.18055253 1.234233 -2.4753866e+38
6.2053766 -0.19201535 1.234233 -2.541692e+38
6.2053494 -0.20347819 1.234233 -2.5282439e+38
6.2053223 -0.21494101 1.234233 -2.501607e+38
6.2052951 -0.22640383 1.234233 -2.4615742e+38
6.1022749 -0.23497449 1.2343311 -2.4217503e+38
6.1022482 -0.24624112 1.2343311 -2.2887766e+38
6.205214 -0.26079232 1.234233 -2.1561136e+38
6.2051868 -0.27225512 1.234233 -2.8086819e+38
6.2051597 -0.28371796 1.234233 nan
6.2051325 -0.2951808 1.234233 -3.0759361e+38
6.2051053 -0.30664361 1.234233 -2.6881685e+38
6.102088 -0.31384096 1.2343311 -2.6470384e+38
6.1020617 -0.32510757 1.2343311 -2.6076309e+38
6.0020452 -0.33185202 1.2344264 -2.5545675e+38
6.0020189 -0.34292817 1.2344264 -2.4882103e+38
6.1019816 -0.35890746 1.2343311 -2.4750223e+38
6.1019549 -0.37017411 1.2343311 -2.4484899e+38
6.0019403 -0.37615663 1.2344264 -2.5016075e+38
6.001914 -0.38723278 1.2344264 -2.5412752e+38
6.1018748 -0.40397406 1.2343311 -2.2612013e+38
6.0018616 -0.40938509 1.2344264 -1.9700775e+38
5.905849 -0.41465712 1.2345178 -3.1047584e+38
6.2054849 -0.14616406 1.2227702 nan
6.2054577 -0.15762688 1.2227702 -3.006549e+38
6.205431 -0.1690897 1.2227702 -2.2880438e+38
