# .PCD v0.7 - Point Cloud Data file format
VERSION 0.7
FIELDS x y z rgb
SIZE 4 4 4 4
TYPE F F F F
COUNT 1 1 1 1
WIDTH 1210
HEIGHT 1
VIEWPOINT 0 0 0 1 0 0 0
POINTS 1210
DATA ascii
1.7929916 -0.54522699 1.6292645 -3.116809e+38
1.7929765 -0.5482803 1.6292645 -3.1034646e+38
1.7859716 -0.54923892 1.6275645 -3.0899647e+38
1.7859566 -0.55227882 1.6275645 -3.0764649e+38
1.7859415 -0.55531883 1.6275645 -3.0761538e+38
1.778937 -0.55622405 1.6258645 -3.0771435e+38
1.778922 -0.55925065 1.6258645 nan
1.7789069 -0.56227732 1.6258645 nan
1.7709041 -0.56281853 1.6239216 nan
1.770889 -0.56582993 1.6239216 nan
1.7708741 -0.56884134 1.6239216 nan
1.7708591 -0.57185274 1.6239216 nan
1.7708442 -0.57486415 1.6239216 nan
1.7638404 -0.57563412 1.6222217 nan
1.7638255 -0.57863218 1.6222217 nan
1.7638106 -0.58163023 1.6222217 nan
1.756807 -0.58234692 1.6205217 nan
1.7567921 -0.58533162 1.6205217 nan
1.7567773 -0.58831638 1.6205217 nan
1.7567625 -0.59130108 1.6205217 -3.3176006e+38
1.7567476 -0.59428579 1.6205217 -3.3036325e+38
1.7567328 -0.59727055 1.6205217 -3.2900245e+38
1.756718 -0.60025525 1.6205217 -3.3026892e+38
1.7567033 -0.60324001 1.6205217 -3.3027943e+38
1.7566884 -0.60622472 1.6205217 -3.2627108e+38
1.7566736 -0.60920942 1.6205217 -3.223043e+38
1.7566588 -0.61219418 1.6205217 -3.2233041e+38
1.7566439 -0.61517888 1.6205217 -3.2100633e+38
1.7566291 -0.61816359 1.6205217 -3.1968745e+38
1.7566143 -0.62114835 1.6205217 -3.1837375e+38
1.7565995 -0.62413305 1.6205217 -3.1971335e+38
1.7565846 -0.62711781 1.6205217 -3.2103219e+38
1.7565699 -0.63010252 1.6205217 -3.2368543e+38
1.7565551 -0.63308722 1.6205217 -3.2500446e+38
1.7565403 -0.63607198 1.6205217 -3.3829175e+38
1.7565254 -0.63905668 1.6205217 nan
1.7565106 -0.64204144 1.6205217 nan
1.7564958 -0.64502615 1.6205217 nan
1.7564809 -0.64801085 1.6205217 nan
1.7564662 -0.65099561 1.6205217 nan
1.7564514 -0.65398031 1.6205217 nan
1.7564366 -0.65696502 1.6205217 nan
1.7564217 -0.65994978 1.6205217 nan
1.7564069 -0.66293448 1.6205217 nan
1.7563921 -0.66591924 1.6205217 nan
1.7563772 -0.66890395 1.6205217 nan
1.7563624 -0.67188865 1.6205217 nan
1.7563477 -0.67487341 1.6205217 nan
1.7633195 -0.68056619 1.6222217 nan
1.7633046 -0.68356419 1.6222217 nan
1.7632898 -0.68656224 1.6222217 nan
1.7632749 -0.68956035 1.6222217 nan
1.7702463 -0.69531977 1.6239216 nan
1.7782159 -0.70150226 1.6258645 nan
1.7782009 -0.70452899 1.6258645 nan
1.7781858 -0.70755559 1.6258645 nan
1.7781708 -0.7105822 1.6258645 nan
1.7781558 -0.71360886 1.6258645 nan
1.7781407 -0.71663547 1.6258645 nan
1.7781256 -0.71966207 1.6258645 nan
1.7781106 -0.72268873 1.6258645 nan
1.7780956 -0.72571534 1.6258645 nan
1.7850662 -0.73163664 1.6275645 nan
1.7850512 -0.73467654 1.6275645 nan
1.7920216 -0.7406379 1.6292645 nan
1.7920065 -0.74369127 1.6292645 nan
1.7999747 -0.75011373 1.6312073 nan
1.7999594 -0.75318235 1.6312073 nan
1.8069296 -0.75922555 1.6329074 nan
1.8069143 -0.76230741 1.6329074 nan
1.806899 -0.76538926 1.6329074 nan
1.8068837 -0.76847112 1.6329074 nan
1.8884153 -0.46009487 1.6491016 nan
1.8804084 -0.46148372 1.647174 nan
1.8803924 -0.46470273 1.647174 nan
1.8803765 -0.4679217 1.647174 nan
1.8803605 -0.47114074 1.647174 -2.9974919e+38
1.8713551 -0.47221512 1.6450055 -3.2907508e+38
1.8633486 -0.47349536 1.6430779 nan
1.8633327 -0.47668201 1.6430779 nan
1.8553265 -0.47791654 1.6411502 nan
1.8553108 -0.48108795 1.6411502 nan
1.8473048 -0.4822768 1.6392226 nan
1.8472892 -0.48543295 1.6392226 nan
1.8472735 -0.48858911 1.6392226 nan
1.8472579 -0.49174523 1.6392226 nan
1.8392521 -0.4928579 1.637295 nan
1.8392365 -0.49599883 1.637295 nan
1.8392209 -0.4991397 1.637295 nan
1.8392053 -0.50228059 1.637295 nan
1.8312001 -0.50331712 1.6353674 nan
1.8311845 -0.50644279 1.6353674 nan
1.831169 -0.50956845 1.6353674 -3.3835402e+38
1.8241628 -0.51081276 1.6336807 nan
1.8161581 -0.5117597 1.6317531 nan
1.8161427 -0.51485682 1.6317531 nan
1.8081381 -0.51575798 1.6298255 nan
1.8081229 -0.5188399 1.6298255 nan
1.8081075 -0.52192175 1.6298255 nan
1.8080922 -0.52500361 1.6298255 nan
1.808077 -0.52808547 1.6298255 nan
1.8080616 -0.53116733 1.6298255 nan
1.8080463 -0.53424925 1.6298255 -3.2505151e+38
1.8080311 -0.5373311 1.6298255 -3.1698246e+38
1.8080157 -0.54041296 1.6298255 -3.0893434e+38
1.8010104 -0.54145342 1.6281388 -3.1031541e+38
1.8009952 -0.54452199 1.6281388 -3.1298423e+38
1.7929916 -0.54522699 1.6262112 -3.1033612e+38
1.7929765 -0.5482803 1.6262112 -3.0768288e+38
1.7859716 -0.54923892 1.6245245 -3.1165498e+38
1.7859566 -0.55227882 1.6245245 -3.1696153e+38
1.7859415 -0.55531883 1.6245245 -3.3031614e+38
1.778937 -0.55622405 1.6228378 nan
1.778922 -0.55925065 1.6228378 nan
1.7789069 -0.56227732 1.6228378 nan
1.7788919 -0.56530392 1.6228378 nan
1.770889 -0.56582993 1.6209102 nan
1.7708741 -0.56884134 1.6209102 nan
1.7708591 -0.57185274 1.6209102 nan
1.7638552 -0.57263607 1.6192236 nan
1.7638404 -0.57563412 1.6192236 nan
1.7638255 -0.57863218 1.6192236 nan
1.7638106 -0.58163023 1.6192236 nan
1.756807 -0.58234692 1.6175369 nan
1.7567921 -0.58533162 1.6175369 nan
1.7567773 -0.58831638 1.6175369 nan
1.7567625 -0.59130108 1.6175369 -3.3976648e+38
1.7567476 -0.59428579 1.6175369 -3.2904968e+38
1.7567328 -0.59727055 1.6175369 -3.1835307e+38
1.756718 -0.60025525 1.6175369 -3.2231947e+38
1.7567033 -0.60324001 1.6175369 -3.2630213e+38
1.7566884 -0.60622472 1.6175369 -3.2229384e+38
1.7566736 -0.60920942 1.6175369 -3.196353e+38
1.7566588 -0.61219418 1.6175369 -3.1697157e+38
1.7566439 -0.61517888 1.6175369 -3.1562699e+38
1.7566291 -0.61816359 1.6175369 -3.1301027e+38
1.7566143 -0.62114835 1.6175369 -3.1175895e+38
1.7565995 -0.62413305 1.6175369 -3.1439147e+38
1.7565846 -0.62711781 1.6175369 -3.1707578e+38
1.7565699 -0.63010252 1.6175369 -3.1837895e+38
1.7565551 -0.63308722 1.6175369 -3.210689e+38
1.7565403 -0.63607198 1.6175369 -3.3167192e+38
1.7565254 -0.63905668 1.6175369 nan
1.7565106 -0.64204144 1.6175369 nan
1.7564958 -0.64502615 1.6175369 nan
1.7564809 -0.64801085 1.6175369 nan
1.7564662 -0.65099561 1.6175369 nan
1.7564514 -0.65398031 1.6175369 nan
1.7564366 -0.65696502 1.6175369 nan
1.7564217 -0.65994978 1.6175369 nan
1.7564069 -0.66293448 1.6175369 nan
1.7563921 -0.66591924 1.6175369 nan
1.7563772 -0.66890395 1.6175369 nan
1.7563624 -0.67188865 1.6175369 nan
1.7563477 -0.67487341 1.6175369 nan
1.7563329 -0.67785811 1.6175369 nan
1.7633046 -0.68356419 1.6192236 nan
1.7632898 -0.68656224 1.6192236 nan
1.7632749 -0.68956035 1.6192236 nan
1.7702463 -0.69531977 1.6209102 nan
1.7702314 -0.69833118 1.6209102 nan
1.7782009 -0.70452899 1.6228378 nan
1.7702014 -0.70435399 1.6209102 nan
1.7701865 -0.70736533 1.6209102 nan
1.7781558 -0.71360886 1.6228378 nan
1.7781407 -0.71663547 1.6228378 nan
1.7781256 -0.71966207 1.6228378 nan
1.7781106 -0.72268873 1.6228378 nan
1.7780956 -0.72571534 1.6228378 nan
1.7850662 -0.73163664 1.6245245 nan
1.7850512 -0.73467654 1.6245245 nan
1.7920216 -0.7406379 1.6262112 nan
1.7920065 -0.74369127 1.6262112 nan
1.7919914 -0.74674451 1.6262112 nan
1.7999594 -0.75318235 1.6281388 nan
1.8069296 -0.75922555 1.6298255 nan
1.8069143 -0.76230741 1.6298255 nan
1.806899 -0.76538926 1.6298255 nan
1.8148667 -0.77191651 1.6317531 nan
1.8964225 -0.45867553 1.6477797 nan
1.8884153 -0.46009487 1.6458673 nan
1.8804084 -0.46148372 1.643955 nan
1.8803924 -0.46470273 1.643955 nan
1.8803765 -0.4679217 1.643955 nan
1.8803605 -0.47114074 1.643955 -3.23722e+38
1.8633645 -0.47030875 1.6398911 -3.3709225e+38
1.8633486 -0.47349536 1.6398911 nan
1.8553423 -0.47474518 1.6379788 nan
1.8553265 -0.47791654 1.6379788 nan
1.8553108 -0.48108795 1.6379788 nan
1.8473048 -0.4822768 1.6360664 nan
1.8472892 -0.48543295 1.6360664 nan
1.8472735 -0.48858911 1.6360664 nan
1.8472579 -0.49174523 1.6360664 nan
1.8392521 -0.4928579 1.6341541 nan
1.8392365 -0.49599883 1.6341541 nan
1.8392209 -0.4991397 1.6341541 nan
1.8392053 -0.50228059 1.6341541 nan
1.8312001 -0.50331712 1.6322417 nan
1.8311845 -0.50644279 1.6322417 -3.370041e+38
1.8241783 -0.50770038 1.6305683 -3.2374823e+38
1.8241628 -0.51081276 1.6305683 nan
1.8161581 -0.5117597 1.6286559 nan
1.8161427 -0.51485682 1.6286559 nan
1.8161273 -0.51795393 1.6286559 nan
1.8161119 -0.52105099 1.6286559 nan
1.8081075 -0.52192175 1.6267436 nan
1.8080922 -0.52500361 1.6267436 nan
1.808077 -0.52808547 1.6267436 nan
1.8080616 -0.53116733 1.6267436 -3.2358193e+38
1.8080463 -0.53424925 1.6267436 -3.0370578e+38
1.8080311 -0.5373311 1.6267436 -3.0768304e+38
1.8080157 -0.54041296 1.6267436 -3.1032066e+38
1.8010104 -0.54145342 1.6250702 -3.116706e+38
1.7930068 -0.54217368 1.6231579 -3.1298411e+38
1.7929916 -0.54522699 1.6231579 -3.0899111e+38
1.7859868 -0.5461989 1.6214845 -3.0367962e+38
1.7859716 -0.54923892 1.6214845 -3.1564291e+38
1.778967 -0.55017078 1.6198112 -3.2632872e+38
1.778952 -0.55319744 1.6198112 nan
1.778937 -0.55622405 1.6198112 nan
1.778922 -0.55925065 1.6198112 nan
1.7789069 -0.56227732 1.6198112 nan
1.7709041 -0.56281853 1.6178988 nan
1.770889 -0.56582993 1.6178988 nan
1.7708741 -0.56884134 1.6178988 nan
1.7708591 -0.57185274 1.6178988 nan
1.7638552 -0.57263607 1.6162255 nan
1.7638404 -0.57563412 1.6162255 nan
1.7638255 -0.57863218 1.6162255 nan
1.7638106 -0.58163023 1.6162255 nan
1.756807 -0.58234692 1.6145521 nan
1.7567921 -0.58533162 1.6145521 nan
1.7567773 -0.58831638 1.6145521 nan
1.7567625 -0.59130108 1.6145521 nan
1.7567476 -0.59428579 1.6145521 -3.2770458e+38
1.7567328 -0.59727055 1.6145521 -3.0771393e+38
1.756718 -0.60025525 1.6145521 -3.1567863e+38
1.7567033 -0.60324001 1.6145521 -3.2230398e+38
1.7566884 -0.60622472 1.6145521 -3.1962995e+38
1.7566736 -0.60920942 1.6145521 -3.1563198e+38
1.7566588 -0.61219418 1.6145521 -3.1294766e+38
1.7566439 -0.61517888 1.6145521 -3.0895984e+38
1.7566291 -0.61816359 1.6145521 -3.0629607e+38
1.7566143 -0.62114835 1.6145521 -3.0369497e+38
1.7565995 -0.62413305 1.6145521 -3.0768292e+38
1.7565846 -0.62711781 1.6145521 -3.1169654e+38
1.7565699 -0.63010252 1.6145521 -3.1434979e+38
1.7565551 -0.63308722 1.6145521 -3.1573116e+38
1.7565403 -0.63607198 1.6145521 -3.2506192e+38
1.7565254 -0.63905668 1.6145521 -3.330164e+38
1.7565106 -0.64204144 1.6145521 -3.3437146e+38
1.7564958 -0.64502615 1.6145521 -3.344027e+38
1.7564809 -0.64801085 1.6145521 -3.3970933e+38
1.7564662 -0.65099561 1.6145521 nan
1.7564514 -0.65398031 1.6145521 nan
1.7564366 -0.65696502 1.6145521 nan
1.7564217 -0.65994978 1.6145521 nan
1.7564069 -0.66293448 1.6145521 nan
1.7563921 -0.66591924 1.6145521 nan
1.7563772 -0.66890395 1.6145521 nan
1.7563624 -0.67188865 1.6145521 nan
1.7563477 -0.67487341 1.6145521 nan
1.7563329 -0.67785811 1.6145521 nan
1.756318 -0.68084288 1.6145521 nan
1.7563032 -0.68382758 1.6145521 nan
1.7632749 -0.68956035 1.6162255 nan
1.76326 -0.69255841 1.6162255 nan
1.7702314 -0.69833118 1.6178988 nan
1.7702165 -0.70134252 1.6178988 nan
1.7632153 -0.70155257 1.6162255 nan
1.7701865 -0.70736533 1.6178988 nan
1.7701715 -0.71037668 1.6178988 nan
1.7701566 -0.71338814 1.6178988 nan
1.7781256 -0.71966207 1.6198112 nan
1.7781106 -0.72268873 1.6198112 nan
1.7780956 -0.72571534 1.6198112 nan
1.7850662 -0.73163664 1.6214845 nan
1.7850512 -0.73467654 1.6214845 nan
1.7850361 -0.73771656 1.6214845 nan
1.7920065 -0.74369127 1.6231579 nan
1.7919914 -0.74674451 1.6231579 nan
1.7919762 -0.74979782 1.6231579 nan
1.7999442 -0.75625086 1.6250702 nan
1.8069143 -0.76230741 1.6267436 nan
1.806899 -0.76538926 1.6267436 nan
1.8068837 -0.76847112 1.6267436 nan
1.8964225 -0.45867553 1.6445303 nan
1.8964064 -0.46192503 1.6445303 nan
1.8883992 -0.46332908 1.6426331 nan
1.8883833 -0.46656334 1.6426331 nan
1.8803765 -0.4679217 1.640736 nan
1.8803605 -0.47114074 1.640736 nan
1.8633645 -0.47030875 1.6367044 nan
1.8633486 -0.47349536 1.6367044 nan
1.8553423 -0.47474518 1.6348073 nan
1.8553265 -0.47791654 1.6348073 nan
1.8473204 -0.47912064 1.6329103 nan
1.8473048 -0.4822768 1.6329103 nan
1.8472892 -0.48543295 1.6329103 nan
1.8472735 -0.48858911 1.6329103 nan
1.8472579 -0.49174523 1.6329103 nan
1.8392521 -0.4928579 1.6310132 nan
1.8392365 -0.49599883 1.6310132 nan
1.8392209 -0.4991397 1.6310132 nan
1.8312156 -0.50019145 1.6291159 -3.3834384e+38
1.8242092 -0.50147569 1.6274559 -3.3568015e+38
1.8241937 -0.50458807 1.6274559 -3.3968335e+38
1.8241783 -0.50770038 1.6274559 nan
1.8241628 -0.51081276 1.6274559 nan
1.8161581 -0.5117597 1.6255589 nan
1.8161427 -0.51485682 1.6255589 nan
1.8081381 -0.51575798 1.6236616 nan
1.8161119 -0.52105099 1.6255589 nan
1.8081075 -0.52192175 1.6236616 nan
1.8080922 -0.52500361 1.6236616 nan
1.808077 -0.52808547 1.6236616 -3.2363909e+38
1.8080616 -0.53116733 1.6236616 -3.1698212e+38
1.8080463 -0.53424925 1.6236616 -3.1034133e+38
1.8080311 -0.5373311 1.6236616 -3.1034147e+38
1.8010256 -0.53838491 1.6220016 -3.1167064e+38
1.7930219 -0.53912044 1.6201046 -3.1431865e+38
1.7930068 -0.54217368 1.6201046 -3.1562689e+38
1.7929916 -0.54522699 1.6201046 -3.1696108e+38
1.7859868 -0.5461989 1.6184444 -3.1695115e+38
1.7859716 -0.54923892 1.6184444 -3.3564386e+38
1.778967 -0.55017078 1.6167846 nan
1.778952 -0.55319744 1.6167846 nan
1.778937 -0.55622405 1.6167846 nan
1.7709339 -0.55679578 1.6148874 nan
1.7789069 -0.56227732 1.6167846 nan
1.7788919 -0.56530392 1.6167846 nan
1.770889 -0.56582993 1.6148874 nan
1.7708741 -0.56884134 1.6148874 nan
1.7708591 -0.57185274 1.6148874 nan
1.7708442 -0.57486415 1.6148874 nan
1.7638404 -0.57563412 1.6132274 nan
1.7638255 -0.57863218 1.6132274 nan
1.7638106 -0.58163023 1.6132274 nan
1.756807 -0.58234692 1.6115674 nan
1.7567921 -0.58533162 1.6115674 nan
1.7567773 -0.58831638 1.6115674 nan
1.7567625 -0.59130108 1.6115674 -3.3571104e+38
1.7567476 -0.59428579 1.6115674 -3.21001e+38
1.7567328 -0.59727055 1.6115674 -3.0765671e+38
1.756718 -0.60025525 1.6115674 -3.1031509e+38
1.7567033 -0.60324001 1.6115674 -3.1431297e+38
1.7566884 -0.60622472 1.6115674 -3.0629067e+38
1.7566736 -0.60920942 1.6115674 -2.9835713e+38
1.7566588 -0.61219418 1.6115674 -2.9830029e+38
1.7566439 -0.61517888 1.6115674 -2.9697579e+38
1.7566291 -0.61816359 1.6115674 -2.9962338e+38
1.7566143 -0.62114835 1.6115674 -3.0100501e+38
1.7565995 -0.62413305 1.6115674 -3.0499838e+38
1.7565846 -0.62711781 1.6115674 -3.1033614e+38
1.7565699 -0.63010252 1.6115674 -3.1302581e+38
1.7565551 -0.63308722 1.6115674 -3.1705511e+38
1.7565403 -0.63607198 1.6115674 -3.2370653e+38
1.7565254 -0.63905668 1.6115674 -3.3035786e+38
1.7565106 -0.64204144 1.6115674 -3.3302149e+38
1.7564958 -0.64502615 1.6115674 -3.3570079e+38
1.7564809 -0.64801085 1.6115674 -3.3834895e+38
1.7564662 -0.65099561 1.6115674 nan
1.7564514 -0.65398031 1.6115674 nan
1.7564366 -0.65696502 1.6115674 nan
1.7564217 -0.65994978 1.6115674 nan
1.7564069 -0.66293448 1.6115674 nan
1.7563921 -0.66591924 1.6115674 nan
1.7563772 -0.66890395 1.6115674 nan
1.7563624 -0.67188865 1.6115674 nan
1.7563477 -0.67487341 1.6115674 nan
1.7563329 -0.67785811 1.6115674 nan
1.756318 -0.68084288 1.6115674 nan
1.7563032 -0.68382758 1.6115674 nan
1.7632749 -0.68956035 1.6132274 nan
1.76326 -0.69255841 1.6132274 nan
1.7632451 -0.6955564 1.6132274 nan
1.7632302 -0.69855452 1.6132274 nan
1.7632153 -0.70155257 1.6132274 nan
1.7632005 -0.70455062 1.6132274 nan
1.7701715 -0.71037668 1.6148874 nan
1.7701566 -0.71338814 1.6148874 nan
1.7701417 -0.71639949 1.6148874 nan
1.7781106 -0.72268873 1.6167846 nan
1.7780956 -0.72571534 1.6167846 nan
1.7780806 -0.728742 1.6167846 nan
1.7850512 -0.73467654 1.6184444 nan
1.7850361 -0.73771656 1.6184444 nan
1.7850211 -0.74075651 1.6184444 nan
1.7919914 -0.74674451 1.6201046 nan
1.7919762 -0.74979782 1.6201046 nan
1.7999442 -0.75625086 1.6220016 nan
1.799929 -0.75931937 1.6220016 nan
1.806899 -0.76538926 1.6236616 nan
1.8068837 -0.76847112 1.6236616 nan
1.8068684 -0.77155304 1.6236616 nan
1.9054124 -0.46071732 1.6433978 nan
1.8964064 -0.46192503 1.6412807 nan
1.8883992 -0.46332908 1.6393988 nan
1.8883833 -0.46656334 1.6393988 -3.0264203e+38
1.8803765 -0.4679217 1.6375169 nan
1.8803605 -0.47114074 1.6375169 nan
1.8633645 -0.47030875 1.6335179 nan
1.855358 -0.47157377 1.6316359 nan
1.8553423 -0.47474518 1.6316359 nan
1.8473362 -0.47596449 1.6297541 nan
1.8473204 -0.47912064 1.6297541 nan
1.8473048 -0.4822768 1.6297541 nan
1.8472892 -0.48543295 1.6297541 nan
1.8472735 -0.48858911 1.6297541 nan
1.8472579 -0.49174523 1.6297541 nan
1.8392521 -0.4928579 1.6278721 -3.2907561e+38
1.8392365 -0.49599883 1.6278721 -3.3436118e+38
1.8312311 -0.49706575 1.6259902 -3.3966252e+38
1.8312156 -0.50019145 1.6259902 -3.3034754e+38
1.8242092 -0.50147569 1.6243435 -3.2107417e+38
1.8241937 -0.50458807 1.6243435 nan
1.8241783 -0.50770038 1.6243435 nan
1.8161734 -0.50866258 1.6224617 nan
1.8161581 -0.5117597 1.6224617 nan
1.8161427 -0.51485682 1.6224617 nan
1.8081381 -0.51575798 1.6205797 nan
1.8161119 -0.52105099 1.6224617 nan
1.8081075 -0.52192175 1.6205797 nan
1.8080922 -0.52500361 1.6205797 -3.3155217e+38
1.808077 -0.52808547 1.6205797 -3.0369012e+38
1.8080616 -0.53116733 1.6205797 -3.1035685e+38
1.8080463 -0.53424925 1.6205797 -3.1566344e+38
1.8010409 -0.53531635 1.6189331 -3.143291e+38
1.8010256 -0.53838491 1.6189331 -3.1298934e+38
1.7930219 -0.53912044 1.6170511 -3.1563727e+38
1.7860169 -0.54011899 1.6154045 -3.1830098e+38
1.7860018 -0.54315895 1.6154045 -3.2494201e+38
1.7859868 -0.5461989 1.6154045 -3.3032673e+38
1.7859716 -0.54923892 1.6154045 nan
1.778967 -0.55017078 1.6137578 nan
1.778952 -0.55319744 1.6137578 nan
1.778937 -0.55622405 1.6137578 nan
1.778922 -0.55925065 1.6137578 nan
1.7789069 -0.56227732 1.6137578 nan
1.7788919 -0.56530392 1.6137578 nan
1.770889 -0.56582993 1.611876 nan
1.7708741 -0.56884134 1.611876 nan
1.7708591 -0.57185274 1.611876 nan
1.7708442 -0.57486415 1.611876 nan
1.7638404 -0.57563412 1.6102293 nan
1.7638255 -0.57863218 1.6102293 nan
1.7638106 -0.58163023 1.6102293 nan
1.7637957 -0.58462828 1.6102293 nan
1.7567921 -0.58533162 1.6085826 -3.2898689e+38
1.7567773 -0.58831638 1.6085826 -3.2626609e+38
1.7567625 -0.59130108 1.6085826 -3.2362834e+38
1.7567476 -0.59428579 1.6085826 -3.155906e+38
1.7567328 -0.59727055 1.6085826 -3.0761511e+38
1.756718 -0.60025525 1.6085826 -3.0626499e+38
1.7567033 -0.60324001 1.6085826 -3.0489928e+38
1.7566884 -0.60622472 1.6085826 -2.928582e+38
1.7566736 -0.60920942 1.6085826 -2.8094719e+38
1.7566588 -0.61219418 1.6085826 -2.8358502e+38
1.7566291 -0.61816359 1.6085826 -2.9154964e+38
1.7566143 -0.62114835 1.6085826 -2.9828954e+38
1.7565995 -0.62413305 1.6085826 -3.0362753e+38
1.7565846 -0.62711781 1.6085826 -3.0766203e+38
1.7565699 -0.63010252 1.6085826 -3.1301539e+38
1.7565551 -0.63308722 1.6085826 -3.1701869e+38
1.7565403 -0.63607198 1.6085826 -3.2234083e+38
1.7565254 -0.63905668 1.6085826 -3.2632332e+38
1.7565106 -0.64204144 1.6085826 -3.3165581e+38
1.7564958 -0.64502615 1.6085826 -3.3566954e+38
1.7564809 -0.64801085 1.6085826 -3.3698846e+38
1.7564514 -0.65398031 1.6085826 nan
1.7564366 -0.65696502 1.6085826 nan
1.7564217 -0.65994978 1.6085826 nan
1.7564069 -0.66293448 1.6085826 nan
1.7563921 -0.66591924 1.6085826 nan
1.7563772 -0.66890395 1.6085826 nan
1.7563624 -0.67188865 1.6085826 nan
1.7563477 -0.67487341 1.6085826 nan
1.7563329 -0.67785811 1.6085826 nan
1.756318 -0.68084288 1.6085826 nan
1.7563032 -0.68382758 1.6085826 nan
1.7562884 -0.68681228 1.6085826 nan
1.7562735 -0.68979704 1.6085826 nan
1.7562587 -0.69278175 1.6085826 nan
1.7632302 -0.69855452 1.6102293 nan
1.7562292 -0.69875121 1.6085826 nan
1.7562143 -0.70173591 1.6085826 nan
1.7631856 -0.70754868 1.6102293 nan
1.7631707 -0.71054673 1.6102293 nan
1.7701417 -0.71639949 1.611876 nan
1.7701267 -0.71941096 1.611876 nan
1.7701118 -0.7224223 1.611876 nan
1.7780806 -0.728742 1.6137578 nan
1.7780656 -0.73176861 1.6137578 nan
1.7850361 -0.73771656 1.6154045 nan
1.7850211 -0.74075651 1.6154045 nan
1.7850059 -0.74379653 1.6154045 nan
1.7849908 -0.74683642 1.6154045 nan
1.791961 -0.75285113 1.6170511 nan
1.799929 -0.75931937 1.6189331 nan
1.7999138 -0.76238793 1.6189331 nan
1.8068837 -0.76847112 1.6205797 nan
1.7998832 -0.76852494 1.6189331 nan
1.8068531 -0.7746349 1.6205797 nan
1.9054124 -0.46071732 1.6401312 nan
1.8964064 -0.46192503 1.6380312 nan
1.8883992 -0.46332908 1.6361645 nan
1.8883833 -0.46656334 1.6361645 -3.2781445e+38
1.8803765 -0.4679217 1.6342978 nan
1.8803605 -0.47114074 1.6342978 nan
1.8633645 -0.47030875 1.6303312 nan
1.855358 -0.47157377 1.6284645 nan
1.8553423 -0.47474518 1.6284645 nan
1.8473362 -0.47596449 1.6265979 nan
1.8473204 -0.47912064 1.6265979 nan
1.8473048 -0.4822768 1.6265979 nan
1.8472892 -0.48543295 1.6265979 nan
1.8472735 -0.48858911 1.6265979 nan
1.8392677 -0.48971698 1.6247312 nan
1.8312621 -0.49081442 1.6228645 -3.3703548e+38
1.8312466 -0.49394011 1.6228645 -3.3701974e+38
1.8312311 -0.49706575 1.6228645 -3.3700404e+38
1.8242246 -0.49836338 1.6212312 -3.3837466e+38
1.8242092 -0.50147569 1.6212312 nan
1.8162042 -0.50246841 1.6193645 nan
1.8161888 -0.50556546 1.6193645 nan
1.8161734 -0.50866258 1.6193645 nan
1.8161581 -0.5117597 1.6193645 nan
1.8161427 -0.51485682 1.6193645 nan
1.8161273 -0.51795393 1.6193645 nan
1.8161119 -0.52105099 1.6193645 nan
1.8160965 -0.52414811 1.6193645 -3.3308396e+38
1.8160812 -0.52724522 1.6193645 -3.2234061e+38
1.808077 -0.52808547 1.6174978 -3.1301532e+38
1.8080616 -0.53116733 1.6174978 -3.1433942e+38
1.8080463 -0.53424925 1.6174978 -3.1698749e+38
1.8010409 -0.53531635 1.6158645 -3.1565307e+38
1.8010256 -0.53838491 1.6158645 -3.1431324e+38
1.7860321 -0.53707904 1.6123645 -3.1298898e+38
1.7860169 -0.54011899 1.6123645 -3.1168088e+38
1.7860018 -0.54315895 1.6123645 -3.2632351e+38
1.7859868 -0.5461989 1.6123645 nan
1.778982 -0.54714417 1.6107311 nan
1.778967 -0.55017078 1.6107311 nan
1.778952 -0.55319744 1.6107311 nan
1.778937 -0.55622405 1.6107311 nan
1.778922 -0.55925065 1.6107311 nan
1.7789069 -0.56227732 1.6107311 nan
1.7788919 -0.56530392 1.6107311 nan
1.770889 -0.56582993 1.6088645 -3.25062e+38
1.7708741 -0.56884134 1.6088645 -3.3305824e+38
1.7708591 -0.57185274 1.6088645 nan
1.7708442 -0.57486415 1.6088645 nan
1.7708293 -0.57787549 1.6088645 nan
1.7638255 -0.57863218 1.6072311 nan
1.7638106 -0.58163023 1.6072311 nan
1.7637957 -0.58462828 1.6072311 -3.2631819e+38
1.7567921 -0.58533162 1.6055979 -3.050762e+38
1.7567773 -0.58831638 1.6055979 -3.0632724e+38
1.7567625 -0.59130108 1.6055979 -3.0764623e+38
1.7567476 -0.59428579 1.6055979 -3.0360676e+38
1.7567328 -0.59727055 1.6055979 -2.9960853e+38
1.756718 -0.60025525 1.6055979 -3.0222009e+38
1.7567033 -0.60324001 1.6055979 -3.0482652e+38
1.7566884 -0.60622472 1.6055979 -2.9953547e+38
1.7566736 -0.60920942 1.6055979 -2.9417181e+38
1.7565846 -0.62711781 1.6055979 -3.0765158e+38
1.7565699 -0.63010252 1.6055979 -3.1031533e+38
1.7565551 -0.63308722 1.6055979 -3.143238e+38
1.7565254 -0.63905668 1.6055979 -3.262557e+38
1.7564514 -0.65398031 1.6055979 nan
1.7564366 -0.65696502 1.6055979 nan
1.7564217 -0.65994978 1.6055979 nan
1.7564069 -0.66293448 1.6055979 nan
1.7563921 -0.66591924 1.6055979 nan
1.7563772 -0.66890395 1.6055979 nan
1.7563624 -0.67188865 1.6055979 nan
1.7563477 -0.67487341 1.6055979 nan
1.7563329 -0.67785811 1.6055979 nan
1.756318 -0.68084288 1.6055979 nan
1.7563032 -0.68382758 1.6055979 nan
1.7562884 -0.68681228 1.6055979 nan
1.7562735 -0.68979704 1.6055979 nan
1.7562587 -0.69278175 1.6055979 nan
1.7562439 -0.69576645 1.6055979 nan
1.7562292 -0.69875121 1.6055979 nan
1.7562143 -0.70173591 1.6055979 nan
1.7631856 -0.70754868 1.6072311 nan
1.7631707 -0.71054673 1.6072311 nan
1.7631558 -0.71354479 1.6072311 nan
1.7701267 -0.71941096 1.6088645 nan
1.7701118 -0.7224223 1.6088645 nan
1.7780806 -0.728742 1.6107311 nan
1.7780656 -0.73176861 1.6107311 nan
1.7780505 -0.73479521 1.6107311 nan
1.7850211 -0.74075651 1.6123645 nan
1.7850059 -0.74379653 1.6123645 nan
1.7849908 -0.74683642 1.6123645 nan
1.791961 -0.75285113 1.6139978 nan
1.799929 -0.75931937 1.6158645 nan
1.7999138 -0.76238793 1.6158645 nan
1.8068837 -0.76847112 1.6174978 nan
1.8068684 -0.77155304 1.6174978 nan
1.8068531 -0.7746349 1.6174978 nan
1.9054124 -0.46071732 1.6368645 nan
1.8964064 -0.46192503 1.6347816 nan
1.8883992 -0.46332908 1.6329303 nan
1.8883833 -0.46656334 1.6329303 nan
1.8803765 -0.4679217 1.6310788 nan
1.8803605 -0.47114074 1.6310788 nan
1.8633645 -0.47030875 1.6271446 nan
1.855358 -0.47157377 1.625293 nan
1.8553423 -0.47474518 1.625293 nan
1.8473362 -0.47596449 1.6234417 nan
1.8473204 -0.47912064 1.6234417 nan
1.8473048 -0.4822768 1.6234417 nan
1.8472892 -0.48543295 1.6234417 nan
1.8392832 -0.48657608 1.6215903 nan
1.8392677 -0.48971698 1.6215903 nan
1.8312621 -0.49081442 1.6197388 nan
1.8312466 -0.49394011 1.6197388 -3.3967817e+38
1.8242401 -0.49525103 1.6181188 -3.3305286e+38
1.8242246 -0.49836338 1.6181188 nan
1.8162196 -0.49937129 1.6162673 nan
1.8162042 -0.50246841 1.6162673 nan
1.8161888 -0.50556546 1.6162673 nan
1.8161734 -0.50866258 1.6162673 nan
1.8161581 -0.5117597 1.6162673 nan
1.8161427 -0.51485682 1.6162673 nan
1.8161273 -0.51795393 1.6162673 nan
1.8161119 -0.52105099 1.6162673 -3.3836996e+38
1.8160965 -0.52414811 1.6162673 -3.0510253e+38
1.8160812 -0.52724522 1.6162673 -3.130308e+38
1.808077 -0.52808547 1.6144159 -3.2098546e+38
1.8080616 -0.53116733 1.6144159 -3.1965112e+38
1.8080463 -0.53424925 1.6144159 -3.1831672e+38
1.8010409 -0.53531635 1.6127959 -3.1698234e+38
1.8010256 -0.53838491 1.6127959 -3.1431338e+38
1.7860321 -0.53707904 1.6093245 -3.0899117e+38
1.7860169 -0.54011899 1.6093245 -3.0372649e+38
1.7860018 -0.54315895 1.6093245 -3.2901847e+38
1.7859868 -0.5461989 1.6093245 nan
1.778982 -0.54714417 1.6077045 nan
1.778967 -0.55017078 1.6077045 nan
1.7709638 -0.55077296 1.6058531 nan
1.7709489 -0.55378437 1.6058531 nan
1.7709339 -0.55679578 1.6058531 nan
1.770919 -0.55980718 1.6058531 nan
1.7709041 -0.56281853 1.6058531 -3.1695648e+38
1.770889 -0.56582993 1.6058531 -2.9177909e+38
1.7708741 -0.56884134 1.6058531 -3.1177469e+38
1.7708591 -0.57185274 1.6058531 -3.3036313e+38
1.7708442 -0.57486415 1.6058531 -3.3436122e+38
1.7708293 -0.57787549 1.6058531 -3.370144e+38
1.7638255 -0.57863218 1.604233 -3.3567473e+38
1.7638106 -0.58163023 1.604233 -3.3298502e+38
1.7637957 -0.58462828 1.604233 -3.0767245e+38
1.7637808 -0.58762634 1.604233 -2.8108248e+38
1.7637659 -0.59062439 1.604233 -2.8631092e+38
1.7567625 -0.59130108 1.6026131 -2.9029868e+38
1.7567476 -0.59428579 1.6026131 -2.9158647e+38
1.7567328 -0.59727055 1.6026131 -2.9158645e+38
1.756718 -0.60025525 1.6026131 -2.9818584e+38
1.7567033 -0.60324001 1.6026131 -3.0489936e+38
1.7566884 -0.60622472 1.6026131 -3.0627522e+38
1.7566736 -0.60920942 1.6026131 -3.062752e+38
1.7564366 -0.65696502 1.6026131 nan
1.7564217 -0.65994978 1.6026131 nan
1.7564069 -0.66293448 1.6026131 nan
1.7563921 -0.66591924 1.6026131 nan
1.7633642 -0.67157197 1.604233 nan
1.7563624 -0.67188865 1.6026131 nan
1.7563477 -0.67487341 1.6026131 nan
1.7563329 -0.67785811 1.6026131 nan
1.756318 -0.68084288 1.6026131 nan
1.7563032 -0.68382758 1.6026131 nan
1.7562884 -0.68681228 1.6026131 nan
1.7562735 -0.68979704 1.6026131 nan
1.7562587 -0.69278175 1.6026131 nan
1.7562439 -0.69576645 1.6026131 nan
1.7562292 -0.69875121 1.6026131 nan
1.7562143 -0.70173591 1.6026131 nan
1.7561995 -0.70472068 1.6026131 nan
1.7631707 -0.71054673 1.604233 nan
1.7631558 -0.71354479 1.604233 nan
1.7701267 -0.71941096 1.6058531 nan
1.7701118 -0.7224223 1.6058531 nan
1.7780806 -0.728742 1.6077045 nan
1.7780656 -0.73176861 1.6077045 nan
1.7780505 -0.73479521 1.6077045 nan
1.7780355 -0.73782188 1.6077045 nan
1.7850059 -0.74379653 1.6093245 nan
1.7849908 -0.74683642 1.6093245 nan
1.791961 -0.75285113 1.6109445 nan
1.7919458 -0.75590444 1.6109445 nan
1.7999138 -0.76238793 1.6127959 nan
1.8068837 -0.76847112 1.6144159 nan
1.8068684 -0.77155304 1.6144159 nan
1.8068531 -0.7746349 1.6144159 nan
1.8148205 -0.78120786 1.6162673 nan
1.9054124 -0.46071732 1.6335979 nan
1.9053962 -0.46398395 1.6335979 nan
1.8963902 -0.46517453 1.6315322 nan
1.8883833 -0.46656334 1.6296959 nan
1.8803765 -0.4679217 1.6278597 nan
1.8803605 -0.47114074 1.6278597 nan
1.8633645 -0.47030875 1.6239579 nan
1.855358 -0.47157377 1.6221217 nan
1.8553423 -0.47474518 1.6221217 nan
1.8473362 -0.47596449 1.6202855 nan
1.8473204 -0.47912064 1.6202855 nan
1.8473048 -0.4822768 1.6202855 nan
1.8472892 -0.48543295 1.6202855 nan
1.8392832 -0.48657608 1.6184492 nan
1.8392677 -0.48971698 1.6184492 nan
1.8312621 -0.49081442 1.6166131 nan
1.8242556 -0.49213868 1.6150064 nan
1.8242401 -0.49525103 1.6150064 nan
1.8162349 -0.4962742 1.6131703 nan
1.8162196 -0.49937129 1.6131703 nan
1.8162042 -0.50246841 1.6131703 nan
1.8161888 -0.50556546 1.6131703 nan
1.8161734 -0.50866258 1.6131703 nan
1.8161581 -0.5117597 1.6131703 nan
1.8161427 -0.51485682 1.6131703 nan
1.8161273 -0.51795393 1.6131703 nan
1.8161119 -0.52105099 1.6131703 -3.1972937e+38
1.8160965 -0.52414811 1.6131703 -2.8511206e+38
1.8160812 -0.52724522 1.6131703 -2.9969175e+38
1.808077 -0.52808547 1.6113341 -3.1298411e+38
1.8080616 -0.53116733 1.6113341 -3.1431861e+38
1.8080463 -0.53424925 1.6113341 -3.1565309e+38
1.8080311 -0.5373311 1.6113341 -3.1563236e+38
1.8010256 -0.53838491 1.6097274 -3.1562717e+38
1.7860321 -0.53707904 1.6062845 -3.2368042e+38
1.7860169 -0.54011899 1.6062845 -3.3168202e+38
1.7860018 -0.54315895 1.6062845 nan
1.7859868 -0.5461989 1.6062845 nan
1.778982 -0.54714417 1.6046779 nan
1.778967 -0.55017078 1.6046779 nan
1.778952 -0.55319744 1.6046779 nan
1.778937 -0.55622405 1.6046779 -3.3702988e+38
1.778922 -0.55925065 1.6046779 -3.3566404e+38
1.7789069 -0.56227732 1.6046779 -3.3564849e+38
1.7788919 -0.56530392 1.6046779 -3.2098546e+38
1.770889 -0.56582993 1.6028416 -3.0769839e+38
1.7708741 -0.56884134 1.6028416 -3.1834779e+38
1.7708591 -0.57185274 1.6028416 -3.302746e+38
1.7708442 -0.57486415 1.6028416 -3.3164028e+38
1.7708293 -0.57787549 1.6028416 -3.3295908e+38
1.7638255 -0.57863218 1.6012349 -3.2898691e+38
1.7638106 -0.58163023 1.6012349 -3.263387e+38
1.7637957 -0.58462828 1.6012349 -3.103359e+38
1.7637808 -0.58762634 1.6012349 -2.93061e+38
1.7637659 -0.59062439 1.6012349 -2.9430182e+38
1.7637511 -0.59362251 1.6012349 -2.9559476e+38
1.7567476 -0.59428579 1.5996283 -2.9824807e+38
1.7567328 -0.59727055 1.5996283 -3.0088588e+38
1.756718 -0.60025525 1.5996283 -3.0360676e+38
1.7567033 -0.60324001 1.5996283 -3.0765663e+38
1.7566884 -0.60622472 1.5996283 -3.0899091e+38
1.7566736 -0.60920942 1.5996283 -3.0902208e+38
1.7565254 -0.63905668 1.5996283 -3.3165595e+38
1.7564366 -0.65696502 1.5996283 nan
1.7564217 -0.65994978 1.5996283 nan
1.7564069 -0.66293448 1.5996283 nan
1.7563921 -0.66591924 1.5996283 nan
1.7633642 -0.67157197 1.6012349 nan
1.7563624 -0.67188865 1.5996283 nan
1.7563477 -0.67487341 1.5996283 nan
1.7563329 -0.67785811 1.5996283 nan
1.756318 -0.68084288 1.5996283 nan
1.7563032 -0.68382758 1.5996283 nan
1.7562884 -0.68681228 1.5996283 nan
1.7562439 -0.69576645 1.5996283 nan
1.7562292 -0.69875121 1.5996283 nan
1.7562143 -0.70173591 1.5996283 nan
1.7561995 -0.70472068 1.5996283 nan
1.7631707 -0.71054673 1.6012349 nan
1.7631558 -0.71354479 1.6012349 nan
1.7701267 -0.71941096 1.6028416 nan
1.7701118 -0.7224223 1.6028416 nan
1.7700968 -0.72543365 1.6028416 nan
1.7780656 -0.73176861 1.6046779 nan
1.7780505 -0.73479521 1.6046779 nan
1.7780355 -0.73782188 1.6046779 nan
1.7850059 -0.74379653 1.6062845 nan
1.7849908 -0.74683642 1.6062845 nan
1.7849758 -0.74987638 1.6062845 nan
1.7919458 -0.75590444 1.6078912 nan
1.7919307 -0.75895768 1.6078912 nan
1.8068837 -0.76847112 1.6113341 nan
1.8068684 -0.77155304 1.6113341 nan
1.8068531 -0.7746349 1.6113341 nan
1.8148205 -0.78120786 1.6131703 nan
1.9134198 -0.45925039 1.6321521 nan
1.9134036 -0.46253225 1.6321521 nan
1.9053962 -0.46398395 1.6303312 nan
1.8963902 -0.46517453 1.6282825 nan
1.8963741 -0.46842399 1.6282825 nan
1.8803765 -0.4679217 1.6246407 nan
1.8803605 -0.47114074 1.6246407 nan
1.8633645 -0.47030875 1.6207712 nan
1.855358 -0.47157377 1.6189502 nan
1.8553423 -0.47474518 1.6189502 nan
1.8473362 -0.47596449 1.6171293 nan
1.8473204 -0.47912064 1.6171293 nan
1.8473048 -0.4822768 1.6171293 nan
1.8472892 -0.48543295 1.6171293 nan
1.8392832 -0.48657608 1.6153083 nan
1.8312776 -0.48768872 1.6134874 nan
1.824271 -0.48902637 1.611894 nan
1.8242556 -0.49213868 1.611894 nan
1.8242401 -0.49525103 1.611894 nan
1.8242246 -0.49836338 1.611894 nan
1.8162196 -0.49937129 1.6100731 nan
1.8162042 -0.50246841 1.6100731 nan
1.8161888 -0.50556546 1.6100731 nan
1.8161734 -0.50866258 1.6100731 nan
1.8161581 -0.5117597 1.6100731 nan
1.8161427 -0.51485682 1.6100731 nan
1.8161273 -0.51795393 1.6100731 -3.3433516e+38
1.8161119 -0.52105099 1.6100731 -2.9969708e+38
1.8160965 -0.52414811 1.6100731 -2.651163e+38
1.8160812 -0.52724522 1.6100731 -2.8498195e+38
1.808077 -0.52808547 1.6082522 -3.0498272e+38
1.8080616 -0.53116733 1.6082522 -3.0898083e+38
1.8080463 -0.53424925 1.6082522 -3.1163407e+38
1.8010409 -0.53531635 1.6066588 -3.1425614e+38
1.8010256 -0.53838491 1.6066588 -3.1568946e+38
1.7860321 -0.53707904 1.6032445 -3.3708716e+38
1.7790271 -0.53806424 1.6016512 nan
1.7790121 -0.54109091 1.6016512 nan
1.7789971 -0.54411751 1.6016512 nan
1.778982 -0.54714417 1.6016512 nan
1.7709788 -0.54776162 1.5998302 nan
1.7709638 -0.55077296 1.5998302 -3.3565934e+38
1.7709489 -0.55378437 1.5998302 -3.1836359e+38
1.7709339 -0.55679578 1.5998302 -3.2497838e+38
1.770919 -0.55980718 1.5998302 -3.3029527e+38
1.7709041 -0.56281853 1.5998302 -3.2630237e+38
1.770889 -0.56582993 1.5998302 -3.2230952e+38
1.7708741 -0.56884134 1.5998302 -3.2629203e+38
1.7708591 -0.57185274 1.5998302 -3.3028496e+38
1.7708442 -0.57486415 1.5998302 -3.2896618e+38
1.7708293 -0.57787549 1.5998302 -3.2763689e+38
1.7708143 -0.5808869 1.5998302 -3.2363876e+38
1.7707994 -0.58389831 1.5998302 -3.1963019e+38
1.7707844 -0.58690965 1.5998302 -3.1294758e+38
1.7637808 -0.58762634 1.5982369 -3.0494617e+38
1.7637659 -0.59062439 1.5982369 -3.0223052e+38
1.7637511 -0.59362251 1.5982369 -2.9960328e+38
1.7637362 -0.5966205 1.5982369 -3.0491506e+38
1.7567328 -0.59727055 1.5966436 -3.0895994e+38
1.756718 -0.60025525 1.5966436 -3.1036196e+38
1.7567033 -0.60324001 1.5966436 -3.1035149e+38
1.7566884 -0.60622472 1.5966436 -3.1168583e+38
1.7566736 -0.60920942 1.5966436 -3.1167028e+38
1.7565699 -0.63010252 1.5966436 -3.1439126e+38
1.7565551 -0.63308722 1.5966436 -3.1703946e+38
1.7565403 -0.63607198 1.5966436 -3.2773052e+38
1.7565254 -0.63905668 1.5966436 -3.3707154e+38
1.7565106 -0.64204144 1.5966436 nan
1.7564958 -0.64502615 1.5966436 nan
1.7564809 -0.64801085 1.5966436 nan
1.7564662 -0.65099561 1.5966436 nan
1.7564514 -0.65398031 1.5966436 nan
1.7564366 -0.65696502 1.5966436 nan
1.7564217 -0.65994978 1.5966436 nan
1.7564069 -0.66293448 1.5966436 nan
1.7563921 -0.66591924 1.5966436 nan
1.7633642 -0.67157197 1.5982369 nan
1.7563624 -0.67188865 1.5966436 nan
1.7563477 -0.67487341 1.5966436 nan
1.7563329 -0.67785811 1.5966436 nan
1.756318 -0.68084288 1.5966436 nan
1.7563032 -0.68382758 1.5966436 nan
1.7562884 -0.68681228 1.5966436 nan
1.7562587 -0.69278175 1.5966436 nan
1.7562439 -0.69576645 1.5966436 nan
1.7562292 -0.69875121 1.5966436 nan
1.7562143 -0.70173591 1.5966436 nan
1.7631856 -0.70754868 1.5982369 nan
1.7631707 -0.71054673 1.5982369 nan
1.7701417 -0.71639949 1.5998302 nan
1.7701267 -0.71941096 1.5998302 nan
1.7701118 -0.7224223 1.5998302 nan
1.7780806 -0.728742 1.6016512 nan
1.7780656 -0.73176861 1.6016512 nan
1.7780505 -0.73479521 1.6016512 nan
1.7780355 -0.73782188 1.6016512 nan
1.7780205 -0.74084848 1.6016512 nan
1.7780055 -0.74387509 1.6016512 nan
1.7849758 -0.74987638 1.6032445 nan
1.7849606 -0.7529164 1.6032445 nan
1.7919307 -0.75895768 1.6048379 nan
1.7998985 -0.76545644 1.6066588 nan
1.8068684 -0.77155304 1.6082522 nan
1.8068531 -0.7746349 1.6082522 nan
1.8148205 -0.78120786 1.6100731 nan
1.9134198 -0.45925039 1.6288702 nan
1.9134036 -0.46253225 1.6288702 nan
1.9053962 -0.46398395 1.6270645 nan
1.8963902 -0.46517453 1.6250331 nan
1.8963741 -0.46842399 1.6250331 nan
1.8803765 -0.4679217 1.6214217 nan
1.8803605 -0.47114074 1.6214217 nan
1.8633645 -0.47030875 1.6175845 nan
1.855358 -0.47157377 1.6157788 nan
1.8473518 -0.47280833 1.6139731 nan
1.8473362 -0.47596449 1.6139731 nan
1.8393301 -0.47715333 1.6121674 nan
1.8393145 -0.48029423 1.6121674 nan
1.8392988 -0.48343515 1.6121674 nan
1.8312932 -0.48456305 1.6103617 nan
1.8312776 -0.48768872 1.6103617 nan
1.824271 -0.48902637 1.6087817 nan
1.8162657 -0.49007997 1.6069759 nan
1.8242401 -0.49525103 1.6087817 nan
1.8162349 -0.4962742 1.6069759 nan
1.8162196 -0.49937129 1.6069759 nan
1.8162042 -0.50246841 1.6069759 nan
1.8161888 -0.50556546 1.6069759 nan
1.8161734 -0.50866258 1.6069759 nan
1.8161581 -0.5117597 1.6069759 -3.3977166e+38
1.8081534 -0.51267618 1.6051702 -3.3300585e+38
1.8081381 -0.51575798 1.6051702 -3.262452e+38
1.8081229 -0.5188399 1.6051702 -3.0630647e+38
1.8081075 -0.52192175 1.6051702 -2.8504412e+38
1.8080922 -0.52500361 1.6051702 -2.983365e+38
1.808077 -0.52808547 1.6051702 -3.1165995e+38
1.8010714 -0.52917928 1.6035903 -3.1430802e+38
1.8010561 -0.53224784 1.6035903 -3.1694042e+38
1.7930522 -0.53301382 1.6017845 -3.2896046e+38
1.7860471 -0.53403908 1.6002045 nan
1.7790421 -0.53503764 1.5986245 nan
1.7790271 -0.53806424 1.5986245 nan
1.7790121 -0.54109091 1.5986245 nan
1.7789971 -0.54411751 1.5986245 nan
1.778982 -0.54714417 1.5986245 nan
1.7709788 -0.54776162 1.5968188 -3.3307891e+38
1.7709638 -0.55077296 1.5968188 -3.2103262e+38
1.7709489 -0.55378437 1.5968188 -3.0900711e+38
1.7709339 -0.55679578 1.5968188 -3.169979e+38
1.770919 -0.55980718 1.5968188 -3.2628166e+38
1.7709041 -0.56281853 1.5968188 -3.2496795e+38
1.770889 -0.56582993 1.5968188 -3.2496278e+38
1.7708741 -0.56884134 1.5968188 -3.2496799e+38
1.7708591 -0.57185274 1.5968188 -3.249732e+38
1.7708442 -0.57486415 1.5968188 -3.2364919e+38
1.7708293 -0.57787549 1.5968188 -3.2364394e+38
1.7638255 -0.57863218 1.5952388 -3.1960944e+38
1.7638106 -0.58163023 1.5952388 -3.1691973e+38
1.7637957 -0.58462828 1.5952388 -3.0891311e+38
1.7637808 -0.58762634 1.5952388 -3.0090137e+38
1.7637659 -0.59062439 1.5952388 -3.0097402e+38
1.7637511 -0.59362251 1.5952388 -3.0231372e+38
1.7637362 -0.5966205 1.5952388 -3.0633781e+38
1.7567328 -0.59727055 1.5936588 -3.103775e+38
1.756718 -0.60025525 1.5936588 -3.1303082e+38
1.7567033 -0.60324001 1.5936588 -3.1568926e+38
1.7566884 -0.60622472 1.5936588 -3.1699767e+38
1.7566736 -0.60920942 1.5936588 -3.1831135e+38
1.7565699 -0.63010252 1.5936588 -3.2506162e+38
1.7565551 -0.63308722 1.5936588 -3.2643242e+38
1.7565403 -0.63607198 1.5936588 -3.3309418e+38
1.7565254 -0.63905668 1.5936588 nan
1.7565106 -0.64204144 1.5936588 nan
1.7564958 -0.64502615 1.5936588 nan
1.7564809 -0.64801085 1.5936588 nan
1.7564662 -0.65099561 1.5936588 nan
1.7564514 -0.65398031 1.5936588 nan
1.7564366 -0.65696502 1.5936588 nan
1.7564217 -0.65994978 1.5936588 nan
1.7564069 -0.66293448 1.5936588 nan
1.7563921 -0.66591924 1.5936588 nan
1.7633642 -0.67157197 1.5952388 nan
1.7563624 -0.67188865 1.5936588 nan
1.7563477 -0.67487341 1.5936588 nan
1.7563329 -0.67785811 1.5936588 -3.3700911e+38
1.756318 -0.68084288 1.5936588 -3.2111571e+38
1.7563032 -0.68382758 1.5936588 nan
1.7562884 -0.68681228 1.5936588 nan
1.7562735 -0.68979704 1.5936588 nan
1.7562587 -0.69278175 1.5936588 nan
1.7562439 -0.69576645 1.5936588 nan
1.7562292 -0.69875121 1.5936588 nan
1.7632005 -0.70455062 1.5952388 nan
1.7631856 -0.70754868 1.5952388 nan
1.7701566 -0.71338814 1.5968188 nan
1.7701417 -0.71639949 1.5968188 nan
1.7701267 -0.71941096 1.5968188 nan
1.7701118 -0.7224223 1.5968188 nan
1.7780806 -0.728742 1.5986245 nan
1.7780656 -0.73176861 1.5986245 nan
1.7780505 -0.73479521 1.5986245 nan
1.7780355 -0.73782188 1.5986245 nan
1.7780205 -0.74084848 1.5986245 nan
1.7780055 -0.74387509 1.5986245 nan
1.7849758 -0.74987638 1.6002045 nan
1.7849606 -0.7529164 1.6002045 nan
1.7919307 -0.75895768 1.6017845 nan
1.7998985 -0.76545644 1.6035903 nan
1.8068684 -0.77155304 1.6051702 nan
1.8068531 -0.7746349 1.6051702 nan
1.8068378 -0.77771676 1.6051702 nan
1.9223937 -0.46457404 1.6276026 nan
1.9133873 -0.46581411 1.6255883 nan
1.90538 -0.46725059 1.6237979 nan
1.8963741 -0.46842399 1.6217835 nan
1.8883672 -0.46979761 1.6199931 nan
1.8883511 -0.47303182 1.6199931 nan
1.8633645 -0.47030875 1.6143979 nan
1.855358 -0.47157377 1.6126074 nan
1.8553423 -0.47474518 1.6126074 nan
1.8473362 -0.47596449 1.610817 nan
1.8393301 -0.47715333 1.6090264 nan
1.8393145 -0.48029423 1.6090264 nan
1.8392988 -0.48343515 1.6090264 nan
1.8312932 -0.48456305 1.6072359 nan
1.8312776 -0.48768872 1.6072359 nan
1.824271 -0.48902637 1.6056693 nan
1.8162657 -0.49007997 1.6038787 nan
1.8162503 -0.49317709 1.6038787 nan
1.8162349 -0.4962742 1.6038787 nan
1.8162196 -0.49937129 1.6038787 nan
1.8162042 -0.50246841 1.6038787 nan
1.8161888 -0.50556546 1.6038787 nan
1.8161734 -0.50866258 1.6038787 nan
1.8161581 -0.5117597 1.6038787 -3.1175388e+38
1.8081534 -0.51267618 1.6020883 -3.1564774e+38
1.8081381 -0.51575798 1.6020883 -3.1828536e+38
1.8081229 -0.5188399 1.6020883 -3.1157686e+38
1.8081075 -0.52192175 1.6020883 -3.049827e+38
1.8080922 -0.52500361 1.6020883 -3.1164967e+38
1.808077 -0.52808547 1.6020883 -3.1698739e+38
1.8010714 -0.52917928 1.6005217 -3.1964591e+38
1.7930673 -0.52996057 1.5987312 -3.2100114e+38
1.7930522 -0.53301382 1.5987312 nan
1.7860471 -0.53403908 1.5971645 nan
1.7790421 -0.53503764 1.5955979 nan
1.7790271 -0.53806424 1.5955979 nan
1.7790121 -0.54109091 1.5955979 nan
1.7789971 -0.54411751 1.5955979 nan
1.778982 -0.54714417 1.5955979 nan
1.778967 -0.55017078 1.5955979 -3.1308844e+38
1.778952 -0.55319744 1.5955979 -3.0637987e+38
1.7709489 -0.55378437 1.5938073 -2.9973878e+38
1.778922 -0.55925065 1.5955979 -3.1038285e+38
1.7789069 -0.56227732 1.5955979 -3.2099067e+38
1.7709041 -0.56281853 1.5938073 -3.2364907e+38
1.770889 -0.56582993 1.5938073 -3.2629716e+38
1.7708741 -0.56884134 1.5938073 -3.2364392e+38
1.7708591 -0.57185274 1.5938073 -3.1965623e+38
1.7708442 -0.57486415 1.5938073 -3.1966142e+38
1.7708293 -0.57787549 1.5938073 -3.1828019e+38
1.7638255 -0.57863218 1.5922407 -3.1556973e+38
1.7638106 -0.58163023 1.5922407 -3.1290081e+38
1.7637957 -0.58462828 1.5922407 -3.048838e+38
1.7637808 -0.58762634 1.5922407 -2.9566226e+38
1.7637659 -0.59062439 1.5922407 -2.9978495e+38
1.7637511 -0.59362251 1.5922407 -3.0372081e+38
1.7567476 -0.59428579 1.590674 -3.0773456e+38
1.7567328 -0.59727055 1.590674 -3.1038271e+38
1.756718 -0.60025525 1.590674 -3.1569453e+38
1.7567033 -0.60324001 1.590674 -3.1967179e+38
1.7566884 -0.60622472 1.590674 -3.2230426e+38
1.7566736 -0.60920942 1.590674 -3.2496274e+38
1.7566291 -0.61816359 1.590674 -3.2765758e+38
1.7566143 -0.62114835 1.590674 -3.276732e+38
1.7565995 -0.62413305 1.590674 -3.3169729e+38
1.7565846 -0.62711781 1.590674 -3.3437138e+38
1.7565699 -0.63010252 1.590674 -3.3572663e+38
1.7565551 -0.63308722 1.590674 -3.3574225e+38
1.7565403 -0.63607198 1.590674 -3.3975074e+38
1.7565254 -0.63905668 1.590674 nan
1.7565106 -0.64204144 1.590674 nan
1.7564958 -0.64502615 1.590674 nan
1.7564809 -0.64801085 1.590674 nan
1.7564662 -0.65099561 1.590674 nan
1.7564514 -0.65398031 1.590674 nan
1.7634237 -0.65957975 1.5922407 nan
1.7564217 -0.65994978 1.590674 nan
1.7633939 -0.66557586 1.5922407 nan
1.7633791 -0.66857392 1.5922407 nan
1.7633642 -0.67157197 1.5922407 nan
1.7633493 -0.67457002 1.5922407 nan
1.7633344 -0.67756808 1.5922407 nan
1.7563329 -0.67785811 1.590674 -3.1957829e+38
1.7633046 -0.68356419 1.5922407 -2.9309798e+38
1.7563032 -0.68382758 1.590674 -3.197089e+38
1.7562884 -0.68681228 1.590674 nan
1.7562735 -0.68979704 1.590674 nan
1.7632451 -0.6955564 1.5922407 nan
1.7632302 -0.69855452 1.5922407 nan
1.7632153 -0.70155257 1.5922407 nan
1.7701865 -0.70736533 1.5938073 nan
1.7701715 -0.71037668 1.5938073 nan
1.7701566 -0.71338814 1.5938073 nan
1.7701417 -0.71639949 1.5938073 nan
1.7701267 -0.71941096 1.5938073 nan
1.7780956 -0.72571534 1.5955979 nan
1.7780806 -0.728742 1.5955979 nan
1.7780656 -0.73176861 1.5955979 nan
1.7780505 -0.73479521 1.5955979 nan
1.7780355 -0.73782188 1.5955979 nan
1.7780205 -0.74084848 1.5955979 nan
1.7780055 -0.74387509 1.5955979 nan
1.7849758 -0.74987638 1.5971645 nan
1.7849606 -0.7529164 1.5971645 nan
1.7849456 -0.75595635 1.5971645 nan
1.8068837 -0.76847112 1.6020883 nan
1.8068684 -0.77155304 1.6020883 nan
1.8068531 -0.7746349 1.6020883 nan
1.9223937 -0.46457404 1.6243036 nan
1.9223772 -0.46787307 1.6243036 nan
1.9133711 -0.46909598 1.6223063 nan
1.9053638 -0.47051722 1.6205312 nan
1.896358 -0.47167349 1.6185341 nan
1.8883511 -0.47303182 1.6167588 nan
1.8803445 -0.47435975 1.6149836 nan
1.855358 -0.47157377 1.6094359 nan
1.8553423 -0.47474518 1.6094359 nan
1.8473362 -0.47596449 1.6076608 nan
1.8393301 -0.47715333 1.6058855 nan
1.8393145 -0.48029423 1.6058855 nan
1.8392988 -0.48343515 1.6058855 nan
1.8312932 -0.48456305 1.6041102 nan
1.8312776 -0.48768872 1.6041102 nan
1.824271 -0.48902637 1.6025569 nan
1.8162657 -0.49007997 1.6007817 nan
1.8242401 -0.49525103 1.6025569 nan
1.8162349 -0.4962742 1.6007817 nan
1.8162196 -0.49937129 1.6007817 nan
1.8162042 -0.50246841 1.6007817 nan
1.8161888 -0.50556546 1.6007817 nan
1.8161734 -0.50866258 1.6007817 -3.3438745e+38
1.8161581 -0.5117597 1.6007817 -3.1969276e+38
1.8081534 -0.51267618 1.5990064 -3.1833708e+38
1.8081381 -0.51575798 1.5990064 -3.1700283e+38
1.8081229 -0.5188399 1.5990064 -3.103205e+38
1.8081075 -0.52192175 1.5990064 -3.0501399e+38
1.8080922 -0.52500361 1.5990064 -3.1033612e+38
1.8010865 -0.52611077 1.5974531 -3.1701351e+38
1.8010714 -0.52917928 1.5974531 -3.2635454e+38
1.7930673 -0.52996057 1.5956779 -3.3563857e+38
1.7930522 -0.53301382 1.5956779 nan
1.7860471 -0.53403908 1.5941246 nan
1.7860321 -0.53707904 1.5941246 nan
1.7790271 -0.53806424 1.5925711 nan
1.7790121 -0.54109091 1.5925711 nan
1.7789971 -0.54411751 1.5925711 nan
1.778982 -0.54714417 1.5925711 nan
1.778967 -0.55017078 1.5925711 -3.2238772e+38
1.778952 -0.55319744 1.5925711 -3.1571033e+38
1.7709489 -0.55378437 1.590796 -3.0906407e+38
1.7709339 -0.55679578 1.590796 -3.143497e+38
1.770919 -0.55980718 1.590796 -3.1965619e+38
1.7709041 -0.56281853 1.590796 -3.2098538e+38
1.770889 -0.56582993 1.590796 -3.2363347e+38
1.7708741 -0.56884134 1.590796 -3.2097501e+38
1.7708591 -0.57185274 1.590796 -3.1698731e+38
1.7708442 -0.57486415 1.590796 -3.1561652e+38
1.7708293 -0.57787549 1.590796 -3.155749e+38
1.7638255 -0.57863218 1.5892426 -3.1423002e+38
1.7638106 -0.58163023 1.5892426 -3.1289032e+38
1.7637957 -0.58462828 1.5892426 -3.1159736e+38
1.7637808 -0.58762634 1.5892426 -3.1164409e+38
1.7567773 -0.58831638 1.5876893 -3.170285e+38
1.7567625 -0.59130108 1.5876893 -3.2365921e+38
1.7567476 -0.59428579 1.5876893 -3.2235606e+38
1.7567328 -0.59727055 1.5876893 -3.2101657e+38
1.756718 -0.60025525 1.5876893 -3.2366475e+38
1.7567033 -0.60324001 1.5876893 -3.2764722e+38
1.7566884 -0.60622472 1.5876893 -3.2895566e+38
1.7566736 -0.60920942 1.5876893 -3.3160896e+38
1.7566588 -0.61219418 1.5876893 -3.3294859e+38
1.7566439 -0.61517888 1.5876893 -3.3560707e+38
1.7566291 -0.61816359 1.5876893 -3.3300054e+38
1.7566143 -0.62114835 1.5876893 -3.3035772e+38
1.7565995 -0.62413305 1.5876893 -3.3304737e+38
1.7565846 -0.62711781 1.5876893 -3.3705586e+38
1.7565699 -0.63010252 1.5876893 -3.383903e+38
1.7565551 -0.63308722 1.5876893 -3.3972998e+38
1.7565403 -0.63607198 1.5876893 nan
1.7565254 -0.63905668 1.5876893 nan
1.7565106 -0.64204144 1.5876893 nan
1.7564958 -0.64502615 1.5876893 nan
1.7564809 -0.64801085 1.5876893 nan
1.7564662 -0.65099561 1.5876893 -3.3571146e+38
1.7564514 -0.65398031 1.5876893 nan
1.7564366 -0.65696502 1.5876893 nan
1.7564217 -0.65994978 1.5876893 nan
1.7564069 -0.66293448 1.5876893 -3.3979249e+38
1.7563921 -0.66591924 1.5876893 -3.3166632e+38
1.7633642 -0.67157197 1.5892426 -3.2498351e+38
1.7633493 -0.67457002 1.5892426 -3.2362799e+38
1.7633344 -0.67756808 1.5892426 -3.2233511e+38
1.7633195 -0.68056619 1.5892426 -3.1699222e+38
1.7633046 -0.68356419 1.5892426 -3.1301033e+38
1.7632898 -0.68656224 1.5892426 -3.2636551e+38
1.7632749 -0.68956035 1.5892426 nan
1.76326 -0.69255841 1.5892426 nan
1.7632451 -0.6955564 1.5892426 nan
1.7632302 -0.69855452 1.5892426 nan
1.7632153 -0.70155257 1.5892426 nan
1.7701865 -0.70736533 1.590796 nan
1.7701715 -0.71037668 1.590796 nan
1.7781407 -0.71663547 1.5925711 nan
1.7781256 -0.71966207 1.5925711 nan
