# .PCD v0.7 - Point Cloud Data file format
VERSION 0.7
FIELDS x y z rgb
SIZE 4 4 4 4
TYPE F F F F
COUNT 1 1 1 1
WIDTH 1047
HEIGHT 1
VIEWPOINT 0 0 0 1 0 0 0
POINTS 1047
DATA ascii
2.7605288 -0.95164382 1.0466026 nan
2.7605176 -0.95653903 1.0466026 nan
2.7794914 -0.96801013 1.045173 -3.2994978e+38
2.7415102 -0.95971739 1.048032 -1.7014173e+38
2.7414989 -0.96457648 1.048032 -1.9685135e+38
2.7225029 -0.96275103 1.0494616 -2.234825e+38
2.722492 -0.96757388 1.0494616 -2.1816545e+38
2.722481 -0.97239679 1.0494616 -2.1150884e+38
2.7044847 -0.97078413 1.0508159 -2.0750548e+38
2.7044737 -0.97557265 1.0508159 -2.0483141e+38
2.6864777 -0.97385716 1.0521702 -1.9950924e+38
2.6684818 -0.97207314 1.0535245 -1.955059e+38
2.6684709 -0.97679311 1.0535245 -1.9682464e+38
2.6684601 -0.98151308 1.0535245 -1.9816444e+38
2.6504643 -0.97959185 1.0548787 -2.0216269e+38
2.6504536 -0.98427755 1.0548787 -2.0616082e+38
2.6504428 -0.98896325 1.0548787 -2.0750568e+38
2.6504321 -0.99364901 1.0548787 -2.1019012e+38
2.668406 -1.005113 1.0535245 -2.1151935e+38
2.6683953 -1.009833 1.0535245 -2.1417265e+38
2.6683846 -1.014553 1.0535245 -2.1550709e+38
2.6683736 -1.019273 1.0535245 -2.1817072e+38
2.6683629 -1.0239929 1.0535245 -2.1818108e+38
2.686336 -1.0356627 1.0521702 -2.1953116e+38
2.6863251 -1.040417 1.0521702 -2.2219489e+38
2.7042983 -1.0521896 1.0508159 -2.248741e+38
2.7042873 -1.0569782 1.0508159 -2.3152022e+38
2.7042763 -1.0617667 1.0508159 -2.3685226e+38
2.722249 -1.0736765 1.0494616 -2.0343419e+38
2.7222378 -1.0784993 1.0494616 -1.7014277e+38
2.7042434 -1.0761323 1.0508159 -2.9178429e+38
2.7222159 -1.088145 1.0494616 nan
2.7222049 -1.0929679 1.0494616 nan
2.7221937 -1.0977907 1.0494616 nan
2.7041996 -1.0952866 1.0508159 nan
2.8398714 -0.80208516 1.0356131 nan
2.8198726 -0.80158025 1.0371559 -3.2169972e+38
2.8198609 -0.80658787 1.0371559 -1.7020935e+38
2.8198495 -0.8115955 1.0371559 -2.1556413e+38
2.819838 -0.81660312 1.0371559 -2.5945995e+38
2.8198266 -0.82161069 1.0371559 -2.5548279e+38
2.7998283 -0.82087731 1.0386988 -2.5014509e+38
2.7998168 -0.82584679 1.0386988 -2.4615221e+38
2.7998054 -0.83081633 1.0386988 -2.4082491e+38
2.7997942 -0.83578587 1.0386988 -2.3816127e+38
2.7997828 -0.84075534 1.0386988 -2.3549243e+38
2.7997713 -0.84572482 1.0386988 -2.3282358e+38
2.7997599 -0.85069436 1.0386988 -2.3015472e+38
2.8197348 -0.86167157 1.0371559 -2.2749106e+38
2.8197234 -0.86667913 1.0371559 -2.2482733e+38
2.8197119 -0.87168676 1.0371559 -2.2349802e+38
2.8197005 -0.87669438 1.0371559 -2.2083952e+38
2.819689 -0.88170201 1.0371559 -2.208395e+38
2.8196776 -0.88670957 1.0371559 -2.1951542e+38
2.8196661 -0.8917172 1.0371559 -2.1818098e+38
2.8196547 -0.89672482 1.0371559 -2.1684652e+38
2.8196433 -0.90173244 1.0371559 -2.168465e+38
2.8196316 -0.90674001 1.0371559 -2.155121e+38
2.8196201 -0.91174757 1.0371559 -2.1683614e+38
2.8196087 -0.9167552 1.0371559 -2.1683616e+38
2.8195972 -0.92176282 1.0371559 -2.168362e+38
2.8195858 -0.92677045 1.0371559 -2.1550699e+38
2.8195744 -0.93177801 1.0371559 -2.194895e+38
2.8195629 -0.93678564 1.0371559 -2.2348246e+38
2.8195515 -0.94179326 1.0371559 -2.2615138e+38
2.81954 -0.94680089 1.0371559 -2.2744382e+38
2.8195286 -0.95180851 1.0371559 -2.0071343e+38
2.7995324 -0.95008463 1.0386988 -1.73025e+38
2.7795367 -0.94828451 1.0402416 -3.1590871e+38
2.7795253 -0.95321584 1.0402416 nan
2.7605288 -0.95164382 1.0417073 nan
2.7605176 -0.95653903 1.0417073 nan
2.7794914 -0.96801013 1.0402416 -3.363261e+38
2.7604952 -0.96632951 1.0417073 -1.7019363e+38
2.7414989 -0.96457648 1.0431731 -1.9686155e+38
2.7225029 -0.96275103 1.0446388 -2.2212208e+38
2.722492 -0.96757388 1.0446388 -2.1817593e+38
2.722481 -0.97239679 1.0446388 -2.1284332e+38
2.7044847 -0.97078413 1.0460273 -2.1150361e+38
2.6864884 -0.96910292 1.0474159 -2.0883473e+38
2.6864777 -0.97385716 1.0474159 -2.0351258e+38
2.6684818 -0.97207314 1.0488045 -1.9817482e+38
2.6684709 -0.97679311 1.0488045 -1.9947801e+38
2.6684601 -0.98151308 1.0488045 -1.994989e+38
2.6504643 -0.97959185 1.0501931 -2.0349187e+38
2.6504536 -0.98427755 1.0501931 -2.0616597e+38
2.6504428 -0.98896325 1.0501931 -2.0884004e+38
2.6504321 -0.99364901 1.0501931 -2.1150892e+38
2.668406 -1.005113 1.0488045 -2.1283819e+38
2.6683953 -1.009833 1.0488045 -2.128434e+38
2.6683846 -1.014553 1.0488045 -2.1417786e+38
2.6683736 -1.019273 1.0488045 -2.1418304e+38
2.6683629 -1.0239929 1.0488045 -2.1551744e+38
2.686336 -1.0356627 1.0474159 -2.1684675e+38
2.6863251 -1.040417 1.0474159 -2.208397e+38
2.7042983 -1.0521896 1.0460273 -2.24843e+38
2.7042873 -1.0569782 1.0460273 -2.3149957e+38
2.7042763 -1.0617667 1.0460273 -2.3677446e+38
2.722249 -1.0736765 1.0446388 -2.0337194e+38
2.7222378 -1.0784993 1.0446388 -1.70361e+38
2.7222269 -1.0833222 1.0446388 -2.8796304e+38
2.7222159 -1.088145 1.0446388 nan
2.7222049 -1.0929679 1.0446388 nan
2.7221937 -1.0977907 1.0446388 nan
2.8398714 -0.80208516 1.0305673 nan
2.8198726 -0.80158025 1.0321482 -3.2196924e+38
2.8198609 -0.80658787 1.0321482 -1.7014161e+38
2.8198495 -0.8115955 1.0321482 -2.1553817e+38
2.819838 -0.81660312 1.0321482 -2.5949108e+38
2.8198266 -0.82161069 1.0321482 -2.5414831e+38
2.8198152 -0.82661831 1.0321482 -2.5013983e+38
2.7998168 -0.82584679 1.0337292 -2.4481771e+38
2.7998054 -0.83081633 1.0337292 -2.3949565e+38
2.7997942 -0.83578587 1.0337292 -2.3683202e+38
2.7997828 -0.84075534 1.0337292 -2.341632e+38
2.7997713 -0.84572482 1.0337292 -2.3148918e+38
2.8197463 -0.85666394 1.0321482 -2.3014955e+38
2.8197348 -0.86167157 1.0321482 -2.2749106e+38
2.8197234 -0.86667913 1.0321482 -2.2483252e+38
2.8197119 -0.87168676 1.0321482 -2.2349802e+38
2.8197005 -0.87669438 1.0321482 -2.2216875e+38
2.819689 -0.88170201 1.0321482 -2.2084986e+38
2.8196776 -0.88670957 1.0321482 -2.2086542e+38
2.8196661 -0.8917172 1.0321482 -2.195154e+38
2.8196547 -0.89672482 1.0321482 -2.1817573e+38
2.8196433 -0.90173244 1.0321482 -2.1817567e+38
2.8196316 -0.90674001 1.0321482 -2.1684129e+38
2.8196201 -0.91174757 1.0321482 -2.1683612e+38
2.8196087 -0.9167552 1.0321482 -2.1816019e+38
2.8195972 -0.92176282 1.0321482 -2.1816543e+38
2.8195858 -0.92677045 1.0321482 -2.1816547e+38
2.8195744 -0.93177801 1.0321482 -2.1949474e+38
2.8195629 -0.93678564 1.0321482 -2.2216368e+38
2.8195515 -0.94179326 1.0321482 -2.2482743e+38
2.81954 -0.94680089 1.0321482 -2.2751655e+38
2.8195286 -0.95180851 1.0321482 -1.9944131e+38
2.7995324 -0.95008463 1.0337292 -1.7281201e+38
2.7795367 -0.94828451 1.0353101 -3.0903389e+38
2.7795253 -0.95321584 1.0353101 nan
2.7795141 -0.95814729 1.0353101 nan
2.7795026 -0.96307874 1.0353101 nan
2.7794914 -0.96801013 1.0353101 nan
2.7604952 -0.96632951 1.0368121 -2.246816e+38
2.7414989 -0.96457648 1.038314 -2.2471283e+38
2.7225029 -0.96275103 1.0398159 -2.2471819e+38
2.722492 -0.96757388 1.0398159 -2.2080853e+38
2.722481 -0.97239679 1.0398159 -2.1816551e+38
2.7044847 -0.97078413 1.0412388 -2.141673e+38
2.6864884 -0.96910292 1.0426617 -2.101744e+38
2.6684926 -0.96735317 1.0440844 -2.0617629e+38
2.6684818 -0.97207314 1.0440844 -2.0084374e+38
2.6684709 -0.97679311 1.0440844 -2.0083849e+38
2.650475 -0.97490621 1.0455073 -2.0217295e+38
2.6504643 -0.97959185 1.0455073 -2.0350222e+38
2.6504536 -0.98427755 1.0455073 -2.061711e+38
2.6504428 -0.98896325 1.0455073 -2.0883998e+38
2.6504321 -0.99364901 1.0455073 -2.1150369e+38
2.668406 -1.005113 1.0440844 -2.1150894e+38
2.6683953 -1.009833 1.0440844 -2.128486e+38
2.6683846 -1.014553 1.0440844 -2.1284862e+38
2.6683736 -1.019273 1.0440844 -2.1418304e+38
2.6683629 -1.0239929 1.0440844 -2.1417782e+38
2.686336 -1.0356627 1.0426617 -2.1549156e+38
2.6863251 -1.040417 1.0426617 -2.1817084e+38
2.7042983 -1.0521896 1.0412388 -2.2082942e+38
2.7042873 -1.0569782 1.0412388 -2.2350875e+38
2.72226 -1.0688536 1.0398159 -2.2619785e+38
2.722249 -1.0736765 1.0398159 -1.9944661e+38
2.7222378 -1.0784993 1.0398159 -1.7148792e+38
2.7222269 -1.0833222 1.0398159 -3.0379983e+38
2.7222159 -1.088145 1.0398159 nan
2.7222049 -1.0929679 1.0398159 nan
2.7042105 -1.0904981 1.0412388 nan
2.8398714 -0.80208516 1.0255216 nan
2.8198726 -0.80158025 1.0271406 -3.2168885e+38
2.8198609 -0.80658787 1.0271406 -1.7021957e+38
2.8198495 -0.8115955 1.0271406 -2.1562664e+38
2.819838 -0.81660312 1.0271406 -2.5948078e+38
2.8198266 -0.82161069 1.0271406 -2.541431e+38
2.8198152 -0.82661831 1.0271406 -2.4881576e+38
2.8198037 -0.83162594 1.0271406 -2.4348323e+38
2.8197923 -0.83663356 1.0271406 -2.3816634e+38
2.8197808 -0.84164113 1.0271406 -2.3550271e+38
2.7997828 -0.84075534 1.0287597 -2.328235e+38
2.8197579 -0.85165632 1.0271406 -2.3148393e+38
2.8197463 -0.85666394 1.0271406 -2.2882028e+38
2.8197348 -0.86167157 1.0271406 -2.2615664e+38
2.8197234 -0.86667913 1.0271406 -2.2349816e+38
2.8197119 -0.87168676 1.0271406 -2.2349293e+38
2.8197005 -0.87669438 1.0271406 -2.2217402e+38
2.819689 -0.88170201 1.0271406 -2.2217917e+38
2.8196776 -0.88670957 1.0271406 -2.2084991e+38
2.8196661 -0.8917172 1.0271406 -2.2083948e+38
2.8196547 -0.89672482 1.0271406 -2.1951021e+38
2.8196433 -0.90173244 1.0271406 -2.1950498e+38
2.8196316 -0.90674001 1.0271406 -2.1817056e+38
2.8196201 -0.91174757 1.0271406 -2.1816019e+38
2.8196087 -0.9167552 1.0271406 -2.1816021e+38
2.8195972 -0.92176282 1.0271406 -2.1948946e+38
2.8195858 -0.92677045 1.0271406 -2.194947e+38
2.8195744 -0.93177801 1.0271406 -2.1949474e+38
2.8195629 -0.93678564 1.0271406 -2.1949482e+38
2.8195515 -0.94179326 1.0271406 -2.2347739e+38
2.81954 -0.94680089 1.0271406 -2.2610942e+38
2.8195286 -0.95180851 1.0271406 -1.993842e+38
2.7995324 -0.95008463 1.0287597 -1.7296762e+38
2.799521 -0.9550541 1.0287597 -3.0238225e+38
2.7795253 -0.95321584 1.0303788 nan
2.7795141 -0.95814729 1.0303788 nan
2.7994869 -0.96996266 1.0287597 nan
2.7994754 -0.97493219 1.0287597 nan
2.7794802 -0.97294158 1.0303788 -2.7801705e+38
2.7414989 -0.96457648 1.0334549 -2.5257995e+38
2.7225029 -0.96275103 1.0349931 -2.2739226e+38
2.722492 -0.96757388 1.0349931 -2.248326e+38
2.722481 -0.97239679 1.0349931 -2.2215842e+38
2.6864994 -0.96434861 1.0379074 -2.1683101e+38
2.6864884 -0.96910292 1.0379074 -2.1150884e+38
2.6684926 -0.96735317 1.0393645 -2.0751071e+38
2.6684818 -0.97207314 1.0393645 -2.0351258e+38
2.6684709 -0.97679311 1.0393645 -2.0351254e+38
2.650475 -0.97490621 1.0408216 -2.0350218e+38
2.6504643 -0.97959185 1.0408216 -2.0482623e+38
2.6504536 -0.98427755 1.0408216 -2.0616591e+38
2.6504428 -0.98896325 1.0408216 -2.0883479e+38
2.6504321 -0.99364901 1.0408216 -2.101744e+38
2.668406 -1.005113 1.0393645 -2.1150365e+38
2.6683953 -1.009833 1.0393645 -2.128433e+38
2.6683846 -1.014553 1.0393645 -2.1284856e+38
2.6683736 -1.019273 1.0393645 -2.1284856e+38
2.686347 -1.0309085 1.0379074 -2.1417261e+38
2.686336 -1.0356627 1.0379074 -2.1417265e+38
2.7043092 -1.0474011 1.0364501 -2.155175e+38
2.7042983 -1.0521896 1.0364501 -2.1684683e+38
2.722271 -1.0640308 1.0349931 -2.1684176e+38
2.72226 -1.0688536 1.0349931 -2.1549125e+38
2.722249 -1.0736765 1.0349931 -1.9406735e+38
2.7222378 -1.0784993 1.0349931 -1.7305609e+38
2.7222269 -1.0833222 1.0349931 -3.2000008e+38
2.7222159 -1.088145 1.0349931 nan
2.7042215 -1.0857095 1.0364501 nan
2.7042105 -1.0904981 1.0364501 nan
2.8398714 -0.80208516 1.0204759 nan
2.83986 -0.80713087 1.0204759 -3.259569e+38
2.8398483 -0.81217659 1.0204759 -1.7014179e+38
2.8198495 -0.8115955 1.022133 -2.142249e+38
2.819838 -0.81660312 1.022133 -2.5948086e+38
2.8198266 -0.82161069 1.022133 -2.5414827e+38
2.8198152 -0.82661831 1.022133 -2.4881572e+38
2.8198037 -0.83162594 1.022133 -2.4348834e+38
2.8197923 -0.83663356 1.022133 -2.3949548e+38
2.8197808 -0.84164113 1.022133 -2.3549222e+38
2.8197694 -0.84664869 1.022133 -2.3147862e+38
2.8197579 -0.85165632 1.022133 -2.2883059e+38
2.8197463 -0.85666394 1.022133 -2.2749621e+38
2.8197348 -0.86167157 1.022133 -2.2483779e+38
2.8197234 -0.86667913 1.022133 -2.2217416e+38
2.8197119 -0.87168676 1.022133 -2.1951573e+38
2.8197005 -0.87669438 1.022133 -2.1818644e+38
2.819689 -0.88170201 1.022133 -2.1819155e+38
2.8196776 -0.88670957 1.022133 -2.1951553e+38
2.8196661 -0.8917172 1.022133 -2.1818624e+38
2.8196547 -0.89672482 1.022133 -2.1818102e+38
2.8196433 -0.90173244 1.022133 -2.1817581e+38
2.8196316 -0.90674001 1.022133 -2.1949985e+38
2.8196201 -0.91174757 1.022133 -2.1949463e+38
2.8196087 -0.9167552 1.022133 -2.2081869e+38
2.8195972 -0.92176282 1.022133 -2.2081869e+38
2.8195858 -0.92677045 1.022133 -2.2082392e+38
2.8195744 -0.93177801 1.022133 -2.2082396e+38
2.8195629 -0.93678564 1.022133 -2.2081883e+38
2.8195515 -0.94179326 1.022133 -2.2348254e+38
2.81954 -0.94680089 1.022133 -2.2615094e+38
2.8195286 -0.95180851 1.022133 -1.9943612e+38
2.7995324 -0.95008463 1.0237901 -1.7281169e+38
2.799521 -0.9550541 1.0237901 -2.8496177e+38
2.7995095 -0.96002358 1.0237901 nan
2.7795141 -0.95814729 1.0254474 nan
2.7795026 -0.96307874 1.0254474 nan
2.7794914 -0.96801013 1.0254474 nan
2.7604952 -0.96632951 1.0270216 -2.2467679e+38
2.7225142 -0.95792818 1.0301702 -2.2737139e+38
2.686532 -0.95008582 1.0331531 -2.3004037e+38
2.722492 -0.96757388 1.0301702 -2.2613069e+38
2.7044957 -0.96599555 1.0316616 -2.221481e+38
2.6864994 -0.96434861 1.0331531 -2.181603e+38
2.6864884 -0.96910292 1.0331531 -2.1416732e+38
2.6684926 -0.96735317 1.0346445 -2.0883992e+38
2.6684818 -0.97207314 1.0346445 -2.0351258e+38
2.6684709 -0.97679311 1.0346445 -2.0350735e+38
2.6684601 -0.98151308 1.0346445 -2.0349699e+38
2.6504643 -0.97959185 1.0361359 -2.0482621e+38
2.6504536 -0.98427755 1.0361359 -2.0748473e+38
2.6504428 -0.98896325 1.0361359 -2.0883479e+38
2.6504321 -0.99364901 1.0361359 -2.1150878e+38
2.668406 -1.005113 1.0346445 -2.1150353e+38
2.6683953 -1.009833 1.0346445 -2.1283803e+38
2.6683846 -1.014553 1.0346445 -2.1283809e+38
2.6683736 -1.019273 1.0346445 -2.1283813e+38
2.686347 -1.0309085 1.0331531 -2.1417259e+38
2.686336 -1.0356627 1.0331531 -2.1550184e+38
2.7043092 -1.0474011 1.0316616 -2.1817587e+38
2.7042983 -1.0521896 1.0316616 -2.2217923e+38
2.7042873 -1.0569782 1.0316616 -2.2351376e+38
2.72226 -1.0688536 1.0301702 -2.2486329e+38
2.722249 -1.0736765 1.0301702 -1.9944131e+38
2.7222378 -1.0784993 1.0301702 -1.7281217e+38
2.7222269 -1.0833222 1.0301702 -3.2649073e+38
2.7042325 -1.0809209 1.0316616 nan
2.6682546 -1.0711929 1.0346445 nan
2.6502604 -1.0686201 1.0361359 nan
2.83986 -0.80713087 1.0154302 -3.2834045e+38
2.8398483 -0.81217659 1.0154302 -1.7022505e+38
2.8198495 -0.8115955 1.0171254 -2.1430808e+38
2.819838 -0.81660312 1.0171254 -2.5815692e+38
2.8198266 -0.82161069 1.0171254 -2.5415877e+38
2.8198152 -0.82661831 1.0171254 -2.4882099e+38
2.8198037 -0.83162594 1.0171254 -2.4482282e+38
2.8197923 -0.83663356 1.0171254 -2.3949033e+38
2.8197808 -0.84164113 1.0171254 -2.3549228e+38
2.8197694 -0.84664869 1.0171254 -2.3017539e+38
2.8197579 -0.85165632 1.0171254 -2.2752215e+38
2.8197463 -0.85666394 1.0171254 -2.2484816e+38
2.8197348 -0.86167157 1.0171254 -2.2351378e+38
2.8197234 -0.86667913 1.0171254 -2.2085013e+38
2.8197119 -0.87168676 1.0171254 -2.1686244e+38
2.8197005 -0.87669438 1.0171254 -2.1286949e+38
2.819689 -0.88170201 1.0171254 -2.1553307e+38
2.8196776 -0.88670957 1.0171254 -2.1685705e+38
2.8196661 -0.8917172 1.0171254 -2.1685701e+38
2.8196547 -0.89672482 1.0171254 -2.1552257e+38
2.8196433 -0.90173244 1.0171254 -2.1817581e+38
2.8196316 -0.90674001 1.0171254 -2.2082907e+38
2.8196201 -0.91174757 1.0171254 -2.2215311e+38
2.8196087 -0.9167552 1.0171254 -2.2214275e+38
2.8195972 -0.92176282 1.0171254 -2.2214277e+38
2.8195858 -0.92677045 1.0171254 -2.2214798e+38
2.8195744 -0.93177801 1.0171254 -2.22148e+38
2.8195629 -0.93678564 1.0171254 -2.2082398e+38
2.8195515 -0.94179326 1.0171254 -2.2348248e+38
2.81954 -0.94680089 1.0171254 -2.261095e+38
2.8195286 -0.95180851 1.0171254 -1.9940525e+38
2.7995324 -0.95008463 1.0188206 -1.7154982e+38
2.799521 -0.9550541 1.0188206 -2.6744241e+38
2.7995095 -0.96002358 1.0188206 nan
2.7994981 -0.96499312 1.0188206 nan
2.7795026 -0.96307874 1.0205159 nan
2.7794914 -0.96801013 1.0205159 nan
2.7415102 -0.95971739 1.0237368 -1.7019374e+38
2.7225142 -0.95792818 1.0253474 -2.0218865e+38
2.7045176 -0.95641845 1.026873 -2.3276623e+38
2.7045066 -0.96120703 1.026873 -2.2749621e+38
2.7044957 -0.96599555 1.026873 -2.2082922e+38
2.6864994 -0.96434861 1.0283988 -2.1816549e+38
2.6685033 -0.96263313 1.0299245 -2.1549657e+38
2.6684926 -0.96735317 1.0299245 -2.1017438e+38
2.6684818 -0.97207314 1.0299245 -2.0350222e+38
2.6684709 -0.97679311 1.0299245 -2.0349699e+38
2.6684601 -0.98151308 1.0299245 -2.0215739e+38
2.6504643 -0.97959185 1.0314502 -2.0481587e+38
2.6504536 -0.98427755 1.0314502 -2.0748996e+38
2.6504428 -0.98896325 1.0314502 -2.1016404e+38
2.6504321 -0.99364901 1.0314502 -2.1149322e+38
2.6504214 -0.99833465 1.0314502 -2.114932e+38
2.6504107 -1.0030203 1.0314502 -2.1150363e+38
2.6503999 -1.007706 1.0314502 -2.1150369e+38
2.6683736 -1.019273 1.0299245 -2.1150892e+38
2.6683629 -1.0239929 1.0299245 -2.1416744e+38
2.686336 -1.0356627 1.0283988 -2.168363e+38
2.6863251 -1.040417 1.0283988 -2.2215323e+38
2.7042983 -1.0521896 1.026873 -2.2616698e+38
2.7042873 -1.0569782 1.026873 -2.3016515e+38
2.72226 -1.0688536 1.0253474 -2.3411079e+38
2.722249 -1.0736765 1.0253474 -2.0337188e+38
2.7222378 -1.0784993 1.0253474 -1.7307708e+38
2.7222269 -1.0833222 1.0253474 -3.3471556e+38
2.7222159 -1.088145 1.0253474 nan
2.6682546 -1.0711929 1.0299245 nan
2.6502604 -1.0686201 1.0314502 nan
2.83986 -0.80713087 1.0103844 -3.2861073e+38
2.8398483 -0.81217659 1.0103844 -1.7014737e+38
2.8398368 -0.81722224 1.0103844 -2.1555433e+38
2.819838 -0.81660312 1.0121179 -2.5949147e+38
2.8198266 -0.82161069 1.0121179 -2.5415368e+38
2.8198152 -0.82661831 1.0121179 -2.4747627e+38
2.8198037 -0.83162594 1.0121179 -2.4348844e+38
2.8197923 -0.83663356 1.0121179 -2.3815597e+38
2.8197808 -0.84164113 1.0121179 -2.3417348e+38
2.8197694 -0.84664869 1.0121179 -2.3019101e+38
2.8197579 -0.85165632 1.0121179 -2.2751698e+38
2.8197463 -0.85666394 1.0121179 -2.2484818e+38
2.8197348 -0.86167157 1.0121179 -2.2351378e+38
2.8397098 -0.87272495 1.0103844 -2.2350858e+38
2.8197119 -0.87168676 1.0121179 -2.2217414e+38
2.8197005 -0.87669438 1.0121179 -2.2083964e+38
2.819689 -0.88170201 1.0121179 -2.1951553e+38
2.8196776 -0.88670957 1.0121179 -2.1951029e+38
2.8196661 -0.8917172 1.0121179 -2.1818102e+38
2.8196547 -0.89672482 1.0121179 -2.1684141e+38
2.8196433 -0.90173244 1.0121179 -2.1817581e+38
2.8196316 -0.90674001 1.0121179 -2.208291e+38
2.8196201 -0.91174757 1.0121179 -2.2081871e+38
2.8196087 -0.9167552 1.0121179 -2.2212719e+38
2.8195972 -0.92176282 1.0121179 -2.2214279e+38
2.8195858 -0.92677045 1.0121179 -2.2215317e+38
2.8195744 -0.93177801 1.0121179 -2.2214798e+38
2.8195629 -0.93678564 1.0121179 -2.2215319e+38
2.8195515 -0.94179326 1.0121179 -2.2348761e+38
2.81954 -0.94680089 1.0121179 -2.2615635e+38
2.8195286 -0.95180851 1.0121179 -1.9812821e+38
2.7995324 -0.95008463 1.0138512 -1.7148218e+38
2.799521 -0.9550541 1.0138512 -2.6355281e+38
2.7995095 -0.96002358 1.0138512 nan
2.7994981 -0.96499312 1.0138512 nan
2.7994869 -0.96996266 1.0138512 nan
2.7605064 -0.96143425 1.0172311 -3.3663756e+38
2.7415102 -0.95971739 1.0188777 -1.7014153e+38
2.7045286 -0.95162994 1.0220845 -2.0216778e+38
2.686532 -0.95008582 1.0236444 -2.327973e+38
2.7045066 -0.96120703 1.0220845 -2.2749093e+38
2.6865103 -0.95959431 1.0236444 -2.2348763e+38
2.6864994 -0.96434861 1.0236444 -2.1949472e+38
2.6685033 -0.96263313 1.0252044 -2.1681543e+38
2.6684926 -0.96735317 1.0252044 -2.1148805e+38
2.6684818 -0.97207314 1.0252044 -2.0746396e+38
2.6684709 -0.97679311 1.0252044 -2.0481583e+38
2.6684601 -0.98151308 1.0252044 -2.0213664e+38
2.6504643 -0.97959185 1.0267645 -2.0349187e+38
2.6504536 -0.98427755 1.0267645 -2.0616595e+38
2.6504428 -0.98896325 1.0267645 -2.0882444e+38
2.6504321 -0.99364901 1.0267645 -2.1281211e+38
2.6504214 -0.99833465 1.0267645 -2.141517e+38
2.6504107 -1.0030203 1.0267645 -2.1416732e+38
2.6503999 -1.007706 1.0267645 -2.1417774e+38
2.6683736 -1.019273 1.0252044 -2.1284338e+38
2.6683629 -1.0239929 1.0252044 -2.168363e+38
2.686336 -1.0356627 1.0236444 -2.2082922e+38
2.7043092 -1.0474011 1.0220845 -2.2482733e+38
2.7042983 -1.0521896 1.0220845 -2.2883069e+38
2.7042873 -1.0569782 1.0220845 -2.3282884e+38
2.72226 -1.0688536 1.0205245 -2.3549715e+38
2.722249 -1.0736765 1.0205245 -2.0475823e+38
2.7222378 -1.0784993 1.0205245 -1.728072e+38
2.7222269 -1.0833222 1.0205245 -3.3719248e+38
2.7222159 -1.088145 1.0205245 nan
2.6862381 -1.0784512 1.0236444 nan
2.8398483 -0.81217659 1.0053388 -1.7021471e+38
2.8398368 -0.81722224 1.0053388 -2.1561143e+38
2.8398252 -0.82226795 1.0053388 -2.608051e+38
2.8398137 -0.82731366 1.0053388 -2.5414849e+38
2.8198152 -0.82661831 1.0071101 -2.4615225e+38
2.8198037 -0.83162594 1.0071101 -2.4216449e+38
2.8197923 -0.83663356 1.0071101 -2.3683715e+38
2.8197808 -0.84164113 1.0071101 -2.3284945e+38
2.8197694 -0.84664869 1.0071101 -2.2885138e+38
2.8197579 -0.85165632 1.0071101 -2.2617734e+38
2.8197463 -0.85666394 1.0071101 -2.2351889e+38
2.8197348 -0.86167157 1.0071101 -2.2484294e+38
2.8397098 -0.87272495 1.0053388 -2.2616696e+38
2.8197119 -0.87168676 1.0071101 -2.2749099e+38
2.8197005 -0.87669438 1.0071101 -2.2881497e+38
2.819689 -0.88170201 1.0071101 -2.2482724e+38
2.8196776 -0.88670957 1.0071101 -2.2083952e+38
2.8196661 -0.8917172 1.0071101 -2.1951025e+38
2.8196547 -0.89672482 1.0071101 -2.168466e+38
2.8196433 -0.90173244 1.0071101 -2.1817583e+38
2.8196316 -0.90674001 1.0071101 -2.1949989e+38
2.8196201 -0.91174757 1.0071101 -2.2082394e+38
2.8196087 -0.9167552 1.0071101 -2.2214798e+38
2.8195972 -0.92176282 1.0071101 -2.2214281e+38
2.8195858 -0.92677045 1.0071101 -2.2081877e+38
2.8195744 -0.93177801 1.0071101 -2.2213761e+38
2.8195629 -0.93678564 1.0071101 -2.22148e+38
2.8195515 -0.94179326 1.0071101 -2.2347721e+38
2.81954 -0.94680089 1.0071101 -2.2479061e+38
2.8195286 -0.95180851 1.0071101 -1.9812795e+38
2.7995324 -0.95008463 1.0088816 -1.7156012e+38
2.799521 -0.9550541 1.0088816 -2.6078571e+38
2.7995095 -0.96002358 1.0088816 nan
2.7994981 -0.96499312 1.0088816 nan
2.7994869 -0.96996266 1.0088816 nan
2.7605064 -0.96143425 1.0123359 -3.3364671e+38
2.7415102 -0.95971739 1.0140188 -1.7018836e+38
2.7045286 -0.95162994 1.0172958 -2.022096e+38
2.686532 -0.95008582 1.0188901 -2.3280783e+38
2.6865211 -0.95484006 1.0188901 -2.2883057e+38
2.6865103 -0.95959431 1.0188901 -2.2482205e+38
2.6685143 -0.95791316 1.0204844 -2.2082912e+38
2.6685033 -0.96263313 1.0204844 -2.1683097e+38
2.6684926 -0.96735317 1.0204844 -2.1416204e+38
2.6684818 -0.97207314 1.0204844 -2.1015351e+38
2.6684709 -0.97679311 1.0204844 -2.0616057e+38
2.6684601 -0.98151308 1.0204844 -2.0215735e+38
2.6684494 -0.98623306 1.0204844 -2.0349701e+38
2.6684384 -0.99095309 1.0204844 -2.0349189e+38
2.6684277 -0.99567306 1.0204844 -2.0880372e+38
2.668417 -1.000393 1.0204844 -2.1413622e+38
2.6504214 -0.99833465 1.0220788 -2.1548107e+38
2.6504107 -1.0030203 1.0220788 -2.1684664e+38
2.6503999 -1.007706 1.0220788 -2.155278e+38
2.6503892 -1.0123918 1.0220788 -2.1418819e+38
2.6683629 -1.0239929 1.0204844 -2.1949474e+38
2.6683521 -1.028713 1.0204844 -2.2350325e+38
2.6863251 -1.040417 1.0188901 -2.2750136e+38
2.6863143 -1.0451713 1.0188901 -2.3149955e+38
2.7042873 -1.0569782 1.0172958 -2.3416332e+38
2.7042763 -1.0617667 1.0172958 -2.3677448e+38
2.7042654 -1.0665553 1.0172958 -2.0470111e+38
2.7222378 -1.0784993 1.0157017 -1.7310321e+38
2.7222269 -1.0833222 1.0157017 nan
2.7222159 -1.088145 1.0157017 nan
2.7222049 -1.0929679 1.0157017 nan
2.8398483 -0.81217659 1.000293 -1.7014185e+38
2.8398368 -0.81722224 1.000293 -2.1684196e+38
2.8398252 -0.82226795 1.000293 -2.6212392e+38
2.8398137 -0.82731366 1.000293 -2.5546214e+38
2.8198152 -0.82661831 1.0021026 -2.4746075e+38
2.8198037 -0.83162594 1.0021026 -2.4214897e+38
2.8197923 -0.83663356 1.0021026 -2.3682681e+38
2.8197808 -0.84164113 1.0021026 -2.3283904e+38
2.8197694 -0.84664869 1.0021026 -2.301702e+38
2.8197579 -0.85165632 1.0021026 -2.2751174e+38
2.8197463 -0.85666394 1.0021026 -2.2617211e+38
2.8197348 -0.86167157 1.0021026 -2.2617209e+38
2.8397098 -0.87272495 1.000293 -2.261669e+38
2.8197119 -0.87168676 1.0021026 -2.2749091e+38
2.8197005 -0.87669438 1.0021026 -2.2880974e+38
2.819689 -0.88170201 1.0021026 -2.2482203e+38
2.8196776 -0.88670957 1.0021026 -2.2215836e+38
2.8196661 -0.8917172 1.0021026 -2.1951025e+38
2.8196547 -0.89672482 1.0021026 -2.168466e+38
2.8196433 -0.90173244 1.0021026 -2.1817583e+38
2.8196316 -0.90674001 1.0021026 -2.1949472e+38
2.8196201 -0.91174757 1.0021026 -2.2082916e+38
2.8196087 -0.9167552 1.0021026 -2.2083437e+38
2.8195972 -0.92176282 1.0021026 -2.2082918e+38
2.8195858 -0.92677045 1.0021026 -2.2082918e+38
2.8195744 -0.93177801 1.0021026 -2.2215321e+38
2.8195629 -0.93678564 1.0021026 -2.2348761e+38
2.8195515 -0.94179326 1.0021026 -2.2348238e+38
2.81954 -0.94680089 1.0021026 -2.234924e+38
2.8195286 -0.95180851 1.0021026 -1.9812766e+38
2.7995324 -0.95008463 1.0039121 -1.714823e+38
2.799521 -0.9550541 1.0039121 -2.5423341e+38
2.7995095 -0.96002358 1.0039121 -3.3719699e+38
2.7994981 -0.96499312 1.0039121 nan
2.7994869 -0.96996266 1.0039121 nan
2.7605064 -0.96143425 1.0074407 -3.3128412e+38
2.7604952 -0.96632951 1.0074407 -1.7014173e+38
2.7045286 -0.95162994 1.0125073 -2.0219431e+38
2.686532 -0.95008582 1.0141358 -2.3415279e+38
2.7045066 -0.96120703 1.0125073 -2.2881499e+38
2.6865103 -0.95959431 1.0141358 -2.2480648e+38
2.6864994 -0.96434861 1.0141358 -2.208291e+38
2.6685033 -0.96263313 1.0157645 -2.1817054e+38
2.6684926 -0.96735317 1.0157645 -2.154964e+38
2.6684818 -0.97207314 1.0157645 -2.1282231e+38
2.6684709 -0.97679311 1.0157645 -2.0881897e+38
2.6684601 -0.98151308 1.0157645 -2.0480536e+38
2.6684494 -0.98623306 1.0157645 -2.0349175e+38
2.6684384 -0.99095309 1.0157645 -2.0348151e+38
2.6684277 -0.99567306 1.0157645 -2.0748489e+38
2.668417 -1.000393 1.0157645 -2.1280708e+38
2.668406 -1.005113 1.0157645 -2.1550715e+38
2.6683953 -1.009833 1.0157645 -2.1821749e+38
2.6503999 -1.007706 1.017393 -2.1819668e+38
2.6503892 -1.0123918 1.017393 -2.1819147e+38
2.6503785 -1.0170774 1.017393 -2.2217913e+38
2.6683521 -1.028713 1.0157645 -2.2618245e+38
2.6683412 -1.033433 1.0157645 -2.2751694e+38
2.6863143 -1.0451713 1.0141358 -2.2885669e+38
2.7042873 -1.0569782 1.0125073 -2.222055e+38
2.7042763 -1.0617667 1.0125073 -2.168984e+38
2.7042654 -1.0665553 1.0125073 -1.9412959e+38
2.7222378 -1.0784993 1.0108788 -1.7281248e+38
2.7222269 -1.0833222 1.0108788 nan
2.7222159 -1.088145 1.0108788 nan
2.7222049 -1.0929679 1.0108788 nan
2.8398483 -0.81217659 0.9952473 -1.702041e+38
2.8398368 -0.81722224 0.9952473 -2.1683137e+38
2.8398252 -0.82226795 0.9952473 -2.6342706e+38
2.8398137 -0.82731366 0.9952473 -2.5679135e+38
2.8198152 -0.82661831 0.99709493 -2.4880034e+38
2.8198037 -0.83162594 0.99709493 -2.4214895e+38
2.8197923 -0.83663356 0.99709493 -2.3550277e+38
2.8197808 -0.84164113 0.99709493 -2.3417348e+38
2.8197694 -0.84664869 0.99709493 -2.3150981e+38
2.8197579 -0.85165632 0.99709493 -2.3017539e+38
2.8197463 -0.85666394 0.99709493 -2.2750653e+38
2.8197348 -0.86167157 0.99709493 -2.2750134e+38
2.8397098 -0.87272495 0.9952473 -2.2617209e+38
2.8197119 -0.87168676 0.99709493 -2.2749611e+38
2.8197005 -0.87669438 0.99709493 -2.2881491e+38
2.819689 -0.88170201 0.99709493 -2.2615124e+38
2.8196776 -0.88670957 0.99709493 -2.2216875e+38
2.8196661 -0.8917172 0.99709493 -2.1951548e+38
2.8196547 -0.89672482 0.99709493 -2.1685184e+38
2.8196433 -0.90173244 0.99709493 -2.1817587e+38
2.8196316 -0.90674001 0.99709493 -2.1950514e+38
2.8196201 -0.91174757 0.99709493 -2.195052e+38
2.8196087 -0.9167552 0.99709493 -2.1951557e+38
2.8195972 -0.92176282 0.99709493 -2.2084479e+38
2.8195858 -0.92677045 0.99709493 -2.2083437e+38
2.8195744 -0.93177801 0.99709493 -2.2215836e+38
2.8195629 -0.93678564 0.99709493 -2.2348236e+38
2.8195515 -0.94179326 0.99709493 -2.2347715e+38
2.81954 -0.94680089 0.99709493 -2.2212171e+38
2.8195286 -0.95180851 0.99709493 -1.9674672e+38
2.7995324 -0.95008463 0.99894255 -1.7153388e+38
2.799521 -0.9550541 0.99894255 -2.4745661e+38
2.819494 -0.96683127 0.99709493 -3.2381601e+38
2.7994981 -0.96499312 0.99894255 nan
2.7994869 -0.96996266 0.99894255 nan
2.7794914 -0.96801013 1.0007901 -3.2834012e+38
2.7604952 -0.96632951 1.0025454 -1.7020404e+38
2.7225142 -0.95792818 1.0060558 -2.02267e+38
2.7045176 -0.95641845 1.0077188 -2.3413722e+38
2.7045066 -0.96120703 1.0077188 -2.2879945e+38
2.6865103 -0.95959431 1.0093817 -2.2348244e+38
2.6864994 -0.96434861 1.0093817 -2.2082907e+38
2.6685033 -0.96263313 1.0110445 -2.1816539e+38
2.6684926 -0.96735317 1.0110445 -2.1682571e+38
2.6684818 -0.97207314 1.0110445 -2.14162e+38
2.6684709 -0.97679311 1.0110445 -2.1149312e+38
2.6684601 -0.98151308 1.0110445 -2.0749505e+38
2.6684494 -0.98623306 1.0110445 -2.0483662e+38
2.6684384 -0.99095309 1.0110445 -2.0217824e+38
2.6684277 -0.99567306 1.0110445 -2.0617639e+38
2.668417 -1.000393 1.0110445 -2.101745e+38
2.668406 -1.005113 1.0110445 -2.1551222e+38
2.6683953 -1.009833 1.0110445 -2.1951551e+38
2.6503999 -1.007706 1.0127074 -2.2083954e+38
2.6503892 -1.0123918 1.0127074 -2.2085514e+38
2.6683629 -1.0239929 1.0110445 -2.2485321e+38
2.6683521 -1.028713 1.0110445 -2.275169e+38
2.6683412 -1.033433 1.0110445 -2.2751694e+38
2.6683304 -1.0381529 1.0110445 -2.2619292e+38
2.6863034 -1.0499254 1.0093817 -2.1156103e+38
2.6862924 -1.0546798 1.0093817 -1.955735e+38
2.7042654 -1.0665553 1.0077188 -1.8343346e+38
2.7042544 -1.0713438 1.0077188 -1.7179485e+38
2.7042434 -1.0761323 1.0077188 nan
2.7042325 -1.0809209 1.0077188 nan
2.7222049 -1.0929679 1.0060558 nan
2.8398483 -0.81217659 0.99020159 -1.7014173e+38
2.8398368 -0.81722224 0.99020159 -2.1015387e+38
2.8398252 -0.82226795 0.99020159 -2.488418e+38
2.8398137 -0.82731366 0.99020159 -2.474971e+38
2.8198152 -0.82661831 0.9920873 -2.4747109e+38
2.8198037 -0.83162594 0.9920873 -2.4215412e+38
2.8197923 -0.83663356 0.9920873 -2.36832e+38
2.8197808 -0.84164113 0.9920873 -2.3550273e+38
2.8197694 -0.84664869 0.9920873 -2.3283906e+38
2.8197579 -0.85165632 0.9920873 -2.315046e+38
2.8197463 -0.85666394 0.9920873 -2.2884095e+38
2.8197348 -0.86167157 0.9920873 -2.2751172e+38
2.8197234 -0.86667913 0.9920873 -2.2750132e+38
2.8197119 -0.87168676 0.9920873 -2.2749609e+38
2.8197005 -0.87669438 0.9920873 -2.2749087e+38
2.819689 -0.88170201 0.9920873 -2.261616e+38
2.8196776 -0.88670957 0.9920873 -2.2350317e+38
2.8196661 -0.8917172 0.9920873 -2.2217396e+38
2.8196547 -0.89672482 0.9920873 -2.1951033e+38
2.8196433 -0.90173244 0.9920873 -2.1951553e+38
2.8196316 -0.90674001 0.9920873 -2.2085001e+38
2.8196201 -0.91174757 0.9920873 -2.2085526e+38
2.8196087 -0.9167552 0.9920873 -2.2087082e+38
2.8195972 -0.92176282 0.9920873 -2.2085003e+38
2.8195858 -0.92677045 0.9920873 -2.221636e+38
2.8195744 -0.93177801 0.9920873 -2.2215832e+38
2.8195629 -0.93678564 0.9920873 -2.221479e+38
2.8195515 -0.94179326 0.9920873 -2.2082382e+38
2.81954 -0.94680089 0.9920873 -2.2083408e+38
2.8195286 -0.95180851 0.9920873 -1.9680401e+38
2.7995324 -0.95008463 0.99397302 -1.7147644e+38
2.799521 -0.9550541 0.99397302 -2.3686346e+38
2.819494 -0.96683127 0.9920873 -3.0120835e+38
2.8194826 -0.97183889 0.9920873 nan
2.7994869 -0.96996266 0.99397302 nan
2.7794914 -0.96801013 0.99585879 -3.3130495e+38
2.7604952 -0.96632951 0.99765015 -1.7014175e+38
2.7225142 -0.95792818 1.0012331 -2.021995e+38
2.7225029 -0.96275103 1.0012331 -2.3411647e+38
2.7045066 -0.96120703 1.0029302 -2.2880467e+38
2.6865103 -0.95959431 1.0046273 -2.2348763e+38
2.6864994 -0.96434861 1.0046273 -2.2083425e+38
2.6685033 -0.96263313 1.0063245 -2.181706e+38
2.6684926 -0.96735317 1.0063245 -2.1683618e+38
2.6684818 -0.97207314 1.0063245 -2.1549653e+38
2.6684709 -0.97679311 1.0063245 -2.1150361e+38
2.6684601 -0.98151308 1.0063245 -2.0883477e+38
2.6684494 -0.98623306 1.0063245 -2.0750552e+38
2.6684384 -0.99095309 1.0063245 -2.0617631e+38
2.6504428 -0.98896325 1.0080216 -2.0884517e+38
2.6504321 -0.99364901 1.0080216 -2.1151403e+38
2.668406 -1.005113 1.0063245 -2.1417768e+38
2.6504107 -1.0030203 1.0080216 -2.1817581e+38
2.6503999 -1.007706 1.0080216 -2.1951029e+38
2.6503892 -1.0123918 1.0080216 -2.2085514e+38
2.6683629 -1.0239929 1.0063245 -2.2352402e+38
2.6683521 -1.028713 1.0063245 -2.2619288e+38
2.6683412 -1.033433 1.0063245 -2.2752213e+38
2.6683304 -1.0381529 1.0063245 -2.3018565e+38
2.6863034 -1.0499254 1.0046273 -2.2354459e+38
2.6862924 -1.0546798 1.0046273 -2.1559487e+38
2.6862817 -1.0594341 1.0046273 -1.9413479e+38
2.7042544 -1.0713438 1.0029302 -1.728022e+38
2.7042434 -1.0761323 1.0029302 nan
2.7042325 -1.0809209 1.0029302 nan
2.7222049 -1.0929679 1.0012331 nan
2.8398368 -0.81722224 0.98515594 -2.0214176e+38
2.8398252 -0.82226795 0.98515594 -2.3415776e+38
2.8398137 -0.82731366 0.98515594 -2.3953207e+38
2.8198152 -0.82661831 0.98707974 -2.4483337e+38
2.8198037 -0.83162594 0.98707974 -2.421697e+38
2.8197923 -0.83663356 0.98707974 -2.3817161e+38
2.8197808 -0.84164113 0.98707974 -2.36832e+38
2.8197694 -0.84664869 0.98707974 -2.3416314e+38
2.8197579 -0.85165632 0.98707974 -2.328287e+38
2.8197463 -0.85666394 0.98707974 -2.3017024e+38
2.8197348 -0.86167157 0.98707974 -2.288514e+38
2.8197234 -0.86667913 0.98707974 -2.2750655e+38
2.8197119 -0.87168676 0.98707974 -2.2750132e+38
2.8197005 -0.87669438 0.98707974 -2.2617207e+38
2.819689 -0.88170201 0.98707974 -2.2616686e+38
2.8196776 -0.88670957 0.98707974 -2.2484282e+38
2.8196661 -0.8917172 0.98707974 -2.2351359e+38
2.8196547 -0.89672482 0.98707974 -2.2218437e+38
2.8196433 -0.90173244 0.98707974 -2.2218958e+38
2.8196316 -0.90674001 0.98707974 -2.2086039e+38
2.8196201 -0.91174757 0.98707974 -2.2219485e+38
2.8196087 -0.9167552 0.98707974 -2.2218443e+38
2.8195972 -0.92176282 0.98707974 -2.2216879e+38
2.8195858 -0.92677045 0.98707974 -2.2216356e+38
2.8195744 -0.93177801 0.98707974 -2.208239e+38
2.8195629 -0.93678564 0.98707974 -2.1949467e+38
2.8195515 -0.94179326 0.98707974 -2.1949465e+38
2.81954 -0.94680089 0.98707974 -2.1948425e+38
2.8195286 -0.95180851 0.98707974 -1.9550099e+38
2.8195169 -0.95681608 0.98707974 -1.7150745e+38
2.8195055 -0.96182364 0.98707974 -2.2465067e+38
2.819494 -0.96683127 0.98707974 -2.7850738e+38
2.8194826 -0.97183889 0.98707974 nan
2.7994869 -0.96996266 0.98900354 nan
2.7794914 -0.96801013 0.99092734 -3.3367787e+38
2.7604952 -0.96632951 0.99275494 -1.7020927e+38
2.7414989 -0.96457648 0.99458253 -2.0227738e+38
2.7225029 -0.96275103 0.99641019 -2.3414762e+38
2.7045066 -0.96120703 0.99814165 -2.2882024e+38
2.6865103 -0.95959431 0.99987304 -2.2350323e+38
2.6864994 -0.96434861 0.99987304 -2.2084467e+38
2.6685033 -0.96263313 1.0016044 -2.1685178e+38
2.6684926 -0.96735317 1.0016044 -2.1684658e+38
2.6684818 -0.97207314 1.0016044 -2.1550693e+38
2.6684709 -0.97679311 1.0016044 -2.1284326e+38
2.6684601 -0.98151308 1.0016044 -2.1017438e+38
2.6684494 -0.98623306 1.0016044 -2.1017436e+38
2.6684384 -0.99095309 1.0016044 -2.0884515e+38
2.6684277 -0.99567306 1.0016044 -2.101744e+38
2.668417 -1.000393 1.0016044 -2.1150884e+38
2.668406 -1.005113 1.0016044 -2.1416732e+38
2.6683953 -1.009833 1.0016044 -2.1551218e+38
2.6683846 -1.014553 1.0016044 -2.1817589e+38
2.6683736 -1.019273 1.0016044 -2.2084479e+38
2.6683629 -1.0239929 1.0016044 -2.2218447e+38
2.6683521 -1.028713 1.0016044 -2.2352933e+38
2.6683412 -1.033433 1.0016044 -2.288515e+38
2.6683304 -1.0381529 1.0016044 -2.3417884e+38
2.6863034 -1.0499254 0.99987304 -2.355081e+38
2.6862924 -1.0546798 0.99987304 -2.3545565e+38
2.6862817 -1.0594341 0.99987304 -2.0470115e+38
2.6862707 -1.0641884 0.99987304 -1.7314491e+38
2.7042434 -1.0761323 0.99814165 nan
2.7042325 -1.0809209 0.99814165 nan
2.7222049 -1.0929679 0.99641019 nan
2.8398252 -0.82226795 0.98011017 -2.0225607e+38
2.8198266 -0.82161069 0.98207211 -2.2357091e+38
2.8198152 -0.82661831 0.98207211 -2.4350931e+38
2.8198037 -0.83162594 0.98207211 -2.4085084e+38
2.8197923 -0.83663356 0.98207211 -2.3817682e+38
2.8197808 -0.84164113 0.98207211 -2.3683202e+38
2.8197694 -0.84664869 0.98207211 -2.3548721e+38
2.8197579 -0.85165632 0.98207211 -2.3282874e+38
2.8197463 -0.85666394 0.98207211 -2.301547e+38
2.8197348 -0.86167157 0.98207211 -2.2883586e+38
2.8197234 -0.86667913 0.98207211 -2.2749621e+38
2.8197119 -0.87168676 0.98207211 -2.261773e+38
2.8197005 -0.87669438 0.98207211 -2.261825e+38
2.7997031 -0.87554193 0.984034 -2.2617728e+38
2.7996917 -0.88051146 0.984034 -2.2484803e+38
2.7996802 -0.88548094 0.984034 -2.2485321e+38
2.7996688 -0.89045048 0.984034 -2.2352919e+38
2.7996576 -0.89541996 0.984034 -2.2219477e+38
2.7996461 -0.90038949 0.984034 -2.222e+38
2.8196201 -0.91174757 0.98207211 -2.2218445e+38
2.8196087 -0.9167552 0.98207211 -2.221636e+38
2.8195972 -0.92176282 0.98207211 -2.2216871e+38
2.8195858 -0.92677045 0.98207211 -2.208291e+38
2.8195744 -0.93177801 0.98207211 -2.1950506e+38
2.8195629 -0.93678564 0.98207211 -2.1950508e+38
2.8195515 -0.94179326 0.98207211 -2.195051e+38
2.81954 -0.94680089 0.98207211 -2.2083439e+38
2.8195286 -0.95180851 0.98207211 -2.0880909e+38
2.8195169 -0.95681608 0.98207211 -1.9674189e+38
2.8195055 -0.96182364 0.98207211 -2.1683575e+38
2.819494 -0.96683127 0.98207211 -2.3593028e+38
2.8194826 -0.97183889 0.98207211 nan
2.7994869 -0.96996266 0.984034 nan
2.7794914 -0.96801013 0.98599589 -3.353031e+38
2.7794802 -0.97294158 0.98599589 -1.7014179e+38
2.7414989 -0.96457648 0.9897235 -2.035495e+38
2.7225029 -0.96275103 0.99158734 -2.3549243e+38
2.7045066 -0.96120703 0.99335301 -2.3017024e+38
2.6865103 -0.95959431 0.99511874 -2.2484286e+38
2.6864994 -0.96434861 0.99511874 -2.2084991e+38
2.6685033 -0.96263313 0.99688447 -2.1818104e+38
2.6684926 -0.96735317 0.99688447 -2.1684658e+38
2.6684818 -0.97207314 0.99688447 -2.1551214e+38
2.6684709 -0.97679311 0.99688447 -2.1284328e+38
2.6684601 -0.98151308 0.99688447 -2.1150363e+38
2.6684494 -0.98623306 0.99688447 -2.1017436e+38
2.6684384 -0.99095309 0.99688447 -2.0884515e+38
2.6684277 -0.99567306 0.99688447 -2.101744e+38
2.668417 -1.000393 0.99688447 -2.1150884e+38
2.668406 -1.005113 0.99688447 -2.1284328e+38
2.6683953 -1.009833 0.99688447 -2.1550699e+38
2.6683846 -1.014553 0.99688447 -2.181707e+38
2.6683736 -1.019273 0.99688447 -2.2083445e+38
2.6683629 -1.0239929 0.99688447 -2.2217934e+38
2.6683521 -1.028713 0.99688447 -2.2485866e+38
2.6683412 -1.033433 0.99688447 -2.3018087e+38
2.6683304 -1.0381529 0.99688447 -2.3418952e+38
2.6863034 -1.0499254 0.99511874 -2.3019164e+38
2.6862924 -1.0546798 0.99511874 -2.2753764e+38
2.6862817 -1.0594341 0.99511874 -2.0477906e+38
2.6862707 -1.0641884 0.99511874 -1.8215877e+38
2.7042434 -1.0761323 0.99335301 nan
2.7042325 -1.0809209 0.99335301 nan
2.7222049 -1.0929679 0.99158734 nan
2.819838 -0.81660312 0.97706449 -1.7027152e+38
2.8198266 -0.82161069 0.97706449 -2.0632204e+38
2.8198152 -0.82661831 0.97706449 -2.4221118e+38
2.8198037 -0.83162594 0.97706449 -2.3954234e+38
2.8197923 -0.83663356 0.97706449 -2.3685794e+38
2.8197808 -0.84164113 0.97706449 -2.3682683e+38
2.8197694 -0.84664869 0.97706449 -2.354976e+38
2.8197579 -0.85165632 0.97706449 -2.3283395e+38
2.8197463 -0.85666394 0.97706449 -2.3017028e+38
2.8197348 -0.86167157 0.97706449 -2.2884101e+38
2.8197234 -0.86667913 0.97706449 -2.2618252e+38
2.8197119 -0.87168676 0.97706449 -2.2618769e+38
2.8197005 -0.87669438 0.97706449 -2.2618767e+38
2.819689 -0.88170201 0.97706449 -2.2618767e+38
2.8196776 -0.88670957 0.97706449 -2.2485844e+38
2.8196661 -0.8917172 0.97706449 -2.2485844e+38
2.8196547 -0.89672482 0.97706449 -2.2485325e+38
2.8196433 -0.90173244 0.97706449 -2.2351361e+38
2.8196316 -0.90674001 0.97706449 -2.2218441e+38
2.8196201 -0.91174757 0.97706449 -2.2216883e+38
2.8196087 -0.9167552 0.97706449 -2.2217917e+38
2.8195972 -0.92176282 0.97706449 -2.2084473e+38
2.8195858 -0.92677045 0.97706449 -2.1951033e+38
2.8195744 -0.93177801 0.97706449 -2.1951555e+38
2.8195629 -0.93678564 0.97706449 -2.1817597e+38
2.8195515 -0.94179326 0.97706449 -2.1950522e+38
2.81954 -0.94680089 0.97706449 -2.2083451e+38
2.8195286 -0.95180851 0.97706449 -2.2215344e+38
2.8195169 -0.95681608 0.97706449 -2.2208549e+38
2.8195055 -0.96182364 0.97706449 -2.0735969e+38
2.819494 -0.96683127 0.97706449 -1.9323394e+38
2.8194826 -0.97183889 0.97706449 nan
2.7994869 -0.96996266 0.97906446 nan
2.7994754 -0.97493219 0.97906446 -3.3764539e+38
2.7794802 -0.97294158 0.98106444 -1.702096e+38
2.7414989 -0.96457648 0.98486447 -2.0362744e+38
2.741488 -0.96943551 0.98486447 -2.3683202e+38
2.7045066 -0.96120703 0.98856449 -2.3151494e+38
2.6865103 -0.95959431 0.99036443 -2.2484795e+38
2.6864994 -0.96434861 0.99036443 -2.2217903e+38
2.6685033 -0.96263313 0.99216449 -2.1818098e+38
2.6684926 -0.96735317 0.99216449 -2.1684656e+38
2.6684818 -0.97207314 0.99216449 -2.1418291e+38
2.6684709 -0.97679311 0.99216449 -2.128433e+38
2.6684601 -0.98151308 0.99216449 -2.1150882e+38
2.6684494 -0.98623306 0.99216449 -2.1017953e+38
2.6684384 -0.99095309 0.99216449 -2.0884513e+38
2.6684277 -0.99567306 0.99216449 -2.1016919e+38
2.668417 -1.000393 0.99216449 -2.1150882e+38
2.668406 -1.005113 0.99216449 -2.1283809e+38
2.6683953 -1.009833 0.99216449 -2.1417261e+38
2.6683846 -1.014553 0.99216449 -2.1683636e+38
2.6683736 -1.019273 0.99216449 -2.1950009e+38
2.6683629 -1.0239929 0.99216449 -2.2348788e+38
2.6683521 -1.028713 0.99216449 -2.2616716e+38
2.6683412 -1.033433 0.99216449 -2.3016531e+38
2.6683304 -1.0381529 0.99216449 -2.3416865e+38
2.6863034 -1.0499254 0.99036443 -2.2619335e+38
2.6862924 -1.0546798 0.99036443 -2.1815557e+38
2.6862817 -1.0594341 0.99036443 -2.0471261e+38
2.6862707 -1.0641884 0.99036443 -1.9191563e+38
2.7222269 -1.0833222 0.98676443 nan
2.7042325 -1.0809209 0.98856449 nan
2.7222049 -1.0929679 0.98676443 nan
2.7998395 -0.81590784 0.97409499 -2.0888178e+38
2.7998283 -0.82087731 0.97409499 -2.3827018e+38
2.7998168 -0.82584679 0.97409499 -2.3955785e+38
2.7998054 -0.83081633 0.97409499 -2.4085599e+38
2.8197808 -0.84164113 0.97205687 -2.3817682e+38
2.8197694 -0.84664869 0.97205687 -2.3550281e+38
2.8197579 -0.85165632 0.97205687 -2.3416839e+38
2.8197463 -0.85666394 0.97205687 -2.3149949e+38
2.8197348 -0.86167157 0.97205687 -2.3017539e+38
2.8197234 -0.86667913 0.97205687 -2.2752211e+38
2.8197119 -0.87168676 0.97205687 -2.2619286e+38
2.8197005 -0.87669438 0.97205687 -2.2486363e+38
2.819689 -0.88170201 0.97205687 -2.2354479e+38
2.8196776 -0.88670957 0.97205687 -2.2221558e+38
2.8196661 -0.8917172 0.97205687 -2.2353964e+38
2.8196547 -0.89672482 0.97205687 -2.261825e+38
2.8196433 -0.90173244 0.97205687 -2.2483765e+38
2.8196316 -0.90674001 0.97205687 -2.2350842e+38
2.8196201 -0.91174757 0.97205687 -2.2351879e+38
2.8196087 -0.9167552 0.97205687 -2.2352919e+38
2.8195972 -0.92176282 0.97205687 -2.2217919e+38
2.8195858 -0.92677045 0.97205687 -2.2083964e+38
2.8195744 -0.93177801 0.97205687 -2.1950526e+38
2.8195629 -0.93678564 0.97205687 -2.1950011e+38
2.8195515 -0.94179326 0.97205687 -2.1817612e+38
2.81954 -0.94680089 0.97205687 -2.181762e+38
2.8195286 -0.95180851 0.97205687 -2.1951068e+38
2.7995324 -0.95008463 0.97409499 -2.2087049e+38
2.799521 -0.9550541 0.97409499 -2.0077054e+38
2.819494 -0.96683127 0.97205687 -1.8211196e+38
2.8194826 -0.97183889 0.97205687 nan
2.7994869 -0.96996266 0.97409499 nan
2.7794914 -0.96801013 0.97613305 -3.3809767e+38
2.7604952 -0.96632951 0.97806919 -1.701424e+38
2.7414989 -0.96457648 0.98000538 -2.0617171e+38
2.741488 -0.96943551 0.98000538 -2.408093e+38
2.722492 -0.96757388 0.98194158 -2.3415772e+38
2.7044957 -0.96599555 0.98377585 -2.2749592e+38
2.6864994 -0.96434861 0.98561019 -2.2350297e+38
2.6864884 -0.96910292 0.98561019 -2.2083419e+38
2.6684926 -0.96735317 0.98744446 -2.1817577e+38
2.6684818 -0.97207314 0.98744446 -2.1551214e+38
2.6684709 -0.97679311 0.98744446 -2.1417772e+38
2.6684601 -0.98151308 0.98744446 -2.1416728e+38
2.6684494 -0.98623306 0.98744446 -2.1284316e+38
2.6684384 -0.99095309 0.98744446 -2.1150876e+38
2.6684277 -0.99567306 0.98744446 -2.1150876e+38
2.668417 -1.000393 0.98744446 -2.1150882e+38
2.668406 -1.005113 0.98744446 -2.1283809e+38
2.6683953 -1.009833 0.98744446 -2.1549669e+38
2.6683846 -1.014553 0.98744446 -2.1683125e+38
2.6683736 -1.019273 0.98744446 -2.1948979e+38
2.6683629 -1.0239929 0.98744446 -2.2348794e+38
2.6683521 -1.028713 0.98744446 -2.2748087e+38
2.6683412 -1.033433 0.98744446 -2.3280821e+38
2.6863143 -1.0451713 0.98561019 -2.3681662e+38
2.6863034 -1.0499254 0.98561019 -2.2615678e+38
2.6862924 -1.0546798 0.98561019 -2.1682677e+38
2.6862817 -1.0594341 0.98561019 -2.2750785e+38
2.6862707 -1.0641884 0.98561019 -2.3989817e+38
2.7042434 -1.0761323 0.98377585 nan
2.7042325 -1.0809209 0.98377585 nan
2.7222049 -1.0929679 0.98194158 nan
2.7998283 -0.82087731 0.96912539 -2.328389e+38
2.7998168 -0.82584679 0.96912539 -2.3822877e+38
2.7998054 -0.83081633 0.96912539 -2.4352495e+38
2.7997942 -0.83578587 0.96912539 -2.3951656e+38
2.8197694 -0.84664869 0.96704924 -2.3551324e+38
2.8197579 -0.85165632 0.96704924 -2.3418397e+38
2.8197463 -0.85666394 0.96704924 -2.3284429e+38
2.8197348 -0.86167157 0.96704924 -2.3151502e+38
2.8197234 -0.86667913 0.96704924 -2.2885655e+38
2.8197119 -0.87168676 0.96704924 -2.2619807e+38
2.8197005 -0.87669438 0.96704924 -2.2355002e+38
2.819689 -0.88170201 0.96704924 -2.2090718e+38
2.8196776 -0.88670957 0.96704924 -2.1823317e+38
2.8196661 -0.8917172 0.96704924 -2.2222089e+38
2.8196547 -0.89672482 0.96704924 -2.2617738e+38
2.8196433 -0.90173244 0.96704924 -2.2481698e+38
2.8196316 -0.90674001 0.96704924 -2.2352406e+38
2.8196201 -0.91174757 0.96704924 -2.2354479e+38
2.8196087 -0.9167552 0.96704924 -2.23524e+38
2.8195972 -0.92176282 0.96704924 -2.2217917e+38
2.8195858 -0.92677045 0.96704924 -2.2083958e+38
2.8195744 -0.93177801 0.96704924 -2.2082922e+38
2.8195629 -0.93678564 0.96704924 -2.195052e+38
2.8195515 -0.94179326 0.96704924 -2.1818119e+38
2.81954 -0.94680089 0.96704924 -2.1551762e+38
2.8195286 -0.95180851 0.96704924 -2.1684172e+38
2.7995324 -0.95008463 0.96912539 -2.1813928e+38
2.8195055 -0.96182364 0.96704924 -1.9539652e+38
2.819494 -0.96683127 0.96704924 -1.7178958e+38
2.8194826 -0.97183889 0.96704924 nan
2.7994869 -0.96996266 0.96912539 nan
2.7794914 -0.96801013 0.9712016 -3.3949492e+38
2.7604952 -0.96632951 0.97317398 -1.7029819e+38
2.7414989 -0.96457648 0.97514641 -2.0744333e+38
2.741488 -0.96943551 0.97514641 -2.4476033e+38
2.722492 -0.96757388 0.97711873 -2.3681608e+38
2.722481 -0.97239679 0.97711873 -2.2883034e+38
2.7044847 -0.97078413 0.97898734 -2.261667e+38
2.6864884 -0.96910292 0.98085588 -2.2216865e+38
2.6864777 -0.97385716 0.98085588 -2.1949983e+38
2.6684818 -0.97207314 0.98272443 -2.1551214e+38
2.6684709 -0.97679311 0.98272443 -2.1551216e+38
2.6684601 -0.98151308 0.98272443 -2.1550693e+38
2.6684494 -0.98623306 0.98272443 -2.1417766e+38
2.6684384 -0.99095309 0.98272443 -2.1284324e+38
2.6684277 -0.99567306 0.98272443 -2.1283805e+38
2.668417 -1.000393 0.98272443 -2.1150886e+38
2.668406 -1.005113 0.98272443 -2.1416736e+38
2.6683953 -1.009833 0.98272443 -2.1549673e+38
2.6683846 -1.014553 0.98272443 -2.1815531e+38
2.6683736 -1.019273 0.98272443 -2.1949496e+38
2.6683629 -1.0239929 0.98272443 -2.2481191e+38
2.6683521 -1.028713 0.98272443 -2.2881002e+38
2.6863251 -1.040417 0.98085588 -2.3411661e+38
2.6863143 -1.0451713 0.98085588 -2.3945415e+38
2.6863034 -1.0499254 0.98085588 -2.274494e+38
2.6862924 -1.0546798 0.98085588 -2.140955e+38
2.6862817 -1.0594341 0.98085588 -2.4991267e+38
2.7042544 -1.0713438 0.97898734 -2.8648348e+38
2.7042434 -1.0761323 0.97898734 nan
2.7042325 -1.0809209 0.97898734 nan
2.7222049 -1.0929679 0.97711873 nan
2.7798414 -0.81513625 0.96627021 -2.0217826e+38
2.7998168 -0.82584679 0.96415591 -2.2224181e+38
2.7998054 -0.83081633 0.96415591 -2.4353028e+38
2.7997942 -0.83578587 0.96415591 -2.3952706e+38
2.7997828 -0.84075534 0.96415591 -2.3684252e+38
2.8197579 -0.85165632 0.96204162 -2.3551317e+38
2.8197463 -0.85666394 0.96204162 -2.3284429e+38
2.8197348 -0.86167157 0.96204162 -2.3151502e+38
2.8197234 -0.86667913 0.96204162 -2.2885655e+38
2.8197119 -0.87168676 0.96204162 -2.2620326e+38
2.8197005 -0.87669438 0.96204162 -2.2487931e+38
2.819689 -0.88170201 0.96204162 -2.2222091e+38
2.8196776 -0.88670957 0.96204162 -2.2088654e+38
2.8196661 -0.8917172 0.96204162 -2.2353982e+38
2.8196547 -0.89672482 0.96204162 -2.2617749e+38
2.8196433 -0.90173244 0.96204162 -2.2484822e+38
2.8196316 -0.90674001 0.96204162 -2.2354489e+38
2.8196201 -0.91174757 0.96204162 -2.2352923e+38
2.8196087 -0.9167552 0.96204162 -2.2351361e+38
