# .PCD v0.7 - Point Cloud Data file format
VERSION 0.7
FIELDS x y z rgb
SIZE 4 4 4 4
TYPE F F F F
COUNT 1 1 1 1
WIDTH 1019
HEIGHT 1
VIEWPOINT 0 0 0 1 0 0 0
POINTS 1019
DATA ascii
-0.053140957 -0.66772765 2.4260001 -2.5021845e+38
-0.048520003 -0.66772765 2.4260001 -2.5021841e+38
-0.043899052 -0.66772765 2.4260001 -2.4888914e+38
-0.039278097 -0.66772765 2.4260001 -2.4888916e+38
-0.034414288 -0.66304862 2.4090002 -2.4888916e+38
-0.029825715 -0.66304862 2.4090002 -2.4889437e+38
-0.025237145 -0.66304862 2.4090002 -2.4888399e+38
-0.020648573 -0.66304862 2.4090002 -2.4887882e+38
-0.01606 -0.66304862 2.4090002 -2.4888403e+38
-0.011471429 -0.66304862 2.4090002 -2.5021328e+38
-0.0068342863 -0.65836954 2.3920002 -2.4888405e+38
-0.0022942859 -0.66304862 2.4090002 -2.4888407e+38
0.0023104763 -0.66772765 2.4260001 -2.502081e+38
0.0068828575 -0.66304862 2.4090002 -2.5153735e+38
0.011471429 -0.66304862 2.4090002 -2.5153737e+38
0.01606 -0.66304862 2.4090002 -2.5153216e+38
0.020648573 -0.66304862 2.4090002 -2.5020289e+38
0.02541524 -0.66772765 2.4260001 -2.4886845e+38
0.030036192 -0.66772765 2.4260001 -2.4754438e+38
0.034657147 -0.66772765 2.4260001 -2.4621517e+38
0.039553337 -0.67240673 2.4430001 -2.4489115e+38
0.044206671 -0.67240673 2.4430001 -2.4489639e+38
0.048520003 -0.66772765 2.4260001 -2.4622044e+38
0.053513337 -0.67240673 2.4430001 -2.4622046e+38
0.058166672 -0.67240673 2.4430001 -2.4622048e+38
0.062382862 -0.66772765 2.4260001 -2.4623087e+38
0.067003816 -0.66772765 2.4260001 -2.475549e+38
0.072126672 -0.67240673 2.4430001 -2.4755492e+38
0.076780006 -0.67240673 2.4430001 -2.4754973e+38
0.082000002 -0.67708576 2.46 -2.4755494e+38
0.092040002 -0.68204004 2.4780002 -2.4623091e+38
0.096760005 -0.68204004 2.4780002 -2.4623091e+38
0.10148001 -0.68204004 2.4780002 -2.4623095e+38
0.10620001 -0.68204004 2.4780002 -2.47555e+38
0.11092 -0.68204004 2.4780002 -2.4755498e+38
0.11648001 -0.68699431 2.4960001 -2.4489129e+38
0.12036001 -0.68204004 2.4780002 -2.4356205e+38
0.12598857 -0.68699431 2.4960001 -2.4090876e+38
0.13074286 -0.68699431 2.4960001 -2.3957949e+38
0.13549715 -0.68699431 2.4960001 -2.3825542e+38
0.14025144 -0.68699431 2.4960001 -2.3693138e+38
0.14709716 -0.69690293 2.5320001 -2.369158e+38
0.15192001 -0.69690293 2.5320001 -2.3823978e+38
0.15674287 -0.69690293 2.5320001 -2.3822414e+38
0.16156572 -0.69690293 2.5320001 -2.3821372e+38
0.16638859 -0.69690293 2.5320001 -2.4087213e+38
0.1724962 -0.7021324 2.5510001 -2.4219621e+38
0.1760343 -0.69690293 2.5320001 -2.4485468e+38
0.18085715 -0.69690293 2.5320001 -2.4751322e+38
0.18568002 -0.69690293 2.5320001 -2.4752369e+38
0.19050287 -0.69690293 2.5320001 -2.4886332e+38
0.19532573 -0.69690293 2.5320001 -2.475445e+38
0.20014858 -0.69690293 2.5320001 -2.462205e+38
0.20351429 -0.69194859 2.5140002 -2.4756013e+38
0.2097943 -0.69690293 2.5320001 -2.4889979e+38
0.21461716 -0.69690293 2.5320001 -2.5156346e+38
0.21944001 -0.69690293 2.5320001 -2.5290311e+38
0.22426288 -0.69690293 2.5320001 -2.5423757e+38
0.22908573 -0.69690293 2.5320001 -2.555772e+38
0.23390859 -0.69690293 2.5320001 -2.595701e+38
0.23873144 -0.69690293 2.5320001 -2.6356807e+38
-0.15564477 -0.53819335 1.9690001 -2.8223989e+38
-0.14934859 -0.52917337 1.9360001 -2.8489839e+38
-0.14483334 -0.52616668 1.9250001 -2.6889056e+38
-0.14043334 -0.52343339 1.9150001 -2.5172529e+38
-0.13600001 -0.52042669 1.904 nan
-0.1316781 -0.51769334 1.8940001 nan
-0.12732668 -0.5146867 1.8830001 nan
-0.12308287 -0.51195335 1.8730001 nan
-0.11951525 -0.51195335 1.8730001 nan
-0.11594763 -0.51195335 1.8730001 nan
-0.11178001 -0.50922 1.863 nan
-0.10939334 -0.5146867 1.8830001 nan
-0.10580667 -0.5146867 1.8830001 nan
-0.10629144 -0.53518671 1.9580001 nan
-0.10083334 -0.52616668 1.9250001 nan
-0.11540572 -0.64944005 2.3760002 nan
-0.11162668 -0.65381336 2.3920002 nan
-0.10707048 -0.65381336 2.3920002 nan
-0.10251429 -0.65381336 2.3920002 nan
-0.097958103 -0.65381336 2.3920002 nan
-0.093401909 -0.65381336 2.3920002 -2.5959566e+38
-0.089477152 -0.65846002 2.4090002 -2.6210826e+38
-0.084289528 -0.65381336 2.3920002 -2.6348442e+38
-0.079733342 -0.65381336 2.3920002 -2.6085732e+38
-0.075177148 -0.65381336 2.3920002 -2.5686445e+38
-0.071122862 -0.65846002 2.4090002 -2.5686447e+38
-0.067003816 -0.66310674 2.4260001 -2.5553005e+38
-0.062382862 -0.66310674 2.4260001 -2.528664e+38
-0.057761908 -0.66310674 2.4260001 -2.4888391e+38
-0.053140957 -0.66310674 2.4260001 -2.4887869e+38
-0.048520003 -0.66310674 2.4260001 -2.4888387e+38
-0.043899052 -0.66310674 2.4260001 -2.4887867e+38
-0.039278097 -0.66310674 2.4260001 -2.4755466e+38
-0.034414288 -0.65846002 2.4090002 -2.4754949e+38
-0.030036192 -0.66310674 2.4260001 -2.4755468e+38
-0.025237145 -0.65846002 2.4090002 -2.4754431e+38
-0.020648573 -0.65846002 2.4090002 -2.462203e+38
-0.01606 -0.65846002 2.4090002 -2.4888397e+38
-0.011471429 -0.65846002 2.4090002 -2.5154244e+38
-0.0068342863 -0.65381336 2.3920002 -2.5154244e+38
-0.0022780953 -0.65381336 2.3920002 -2.5021322e+38
0.0022942859 -0.65846002 2.4090002 -2.5153206e+38
0.0068828575 -0.65846002 2.4090002 -2.528665e+38
0.011471429 -0.65846002 2.4090002 -2.5286654e+38
0.01606 -0.65846002 2.4090002 -2.5153725e+38
0.020648573 -0.65846002 2.4090002 -2.5020796e+38
0.02541524 -0.66310674 2.4260001 -2.4887352e+38
0.030246669 -0.6677534 2.4430001 -2.4887869e+38
0.034657147 -0.66310674 2.4260001 -2.475547e+38
0.039553337 -0.6677534 2.4430001 -2.462307e+38
0.044206671 -0.6677534 2.4430001 -2.435671e+38
0.048520003 -0.66310674 2.4260001 -2.4355677e+38
0.053513337 -0.6677534 2.4430001 -2.4355677e+38
0.057761908 -0.66310674 2.4260001 -2.44886e+38
0.061945718 -0.65846002 2.4090002 -2.4489117e+38
0.067003816 -0.66310674 2.4260001 -2.4621521e+38
0.072126672 -0.6677534 2.4430001 -2.4621523e+38
0.076780006 -0.6677534 2.4430001 -2.4754448e+38
0.082000002 -0.67240006 2.46 -2.4754967e+38
0.086685717 -0.67240006 2.46 -2.4755488e+38
0.092040002 -0.67732006 2.4780002 -2.4755488e+38
0.096760005 -0.67732006 2.4780002 -2.4755488e+38
0.10148001 -0.67732006 2.4780002 -2.4622569e+38
0.10620001 -0.67732006 2.4780002 -2.4622571e+38
0.11092 -0.67732006 2.4780002 -2.4622048e+38
0.11648001 -0.68224007 2.4960001 -2.4488085e+38
0.12123429 -0.68224007 2.4960001 -2.4356199e+38
0.12598857 -0.68224007 2.4960001 -2.4223793e+38
0.13074286 -0.68224007 2.4960001 -2.3957945e+38
0.13549715 -0.68224007 2.4960001 -2.382554e+38
0.14025144 -0.68224007 2.4960001 -2.3691576e+38
0.14605144 -0.68716007 2.5140002 -2.3823461e+38
0.15084001 -0.68716007 2.5140002 -2.3955858e+38
0.15674287 -0.69208002 2.5320001 -2.3955335e+38
0.16156572 -0.69208002 2.5320001 -2.3821372e+38
0.16638859 -0.69208002 2.5320001 -2.4219619e+38
0.1724962 -0.69727337 2.5510001 -2.461787e+38
0.17735524 -0.69727337 2.5510001 -2.4750276e+38
0.18085715 -0.69208002 2.5320001 -2.4884243e+38
0.18568002 -0.69208002 2.5320001 -2.4884768e+38
0.19050287 -0.69208002 2.5320001 -2.488633e+38
0.19532573 -0.69208002 2.5320001 -2.4887373e+38
0.20014858 -0.69208002 2.5320001 -2.4754452e+38
0.20497145 -0.69208002 2.5320001 -2.4754975e+38
0.2097943 -0.69208002 2.5320001 -2.4757056e+38
0.21461716 -0.69208002 2.5320001 -2.5023942e+38
0.21944001 -0.69208002 2.5320001 -2.5290311e+38
0.22426288 -0.69208002 2.5320001 -2.5556161e+38
0.22908573 -0.69208002 2.5320001 -2.5690124e+38
0.23390859 -0.69208002 2.5320001 -2.6088894e+38
0.23873144 -0.69208002 2.5320001 -2.6353689e+38
-0.15564477 -0.5344429 1.9690001 -2.7558343e+38
-0.14934859 -0.52548575 1.9360001 -2.7694898e+38
-0.14566097 -0.52548575 1.9360001 -2.8483604e+38
-0.14043334 -0.51978576 1.9150001 -2.9272391e+38
-0.13600001 -0.51680005 1.904 nan
-0.1316781 -0.51408577 1.8940001 nan
-0.12732668 -0.51110005 1.8830001 nan
-0.12308287 -0.50838578 1.8730001 nan
-0.11951525 -0.50838578 1.8730001 nan
-0.11532858 -0.50567144 1.863 nan
-0.11178001 -0.50567144 1.863 nan
-0.10881239 -0.50838578 1.8730001 nan
-0.10524477 -0.50838578 1.8730001 nan
-0.12073906 -0.64925718 2.3920002 -3.1660249e+38
-0.11618286 -0.64925718 2.3920002 nan
-0.11162668 -0.64925718 2.3920002 nan
-0.10707048 -0.64925718 2.3920002 nan
-0.10251429 -0.64925718 2.3920002 nan
-0.097958103 -0.64925718 2.3920002 -3.1152952e+38
-0.093401909 -0.64925718 2.3920002 -2.4089822e+38
-0.088845722 -0.64925718 2.3920002 -2.5019713e+38
-0.084289528 -0.64925718 2.3920002 -2.5953304e+38
-0.079733342 -0.64925718 2.3920002 -2.5819879e+38
-0.075177148 -0.64925718 2.3920002 -2.5686439e+38
-0.070620954 -0.64925718 2.3920002 -2.5420595e+38
-0.066534288 -0.65387148 2.4090002 -2.5287151e+38
-0.062382862 -0.65848577 2.4260001 -2.5153707e+38
-0.057761908 -0.65848577 2.4260001 -2.5020782e+38
-0.053140957 -0.65848577 2.4260001 -2.4887855e+38
-0.048520003 -0.65848577 2.4260001 -2.4887857e+38
-0.043899052 -0.65848577 2.4260001 -2.4754934e+38
-0.039553337 -0.66310006 2.4430001 -2.4754939e+38
-0.034657147 -0.65848577 2.4260001 -2.4754943e+38
-0.030036192 -0.65848577 2.4260001 -2.4754943e+38
-0.02541524 -0.65848577 2.4260001 -2.4621501e+38
-0.020648573 -0.65387148 2.4090002 -2.4622024e+38
-0.01606 -0.65387148 2.4090002 -2.4754949e+38
-0.011471429 -0.65387148 2.4090002 -2.4887873e+38
-0.0068342863 -0.64925718 2.3920002 -2.4888912e+38
-0.0022942859 -0.65387148 2.4090002 -2.5022354e+38
0.0022942859 -0.65387148 2.4090002 -2.5021313e+38
0.0068828575 -0.65387148 2.4090002 -2.5020798e+38
0.011552381 -0.65848577 2.4260001 -2.50208e+38
0.016173335 -0.65848577 2.4260001 -2.5021311e+38
0.020794287 -0.65848577 2.4260001 -2.4887861e+38
0.025593335 -0.66310006 2.4430001 -2.4887342e+38
0.030246669 -0.66310006 2.4430001 -2.4754936e+38
0.034900002 -0.66310006 2.4430001 -2.4622539e+38
0.039553337 -0.66310006 2.4430001 -2.448962e+38
0.044206671 -0.66310006 2.4430001 -2.4489109e+38
0.048860002 -0.66310006 2.4430001 -2.4489117e+38
0.053513337 -0.66310006 2.4430001 -2.4488596e+38
0.057761908 -0.65848577 2.4260001 -2.4488594e+38
0.062382862 -0.65848577 2.4260001 -2.4488592e+38
0.067003816 -0.65848577 2.4260001 -2.4621511e+38
0.072126672 -0.66310006 2.4430001 -2.4753918e+38
0.076780006 -0.66310006 2.4430001 -2.475444e+38
0.082000002 -0.66771436 2.46 -2.4887364e+38
0.086685717 -0.66771436 2.46 -2.4887884e+38
0.092040002 -0.67260003 2.4780002 -2.4888405e+38
0.096760005 -0.67260003 2.4780002 -2.4887886e+38
0.10221715 -0.67748576 2.4960001 -2.488737e+38
0.10697144 -0.67748576 2.4960001 -2.475445e+38
0.11172573 -0.67748576 2.4960001 -2.4621004e+38
0.11648001 -0.67748576 2.4960001 -2.4488596e+38
0.12210858 -0.6823715 2.5140002 -2.4355673e+38
0.12780572 -0.68725717 2.5320001 -2.4223268e+38
0.13074286 -0.67748576 2.4960001 -2.4090345e+38
0.13549715 -0.67748576 2.4960001 -2.4090343e+38
0.14025144 -0.67748576 2.4960001 -2.3956379e+38
0.14605144 -0.6823715 2.5140002 -2.4088781e+38
0.15084001 -0.6823715 2.5140002 -2.4088258e+38
0.15674287 -0.68725717 2.5320001 -2.4087734e+38
0.16041715 -0.6823715 2.5140002 -2.422014e+38
0.16520573 -0.6823715 2.5140002 -2.4352544e+38
0.17121144 -0.68725717 2.5320001 -2.4617872e+38
0.1760343 -0.68725717 2.5320001 -2.4618391e+38
0.18085715 -0.68725717 2.5320001 -2.4618915e+38
0.18568002 -0.68725717 2.5320001 -2.4619438e+38
0.19050287 -0.68725717 2.5320001 -2.4620482e+38
0.19532573 -0.68725717 2.5320001 -2.4621006e+38
0.20014858 -0.68725717 2.5320001 -2.4753933e+38
0.20497145 -0.68725717 2.5320001 -2.4756013e+38
0.2097943 -0.68725717 2.5320001 -2.4890498e+38
0.21461716 -0.68725717 2.5320001 -2.5023423e+38
0.21944001 -0.68725717 2.5320001 -2.5290311e+38
0.22426288 -0.68725717 2.5320001 -2.5423236e+38
0.22908573 -0.68725717 2.5320001 -2.5689603e+38
0.23566383 -0.69241434 2.5510001 -2.595597e+38
0.23873144 -0.68725717 2.5320001 -2.6221803e+38
-0.15477525 -0.52772766 1.9580001 -2.7022995e+38
-0.14934859 -0.52179813 1.9360001 -2.6758717e+38
-0.14483334 -0.51883334 1.9250001 -3.0078684e+38
-0.14043334 -0.51613814 1.9150001 -3.3419468e+38
-0.13600001 -0.51317334 1.904 nan
-0.1316781 -0.51047814 1.8940001 nan
-0.12732668 -0.50751334 1.8830001 nan
-0.12308287 -0.50481814 1.8730001 nan
-0.11951525 -0.50481814 1.8730001 nan
-0.11532858 -0.50212288 1.863 nan
-0.11178001 -0.50212288 1.863 nan
-0.10823143 -0.50212288 1.863 nan
-0.10468286 -0.50212288 1.863 nan
-0.12073906 -0.644701 2.3920002 nan
-0.11618286 -0.644701 2.3920002 nan
-0.11242001 -0.64928287 2.4090002 nan
-0.10707048 -0.644701 2.3920002 nan
-0.10251429 -0.644701 2.3920002 -3.381763e+38
-0.097958103 -0.644701 2.3920002 -2.7940439e+38
-0.093401909 -0.644701 2.3920002 -2.2094931e+38
-0.088845722 -0.644701 2.3920002 -2.3823945e+38
-0.084289528 -0.644701 2.3920002 -2.5420066e+38
-0.079733342 -0.644701 2.3920002 -2.5552997e+38
-0.075177148 -0.644701 2.3920002 -2.5552999e+38
-0.070620954 -0.644701 2.3920002 -2.5287155e+38
-0.066534288 -0.64928287 2.4090002 -2.5021307e+38
-0.061945718 -0.64928287 2.4090002 -2.5020786e+38
-0.057761908 -0.6538648 2.4260001 -2.5020782e+38
-0.053140957 -0.6538648 2.4260001 -2.4887855e+38
-0.048520003 -0.6538648 2.4260001 -2.4754415e+38
-0.043899052 -0.6538648 2.4260001 -2.4754419e+38
-0.039278097 -0.6538648 2.4260001 -2.4754419e+38
-0.034657147 -0.6538648 2.4260001 -2.4753902e+38
-0.030036192 -0.6538648 2.4260001 -2.4621496e+38
-0.025237145 -0.64928287 2.4090002 -2.4620977e+38
-0.020648573 -0.64928287 2.4090002 -2.4622018e+38
-0.01606 -0.64928287 2.4090002 -2.4622022e+38
-0.011471429 -0.64928287 2.4090002 -2.4489618e+38
-0.0068828575 -0.64928287 2.4090002 -2.4756504e+38
-0.0022942859 -0.64928287 2.4090002 -2.4888906e+38
0.0023104763 -0.6538648 2.4260001 -2.4888906e+38
0.0069314288 -0.6538648 2.4260001 -2.4755466e+38
0.011552381 -0.6538648 2.4260001 -2.4754949e+38
0.016173335 -0.6538648 2.4260001 -2.4755464e+38
0.020794287 -0.6538648 2.4260001 -2.4888383e+38
0.025593335 -0.65844673 2.4430001 -2.4887344e+38
0.030246669 -0.65844673 2.4430001 -2.4620979e+38
0.034900002 -0.65844673 2.4430001 -2.4355655e+38
0.039553337 -0.65844673 2.4430001 -2.448858e+38
0.044206671 -0.65844673 2.4430001 -2.4622028e+38
0.048860002 -0.65844673 2.4430001 -2.4622034e+38
0.053513337 -0.65844673 2.4430001 -2.448859e+38
0.057761908 -0.6538648 2.4260001 -2.4488071e+38
0.062382862 -0.6538648 2.4260001 -2.4355665e+38
0.067003816 -0.6538648 2.4260001 -2.4620989e+38
0.072126672 -0.65844673 2.4430001 -2.4754431e+38
0.077314287 -0.6630286 2.46 -2.4886837e+38
0.082000002 -0.6630286 2.46 -2.4887354e+38
0.086685717 -0.6630286 2.46 -2.5020277e+38
0.092040002 -0.66788006 2.4780002 -2.5020279e+38
0.097462863 -0.67273146 2.4960001 -2.5020281e+38
0.10148001 -0.66788006 2.4780002 -2.5020283e+38
0.10697144 -0.67273146 2.4960001 -2.4887362e+38
0.11172573 -0.67273146 2.4960001 -2.4621515e+38
0.11648001 -0.67273146 2.4960001 -2.448859e+38
0.12210858 -0.67758292 2.5140002 -2.4223262e+38
0.12780572 -0.68243432 2.5320001 -2.4223779e+38
0.13168572 -0.67758292 2.5140002 -2.4223262e+38
0.1364743 -0.67758292 2.5140002 -2.4222742e+38
0.14025144 -0.67273146 2.4960001 -2.4221704e+38
0.14605144 -0.67758292 2.5140002 -2.4221185e+38
0.15192001 -0.68243432 2.5320001 -2.4220142e+38
0.15674287 -0.68243432 2.5320001 -2.4352022e+38
0.16041715 -0.67758292 2.5140002 -2.4484945e+38
0.16520573 -0.67758292 2.5140002 -2.4484426e+38
0.17121144 -0.68243432 2.5320001 -2.4484945e+38
0.1760343 -0.68243432 2.5320001 -2.4485466e+38
0.18085715 -0.68243432 2.5320001 -2.4353586e+38
0.18568002 -0.68243432 2.5320001 -2.4354107e+38
0.18914859 -0.67758292 2.5140002 -2.4221708e+38
0.19532573 -0.68243432 2.5320001 -2.4488077e+38
0.20014858 -0.68243432 2.5320001 -2.4622042e+38
0.20497145 -0.68243432 2.5320001 -2.4756525e+38
0.2097943 -0.68243432 2.5320001 -2.4889451e+38
0.21461716 -0.68243432 2.5320001 -2.5022378e+38
0.21788001 -0.67758292 2.5140002 -2.5156342e+38
0.22266859 -0.67758292 2.5140002 -2.542271e+38
0.22908573 -0.68243432 2.5320001 -2.5689597e+38
0.23390859 -0.68243432 2.5320001 -2.5955965e+38
0.23873144 -0.68243432 2.5320001 -2.6088359e+38
-0.15477525 -0.52399814 1.9580001 -2.5557706e+38
-0.14934859 -0.51811051 1.9360001 -2.5560327e+38
-0.14483334 -0.5151667 1.9250001 -3.1149339e+38
-0.14043334 -0.51249051 1.9150001 nan
-0.13678573 -0.51249051 1.9150001 nan
-0.13237335 -0.5095467 1.904 nan
-0.12732668 -0.50392669 1.8830001 nan
-0.12308287 -0.50125051 1.8730001 nan
-0.11951525 -0.50125051 1.8730001 nan
-0.11532858 -0.49857432 1.863 nan
-0.11118001 -0.49589813 1.853 nan
-0.10765048 -0.49589813 1.853 nan
-0.10412096 -0.49589813 1.853 nan
-0.12073906 -0.64014482 2.3920002 nan
-0.11618286 -0.64014482 2.3920002 nan
-0.11162668 -0.64014482 2.3920002 nan
-0.10707048 -0.64014482 2.3920002 -3.2082354e+38
-0.10251429 -0.64014482 2.3920002 -2.8892698e+38
-0.097958103 -0.64014482 2.3920002 -2.6351558e+38
-0.093401909 -0.64014482 2.3920002 -2.3822917e+38
-0.088845722 -0.64014482 2.3920002 -2.4621499e+38
-0.084289528 -0.64014482 2.3920002 -2.5552999e+38
-0.079733342 -0.64014482 2.3920002 -2.5286634e+38
-0.075177148 -0.64014482 2.3920002 -2.5153713e+38
-0.071122862 -0.64469433 2.4090002 -2.5021309e+38
-0.066534288 -0.64469433 2.4090002 -2.4888387e+38
-0.061945718 -0.64469433 2.4090002 -2.4888385e+38
-0.057761908 -0.64924383 2.4260001 -2.4887861e+38
-0.053140957 -0.64924383 2.4260001 -2.4887336e+38
-0.048520003 -0.64924383 2.4260001 -2.4886821e+38
-0.043899052 -0.64924383 2.4260001 -2.4886825e+38
-0.039278097 -0.64924383 2.4260001 -2.5019746e+38
-0.034414288 -0.64469433 2.4090002 -2.4753898e+38
-0.029825715 -0.64469433 2.4090002 -2.4620973e+38
-0.025237145 -0.64469433 2.4090002 -2.4488568e+38
-0.020648573 -0.64469433 2.4090002 -2.4356168e+38
-0.01606 -0.64469433 2.4090002 -2.4356691e+38
-0.011471429 -0.64469433 2.4090002 -2.4357211e+38
-0.0068828575 -0.64469433 2.4090002 -2.4490133e+38
-0.0022942859 -0.64469433 2.4090002 -2.4622537e+38
0.0023104763 -0.64924383 2.4260001 -2.4623054e+38
0.0069314288 -0.64924383 2.4260001 -2.4623056e+38
0.011552381 -0.64924383 2.4260001 -2.4489616e+38
0.016173335 -0.64924383 2.4260001 -2.4489616e+38
0.020794287 -0.64924383 2.4260001 -2.462202e+38
0.025593335 -0.65379339 2.4430001 -2.4753904e+38
0.030246669 -0.65379339 2.4430001 -2.4620981e+38
0.034900002 -0.65379339 2.4430001 -2.4487539e+38
0.039553337 -0.65379339 2.4430001 -2.4488578e+38
0.044206671 -0.65379339 2.4430001 -2.4622024e+38
0.048860002 -0.65379339 2.4430001 -2.4488584e+38
0.053513337 -0.65379339 2.4430001 -2.4487545e+38
0.057761908 -0.64924383 2.4260001 -2.4355661e+38
0.062382862 -0.64924383 2.4260001 -2.4356699e+38
0.067003816 -0.64924383 2.4260001 -2.4488582e+38
0.072126672 -0.65379339 2.4430001 -2.4754947e+38
0.077314287 -0.6583429 2.46 -2.4887348e+38
0.082000002 -0.6583429 2.46 -2.4886827e+38
0.086685717 -0.6583429 2.46 -2.4886823e+38
0.09270858 -0.66797721 2.4960001 -2.501923e+38
0.097462863 -0.66797721 2.4960001 -2.4886829e+38
0.10221715 -0.66797721 2.4960001 -2.488735e+38
0.10697144 -0.66797721 2.4960001 -2.4754429e+38
0.11253144 -0.67279434 2.5140002 -2.4621507e+38
0.11732001 -0.67279434 2.5140002 -2.4489101e+38
0.12210858 -0.67279434 2.5140002 -2.4489099e+38
0.12780572 -0.67761147 2.5320001 -2.4356174e+38
0.13168572 -0.67279434 2.5140002 -2.435514e+38
0.13549715 -0.66797721 2.4960001 -2.4222219e+38
0.14025144 -0.66797721 2.4960001 -2.4221183e+38
0.14605144 -0.67279434 2.5140002 -2.4220663e+38
0.15192001 -0.67761147 2.5320001 -2.4219621e+38
0.15674287 -0.67761147 2.5320001 -2.4218059e+38
0.16156572 -0.67761147 2.5320001 -2.4350463e+38
0.16638859 -0.67761147 2.5320001 -2.4218057e+38
0.17121144 -0.67761147 2.5320001 -2.4219098e+38
0.1760343 -0.67761147 2.5320001 -2.4352542e+38
0.18085715 -0.67761147 2.5320001 -2.4353582e+38
0.18568002 -0.67761147 2.5320001 -2.4354103e+38
0.19050287 -0.67761147 2.5320001 -2.4487549e+38
0.19532573 -0.67761147 2.5320001 -2.4620993e+38
0.20014858 -0.67761147 2.5320001 -2.488736e+38
0.20497145 -0.67761147 2.5320001 -2.4888401e+38
0.2097943 -0.67761147 2.5320001 -2.5021847e+38
0.21309145 -0.67279434 2.5140002 -2.5154774e+38
0.21788001 -0.67279434 2.5140002 -2.5288739e+38
0.22266859 -0.67279434 2.5140002 -2.5422704e+38
0.22908573 -0.67761147 2.5320001 -2.5689593e+38
0.23390859 -0.67761147 2.5320001 -2.6088882e+38
0.23873144 -0.67761147 2.5320001 -2.6356279e+38
0.24355431 -0.67761147 2.5320001 -2.4887892e+38
0.24837716 -0.67761147 2.5320001 -2.3416403e+38
-0.15477525 -0.52026862 1.9580001 -2.4095557e+38
-0.14850001 -0.51150006 1.9250001 -2.436505e+38
-0.14483334 -0.51150006 1.9250001 -3.2078736e+38
-0.14043334 -0.50884289 1.9150001 nan
-0.13600001 -0.50592005 1.904 nan
-0.13237335 -0.50592005 1.904 nan
-0.12732668 -0.50034004 1.8830001 nan
-0.12308287 -0.4976829 1.8730001 nan
-0.11951525 -0.4976829 1.8730001 nan
-0.11532858 -0.49502575 1.863 nan
-0.11178001 -0.49502575 1.863 nan
-0.10765048 -0.49236861 1.853 nan
-0.10412096 -0.49236861 1.853 nan
-0.12159715 -0.64010578 2.4090002 nan
-0.11700858 -0.64010578 2.4090002 nan
-0.11242001 -0.64010578 2.4090002 nan
-0.10783143 -0.64010578 2.4090002 -2.9401016e+38
-0.10251429 -0.63558859 2.3920002 -2.3825002e+38
-0.097958103 -0.63558859 2.3920002 -2.4750261e+38
-0.093401909 -0.63558859 2.3920002 -2.5550918e+38
-0.088845722 -0.63558859 2.3920002 -2.5551962e+38
-0.084289528 -0.63558859 2.3920002 -2.5551962e+38
-0.079733342 -0.63558859 2.3920002 -2.5153196e+38
-0.075177148 -0.63558859 2.3920002 -2.4754947e+38
-0.071122862 -0.64010578 2.4090002 -2.4755466e+38
-0.066534288 -0.64010578 2.4090002 -2.4622543e+38
-0.061945718 -0.64010578 2.4090002 -2.4755464e+38
-0.057761908 -0.64462292 2.4260001 -2.4754421e+38
-0.053140957 -0.64462292 2.4260001 -2.4886823e+38
-0.048520003 -0.64462292 2.4260001 -2.4886825e+38
-0.043591432 -0.64010578 2.4090002 -2.501975e+38
-0.039278097 -0.64462292 2.4260001 -2.5152151e+38
-0.034414288 -0.64010578 2.4090002 -2.4885786e+38
-0.029825715 -0.64010578 2.4090002 -2.4488054e+38
-0.025237145 -0.64010578 2.4090002 -2.4223245e+38
-0.020648573 -0.64010578 2.4090002 -2.3957404e+38
-0.01606 -0.64010578 2.4090002 -2.4090331e+38
-0.011471429 -0.64010578 2.4090002 -2.4223773e+38
-0.0068828575 -0.64010578 2.4090002 -2.4356697e+38
-0.0022780953 -0.63558859 2.3920002 -2.4356695e+38
0.0023104763 -0.64462292 2.4260001 -2.4356695e+38
0.0069314288 -0.64462292 2.4260001 -2.4356176e+38
0.011552381 -0.64462292 2.4260001 -2.4356697e+38
0.016173335 -0.64462292 2.4260001 -2.4223253e+38
0.020794287 -0.64462292 2.4260001 -2.4355138e+38
0.02541524 -0.64462292 2.4260001 -2.448858e+38
0.030246669 -0.64914006 2.4430001 -2.4489101e+38
0.034657147 -0.64462292 2.4260001 -2.4488063e+38
0.039278097 -0.64462292 2.4260001 -2.4488063e+38
0.043899052 -0.64462292 2.4260001 -2.4488063e+38
0.048520003 -0.64462292 2.4260001 -2.4487543e+38
0.053140957 -0.64462292 2.4260001 -2.435514e+38
0.057761908 -0.64462292 2.4260001 -2.4355659e+38
0.062382862 -0.64462292 2.4260001 -2.4222736e+38
0.067003816 -0.64462292 2.4260001 -2.4488065e+38
0.072126672 -0.64914006 2.4430001 -2.4754427e+38
0.077314287 -0.6536572 2.46 -2.4886831e+38
0.082000002 -0.6536572 2.46 -2.488631e+38
0.087320007 -0.65844005 2.4780002 -2.4886308e+38
0.092040002 -0.65844005 2.4780002 -2.4886831e+38
0.097462863 -0.66322291 2.4960001 -2.475391e+38
0.10221715 -0.66322291 2.4960001 -2.4621507e+38
0.10697144 -0.66322291 2.4960001 -2.4622028e+38
0.11253144 -0.66800576 2.5140002 -2.4622026e+38
0.11732001 -0.66800576 2.5140002 -2.4622024e+38
0.12210858 -0.66800576 2.5140002 -2.4622022e+38
0.12780572 -0.67278862 2.5320001 -2.4488578e+38
0.13168572 -0.66800576 2.5140002 -2.4355136e+38
0.1364743 -0.66800576 2.5140002 -2.4221694e+38
0.14025144 -0.66322291 2.4960001 -2.4087732e+38
0.14605144 -0.66800576 2.5140002 -2.4220134e+38
0.15192001 -0.67278862 2.5320001 -2.421857e+38
0.15674287 -0.67278862 2.5320001 -2.421597e+38
0.16156572 -0.67278862 2.5320001 -2.4084605e+38
0.16638859 -0.67278862 2.5320001 -2.4084605e+38
0.17121144 -0.67278862 2.5320001 -2.3953242e+38
0.1760343 -0.67278862 2.5320001 -2.4219611e+38
0.18085715 -0.67278862 2.5320001 -2.4353574e+38
0.18568002 -0.67278862 2.5320001 -2.4487537e+38
0.19050287 -0.67278862 2.5320001 -2.4620462e+38
0.19532573 -0.67278862 2.5320001 -2.488579e+38
0.20014858 -0.67278862 2.5320001 -2.5153196e+38
0.20351429 -0.66800576 2.5140002 -2.5153717e+38
0.20830287 -0.66800576 2.5140002 -2.5021318e+38
0.21309145 -0.66800576 2.5140002 -2.5153208e+38
0.21632001 -0.66322291 2.4960001 -2.528821e+38
0.22266859 -0.66800576 2.5140002 -2.5554577e+38
0.22745715 -0.66800576 2.5140002 -2.5689061e+38
0.23390859 -0.67278862 2.5320001 -2.6220754e+38
0.23873144 -0.67278862 2.5320001 -2.6620551e+38
0.24355431 -0.67278862 2.5320001 -2.5953331e+38
0.24837716 -0.67278862 2.5320001 -2.5160506e+38
0.25320002 -0.67278862 2.5320001 -3.250505e+38
-0.14934859 -0.51073527 1.9360001 -2.3832827e+38
-0.14483334 -0.50783336 1.9250001 -3.1288444e+38
-0.14116667 -0.50783336 1.9250001 nan
-0.13678573 -0.50519526 1.9150001 nan
-0.13237335 -0.50229335 1.904 nan
-0.12807049 -0.49965528 1.8940001 nan
-0.12374001 -0.49675336 1.8830001 nan
-0.12015334 -0.49675336 1.8830001 nan
-0.11594763 -0.49411526 1.8730001 nan
-0.11178001 -0.49147716 1.863 nan
-0.10823143 -0.49147716 1.863 nan
-0.10468286 -0.49147716 1.863 nan
-0.12417144 -0.6489715 2.46 -3.3695171e+38
-0.11866001 -0.64448673 2.4430001 -3.1672191e+38
-0.11242001 -0.63551718 2.4090002 -2.9813298e+38
-0.10783143 -0.63551718 2.4090002 -2.7277849e+38
-0.10324287 -0.63551718 2.4090002 -2.4749736e+38
-0.098654293 -0.63551718 2.4090002 -2.5017673e+38
-0.094065718 -0.63551718 2.4090002 -2.5419039e+38
-0.088845722 -0.63103241 2.3920002 -2.5418522e+38
-0.084289528 -0.63103241 2.3920002 -2.5418524e+38
-0.079733342 -0.63103241 2.3920002 -2.5286123e+38
-0.075177148 -0.63103241 2.3920002 -2.5020796e+38
-0.071122862 -0.63551718 2.4090002 -2.4887871e+38
-0.066534288 -0.63551718 2.4090002 -2.4754429e+38
-0.061945718 -0.63551718 2.4090002 -2.4754427e+38
-0.057761908 -0.64000195 2.4260001 -2.4753906e+38
-0.052768573 -0.63551718 2.4090002 -2.4753904e+38
-0.048180003 -0.63551718 2.4090002 -2.4753904e+38
-0.043591432 -0.63551718 2.4090002 -2.4886308e+38
-0.039278097 -0.64000195 2.4260001 -2.501923e+38
-0.034414288 -0.63551718 2.4090002 -2.4753385e+38
-0.029825715 -0.63551718 2.4090002 -2.4488059e+38
-0.025237145 -0.63551718 2.4090002 -2.4355653e+38
-0.020648573 -0.63551718 2.4090002 -2.4222734e+38
-0.01606 -0.63551718 2.4090002 -2.4355659e+38
-0.011471429 -0.63551718 2.4090002 -2.4355661e+38
-0.0068342863 -0.63103241 2.3920002 -2.4356182e+38
-0.0022780953 -0.63103241 2.3920002 -2.4489105e+38
0.0022942859 -0.63551718 2.4090002 -2.4488584e+38
0.0068828575 -0.63551718 2.4090002 -2.4487547e+38
0.011552381 -0.64000195 2.4260001 -2.422274e+38
0.016173335 -0.64000195 2.4260001 -2.4090854e+38
0.020794287 -0.64000195 2.4260001 -2.4223253e+38
0.02541524 -0.64000195 2.4260001 -2.4356178e+38
0.030246669 -0.64448673 2.4430001 -2.4355661e+38
0.034900002 -0.64448673 2.4430001 -2.4488067e+38
0.039278097 -0.64000195 2.4260001 -2.4488067e+38
0.044206671 -0.64448673 2.4430001 -2.4488063e+38
0.048860002 -0.64448673 2.4430001 -2.4488059e+38
0.053140957 -0.64000195 2.4260001 -2.4488061e+38
0.057761908 -0.64000195 2.4260001 -2.448858e+38
0.062382862 -0.64000195 2.4260001 -2.4488582e+38
0.067003816 -0.64000195 2.4260001 -2.475391e+38
0.072126672 -0.64448673 2.4430001 -2.5019756e+38
0.076780006 -0.64448673 2.4430001 -2.5019237e+38
0.082000002 -0.6489715 2.46 -2.5018717e+38
0.086685717 -0.6489715 2.46 -2.4886312e+38
0.092040002 -0.65372002 2.4780002 -2.4753912e+38
0.097462863 -0.6584686 2.4960001 -2.4620991e+38
0.10221715 -0.6584686 2.4960001 -2.4620991e+38
0.10697144 -0.6584686 2.4960001 -2.4488586e+38
0.11253144 -0.66321719 2.5140002 -2.4355661e+38
0.11732001 -0.66321719 2.5140002 -2.4356178e+38
0.12210858 -0.66321719 2.5140002 -2.4355657e+38
0.12689716 -0.66321719 2.5140002 -2.4222732e+38
0.13168572 -0.66321719 2.5140002 -2.4089288e+38
0.1364743 -0.66321719 2.5140002 -2.4088765e+38
0.14126286 -0.66321719 2.5140002 -2.4087205e+38
0.14605144 -0.66321719 2.5140002 -2.4087201e+38
0.15192001 -0.66796577 2.5320001 -2.4085637e+38
0.15791906 -0.67297816 2.5510001 -2.4085629e+38
0.16156572 -0.66796577 2.5320001 -2.3952708e+38
0.16638859 -0.66796577 2.5320001 -2.3952708e+38
0.17121144 -0.66796577 2.5320001 -2.4086156e+38
0.1760343 -0.66796577 2.5320001 -2.4219603e+38
0.18085715 -0.66796577 2.5320001 -2.4486489e+38
0.18568002 -0.66796577 2.5320001 -2.448701e+38
0.19050287 -0.66796577 2.5320001 -2.4620454e+38
0.19532573 -0.66796577 2.5320001 -2.4886819e+38
0.20014858 -0.66796577 2.5320001 -2.5153705e+38
0.20497145 -0.66796577 2.5320001 -2.5287149e+38
0.2097943 -0.66796577 2.5320001 -2.5420078e+38
0.21309145 -0.66321719 2.5140002 -2.5420601e+38
0.21788001 -0.66321719 2.5140002 -2.5421122e+38
0.22266859 -0.66321719 2.5140002 -2.5555084e+38
0.22908573 -0.66796577 2.5320001 -2.5821972e+38
0.23390859 -0.66796577 2.5320001 -2.6221261e+38
0.23873144 -0.66796577 2.5320001 -2.6621573e+38
0.24355431 -0.66796577 2.5320001 -2.5551944e+38
0.25024098 -0.67297816 2.5510001 -2.4615327e+38
-0.14934859 -0.50704765 1.9360001 -2.3297487e+38
-0.14566097 -0.50704765 1.9360001 -3.0484664e+38
-0.14116667 -0.50416672 1.9250001 nan
-0.13678573 -0.50154763 1.9150001 nan
-0.13313811 -0.50154763 1.9150001 nan
-0.12874667 -0.4986667 1.904 nan
-0.12446287 -0.49604765 1.8940001 nan
-0.12085525 -0.49604765 1.8940001 nan
-0.11594763 -0.49054766 1.8730001 nan
-0.11238001 -0.49054766 1.8730001 nan
-0.10881239 -0.49054766 1.8730001 nan
-0.10468286 -0.4879286 1.863 nan
-0.12417144 -0.64428574 2.46 -2.3958473e+38
-0.11866001 -0.63983339 2.4430001 -2.4326546e+38
-0.11321334 -0.63538098 2.4260001 -2.4740891e+38
-0.10783143 -0.63092864 2.4090002 -2.5146931e+38
-0.10324287 -0.63092864 2.4090002 -2.5547786e+38
-0.098654293 -0.63092864 2.4090002 -2.5417989e+38
-0.094065718 -0.63092864 2.4090002 -2.5285068e+38
-0.089477152 -0.63092864 2.4090002 -2.5285072e+38
-0.084888577 -0.63092864 2.4090002 -2.5285074e+38
-0.079733342 -0.62647623 2.3920002 -2.5285078e+38
-0.075177148 -0.62647623 2.3920002 -2.5286115e+38
-0.071122862 -0.63092864 2.4090002 -2.5020267e+38
-0.066534288 -0.63092864 2.4090002 -2.4754423e+38
-0.061945718 -0.63092864 2.4090002 -2.4754425e+38
-0.057357147 -0.63092864 2.4090002 -2.4753904e+38
-0.052768573 -0.63092864 2.4090002 -2.4621501e+38
-0.048180003 -0.63092864 2.4090002 -2.4487539e+38
-0.043591432 -0.63092864 2.4090002 -2.4619424e+38
-0.039002858 -0.63092864 2.4090002 -2.4753385e+38
-0.034414288 -0.63092864 2.4090002 -2.4620981e+38
-0.029825715 -0.63092864 2.4090002 -2.4488578e+38
-0.025237145 -0.63092864 2.4090002 -2.4488578e+38
-0.020648573 -0.63092864 2.4090002 -2.448858e+38
-0.01606 -0.63092864 2.4090002 -2.4488582e+38
-0.011471429 -0.63092864 2.4090002 -2.4488065e+38
-0.0068828575 -0.63092864 2.4090002 -2.4488069e+38
-0.0022942859 -0.63092864 2.4090002 -2.4488067e+38
0.0023104763 -0.63538098 2.4260001 -2.4487545e+38
0.0069314288 -0.63538098 2.4260001 -2.4488065e+38
0.011552381 -0.63538098 2.4260001 -2.4222219e+38
0.016173335 -0.63538098 2.4260001 -2.395741e+38
0.020794287 -0.63538098 2.4260001 -2.409085e+38
0.02541524 -0.63538098 2.4260001 -2.4222734e+38
0.030036192 -0.63538098 2.4260001 -2.4354621e+38
0.034900002 -0.63983339 2.4430001 -2.435514e+38
0.039553337 -0.63983339 2.4430001 -2.4488065e+38
0.044206671 -0.63983339 2.4430001 -2.4488061e+38
0.048860002 -0.63983339 2.4430001 -2.4488056e+38
0.053140957 -0.63538098 2.4260001 -2.4488056e+38
0.057761908 -0.63538098 2.4260001 -2.4620979e+38
0.062820002 -0.63983339 2.4430001 -2.4621503e+38
0.067473337 -0.63983339 2.4430001 -2.4886833e+38
0.072126672 -0.63983339 2.4430001 -2.5152679e+38
0.076780006 -0.63983339 2.4430001 -2.5152159e+38
0.082000002 -0.64428574 2.46 -2.5152161e+38
0.086685717 -0.64428574 2.46 -2.4886835e+38
0.092040002 -0.64900005 2.4780002 -2.4488071e+38
0.096760005 -0.64900005 2.4780002 -2.4488075e+38
0.10148001 -0.64900005 2.4780002 -2.4488073e+38
0.10697144 -0.6537143 2.4960001 -2.4355148e+38
0.11172573 -0.6537143 2.4960001 -2.4089817e+38
0.11648001 -0.6537143 2.4960001 -2.4090333e+38
0.12210858 -0.65842861 2.5140002 -2.3957408e+38
0.12689716 -0.65842861 2.5140002 -2.3956889e+38
0.13168572 -0.65842861 2.5140002 -2.382344e+38
0.1364743 -0.65842861 2.5140002 -2.395584e+38
0.14227429 -0.66314292 2.5320001 -2.3955319e+38
0.14709716 -0.66314292 2.5320001 -2.3954797e+38
0.15306 -0.66811907 2.5510001 -2.3954272e+38
0.15791906 -0.66811907 2.5510001 -2.3954785e+38
0.16277811 -0.66811907 2.5510001 -2.3820824e+38
0.16763715 -0.66811907 2.5510001 -2.3952708e+38
0.1724962 -0.66811907 2.5510001 -2.4086154e+38
0.1760343 -0.66314292 2.5320001 -2.4352521e+38
0.18085715 -0.66314292 2.5320001 -2.4486487e+38
0.18568002 -0.66314292 2.5320001 -2.448701e+38
0.19050287 -0.66314292 2.5320001 -2.448805e+38
0.19532573 -0.66314292 2.5320001 -2.4887342e+38
0.20014858 -0.66314292 2.5320001 -2.5154228e+38
0.20351429 -0.65842861 2.5140002 -2.5421636e+38
0.20830287 -0.65842861 2.5140002 -2.5686964e+38
0.21309145 -0.65842861 2.5140002 -2.5688006e+38
0.21788001 -0.65842861 2.5140002 -2.5555086e+38
0.22266859 -0.65842861 2.5140002 -2.568853e+38
0.22745715 -0.65842861 2.5140002 -2.5821976e+38
0.23224573 -0.65842861 2.5140002 -2.6220746e+38
0.23873144 -0.66314292 2.5320001 -2.6485539e+38
0.24355431 -0.66314292 2.5320001 -2.5282989e+38
0.25024098 -0.66811907 2.5510001 -2.4094545e+38
-0.15019715 -0.50622004 1.9470001 -2.7137176e+38
-0.14566097 -0.50336003 1.9360001 -3.0077055e+38
-0.14116667 -0.50050002 1.9250001 -3.316134e+38
-0.1375 -0.50050002 1.9250001 nan
-0.13313811 -0.49790004 1.9150001 nan
-0.12874667 -0.49504003 1.904 nan
-0.12512001 -0.49504003 1.904 nan
-0.12085525 -0.49244004 1.8940001 nan
-0.11656667 -0.48958004 1.8830001 nan
-0.11238001 -0.48698002 1.8730001 nan
-0.10881239 -0.48698002 1.8730001 nan
-0.10524477 -0.48698002 1.8730001 nan
-0.10167715 -0.48698002 1.8730001 nan
-0.098109528 -0.48698002 1.8730001 nan
-0.11783429 -0.63076001 2.4260001 -2.8321395e+38
-0.11321334 -0.63076001 2.4260001 -2.0872579e+38
-0.10783143 -0.62634003 2.4090002 -2.3014452e+38
-0.10324287 -0.62634003 2.4090002 -2.5281934e+38
-0.098654293 -0.62634003 2.4090002 -2.5283498e+38
-0.094065718 -0.62634003 2.4090002 -2.5284021e+38
-0.089477152 -0.62634003 2.4090002 -2.5284023e+38
-0.084888577 -0.62634003 2.4090002 -2.5151624e+38
-0.079733342 -0.62192005 2.3920002 -2.5152147e+38
-0.075177148 -0.62192005 2.3920002 -2.5019742e+38
-0.071122862 -0.62634003 2.4090002 -2.4886815e+38
-0.066534288 -0.62634003 2.4090002 -2.4753898e+38
-0.061945718 -0.62634003 2.4090002 -2.4620981e+38
-0.057357147 -0.62634003 2.4090002 -2.4620462e+38
-0.052768573 -0.62634003 2.4090002 -2.4488056e+38
-0.048180003 -0.62634003 2.4090002 -2.448702e+38
-0.043591432 -0.62634003 2.4090002 -2.4620462e+38
-0.039002858 -0.62634003 2.4090002 -2.4753904e+38
-0.034414288 -0.62634003 2.4090002 -2.4753902e+38
-0.029825715 -0.62634003 2.4090002 -2.4754423e+38
-0.02505905 -0.62192005 2.3920002 -2.4886829e+38
-0.020648573 -0.62634003 2.4090002 -2.4886312e+38
-0.01606 -0.62634003 2.4090002 -2.4886312e+38
-0.011471429 -0.62634003 2.4090002 -2.4885277e+38
-0.0068828575 -0.62634003 2.4090002 -2.4752876e+38
-0.0022942859 -0.62634003 2.4090002 -2.4752355e+38
0.0023104763 -0.63076001 2.4260001 -2.4620466e+38
0.0069314288 -0.63076001 2.4260001 -2.4620985e+38
0.011552381 -0.63076001 2.4260001 -2.4355657e+38
0.016173335 -0.63076001 2.4260001 -2.4089811e+38
0.020794287 -0.63076001 2.4260001 -2.4223253e+38
0.02541524 -0.63076001 2.4260001 -2.4222734e+38
0.030246669 -0.63518006 2.4430001 -2.4355136e+38
0.034900002 -0.63518006 2.4430001 -2.4354619e+38
0.039553337 -0.63518006 2.4430001 -2.4487541e+38
0.044206671 -0.63518006 2.4430001 -2.448702e+38
0.048860002 -0.63518006 2.4430001 -2.4488054e+38
0.053513337 -0.63518006 2.4430001 -2.4488574e+38
0.058166672 -0.63518006 2.4430001 -2.4622014e+38
0.062820002 -0.63518006 2.4430001 -2.4622539e+38
0.067473337 -0.63518006 2.4430001 -2.488735e+38
0.072126672 -0.63518006 2.4430001 -2.5286121e+38
0.076780006 -0.63518006 2.4430001 -2.5152679e+38
0.082000002 -0.63960004 2.46 -2.5019241e+38
0.086685717 -0.63960004 2.46 -2.4753916e+38
0.091371432 -0.63960004 2.46 -2.4488075e+38
0.096760005 -0.64428002 2.4780002 -2.4488079e+38
0.10148001 -0.64428002 2.4780002 -2.4488077e+38
0.10620001 -0.64428002 2.4780002 -2.4222227e+38
0.11172573 -0.64896005 2.4960001 -2.4089817e+38
0.11648001 -0.64896005 2.4960001 -2.3957408e+38
0.12123429 -0.64896005 2.4960001 -2.395741e+38
0.12689716 -0.65364003 2.5140002 -2.395741e+38
0.13168572 -0.65364003 2.5140002 -2.4089805e+38
0.1364743 -0.65364003 2.5140002 -2.4089278e+38
0.14227429 -0.65832007 2.5320001 -2.4089278e+38
0.14709716 -0.65832007 2.5320001 -2.3954795e+38
0.15306 -0.66326004 2.5510001 -2.382083e+38
0.15791906 -0.66326004 2.5510001 -2.3821343e+38
0.16277811 -0.66326004 2.5510001 -2.3953747e+38
0.16763715 -0.66326004 2.5510001 -2.408667e+38
0.1724962 -0.66326004 2.5510001 -2.4219075e+38
0.1760343 -0.65832007 2.5320001 -2.4353036e+38
0.18085715 -0.65832007 2.5320001 -2.4354081e+38
0.18568002 -0.65832007 2.5320001 -2.4487527e+38
0.19050287 -0.65832007 2.5320001 -2.4488052e+38
0.19532573 -0.65832007 2.5320001 -2.4754941e+38
0.19872573 -0.65364003 2.5140002 -2.5021829e+38
0.20351429 -0.65364003 2.5140002 -2.5287678e+38
0.20830287 -0.65364003 2.5140002 -2.568593e+38
0.21309145 -0.65364003 2.5140002 -2.5554047e+38
0.21788001 -0.65364003 2.5140002 -2.5421648e+38
0.22266859 -0.65364003 2.5140002 -2.5555092e+38
0.22745715 -0.65364003 2.5140002 -2.582198e+38
0.23224573 -0.65364003 2.5140002 -2.5954905e+38
0.23873144 -0.65832007 2.5320001 -2.6222296e+38
0.24355431 -0.65832007 2.5320001 -2.4354612e+38
0.25024098 -0.66326004 2.5510001 -2.2486499e+38
-0.15019715 -0.50251144 1.9470001 -3.1005411e+38
-0.14566097 -0.49967241 1.9360001 -2.9790903e+38
-0.14197335 -0.49967241 1.9360001 -2.849551e+38
-0.1375 -0.49683335 1.9250001 nan
-0.13313811 -0.49425241 1.9150001 nan
-0.12949048 -0.49425241 1.9150001 nan
-0.12512001 -0.49141335 1.904 nan
-0.12149334 -0.49141335 1.904 nan
-0.11656667 -0.48599336 1.8830001 nan
-0.11298001 -0.48599336 1.8830001 nan
-0.10939334 -0.48599336 1.8830001 nan
-0.10524477 -0.48341241 1.8730001 nan
-0.10167715 -0.48341241 1.8730001 nan
-0.098109528 -0.48341241 1.8730001 nan
-0.11321334 -0.6261391 2.4260001 -1.7021461e+38
-0.10783143 -0.62175149 2.4090002 -2.1021107e+38
-0.10324287 -0.62175149 2.4090002 -2.4881598e+38
-0.098654293 -0.62175149 2.4090002 -2.5149539e+38
-0.094065718 -0.62175149 2.4090002 -2.5282983e+38
-0.089477152 -0.62175149 2.4090002 -2.5150062e+38
-0.084888577 -0.62175149 2.4090002 -2.5018182e+38
-0.080300003 -0.62175149 2.4090002 -2.4885784e+38
-0.075711437 -0.62175149 2.4090002 -2.4753379e+38
-0.071122862 -0.62175149 2.4090002 -2.4752858e+38
-0.066534288 -0.62175149 2.4090002 -2.4753381e+38
-0.061945718 -0.62175149 2.4090002 -2.4620464e+38
-0.057357147 -0.62175149 2.4090002 -2.4354621e+38
-0.052768573 -0.62175149 2.4090002 -2.4355142e+38
-0.048180003 -0.62175149 2.4090002 -2.4354625e+38
-0.043591432 -0.62175149 2.4090002 -2.4487547e+38
-0.039002858 -0.62175149 2.4090002 -2.4620466e+38
-0.034414288 -0.62175149 2.4090002 -2.488631e+38
-0.02961524 -0.61736387 2.3920002 -2.501923e+38
-0.02505905 -0.61736387 2.3920002 -2.5151115e+38
-0.020502858 -0.61736387 2.3920002 -2.5284559e+38
-0.015946668 -0.61736387 2.3920002 -2.5284561e+38
-0.011390476 -0.61736387 2.3920002 -2.5152157e+38
-0.0068342863 -0.61736387 2.3920002 -2.5019237e+38
-0.0022780953 -0.61736387 2.3920002 -2.4886312e+38
0.0023104763 -0.6261391 2.4260001 -2.4886831e+38
0.0068828575 -0.62175149 2.4090002 -2.4753906e+38
0.011471429 -0.62175149 2.4090002 -2.448858e+38
0.016173335 -0.6261391 2.4260001 -2.4222734e+38
0.020794287 -0.6261391 2.4260001 -2.4222732e+38
0.02541524 -0.6261391 2.4260001 -2.4222732e+38
0.030246669 -0.63052672 2.4430001 -2.4355655e+38
0.034900002 -0.63052672 2.4430001 -2.4355136e+38
0.039553337 -0.63052672 2.4430001 -2.4487539e+38
0.044206671 -0.63052672 2.4430001 -2.4488059e+38
0.048860002 -0.63052672 2.4430001 -2.4489097e+38
0.053513337 -0.63052672 2.4430001 -2.4489095e+38
0.058166672 -0.63052672 2.4430001 -2.4622016e+38
0.062820002 -0.63052672 2.4430001 -2.462202e+38
0.067473337 -0.63052672 2.4430001 -2.5019754e+38
0.072126672 -0.63052672 2.4430001 -2.5285597e+38
0.077314287 -0.63491434 2.46 -2.5019233e+38
0.082000002 -0.63491434 2.46 -2.4753389e+38
0.086685717 -0.63491434 2.46 -2.4620468e+38
0.091371432 -0.63491434 2.46 -2.4354627e+38
0.096760005 -0.63956004 2.4780002 -2.4354633e+38
0.10148001 -0.63956004 2.4780002 -2.4354627e+38
0.10620001 -0.63956004 2.4780002 -2.42217e+38
0.11092 -0.63956004 2.4780002 -2.4089813e+38
0.11564001 -0.63956004 2.4780002 -2.3957408e+38
0.12123429 -0.64420575 2.4960001 -2.3824485e+38
0.12598857 -0.64420575 2.4960001 -2.4090333e+38
0.13074286 -0.64420575 2.4960001 -2.4222211e+38
0.13549715 -0.64420575 2.4960001 -2.4221688e+38
0.14126286 -0.64885145 2.5140002 -2.4088239e+38
0.14709716 -0.65349716 2.5320001 -2.3954274e+38
0.15306 -0.65840101 2.5510001 -2.3688431e+38
0.15791906 -0.65840101 2.5510001 -2.3821353e+38
0.16277811 -0.65840101 2.5510001 -2.3954272e+38
0.16763715 -0.65840101 2.5510001 -2.4220114e+38
0.1724962 -0.65840101 2.5510001 -2.4353039e+38
0.1760343 -0.65349716 2.5320001 -2.4353043e+38
0.18085715 -0.65349716 2.5320001 -2.4221682e+38
0.18568002 -0.65349716 2.5320001 -2.4355128e+38
0.19050287 -0.65349716 2.5320001 -2.4488574e+38
0.19532573 -0.65349716 2.5320001 -2.462202e+38
0.20014858 -0.65349716 2.5320001 -2.4755468e+38
0.20351429 -0.64885145 2.5140002 -2.5287163e+38
0.20830287 -0.64885145 2.5140002 -2.5685936e+38
0.21309145 -0.64885145 2.5140002 -2.5420092e+38
0.21788001 -0.64885145 2.5140002 -2.5155287e+38
0.22266859 -0.64885145 2.5140002 -2.5421654e+38
0.22745715 -0.64885145 2.5140002 -2.5688023e+38
0.23224573 -0.64885145 2.5140002 -2.5819911e+38
0.23703431 -0.64885145 2.5140002 -2.5954907e+38
0.24355431 -0.65349716 2.5320001 -2.3426775e+38
0.25024098 -0.65840101 2.5510001 -2.0907524e+38
-0.14648858 -0.4988029 1.9470001 nan
-0.14278001 -0.4988029 1.9470001 -3.1941088e+38
-0.13828573 -0.49598479 1.9360001 nan
-0.13383335 -0.49316669 1.9250001 nan
-0.12949048 -0.49060479 1.9150001 nan
-0.12584287 -0.49060479 1.9150001 nan
-0.12149334 -0.48778671 1.904 nan
-0.11724763 -0.48522478 1.8940001 nan
-0.11298001 -0.48240671 1.8830001 nan
-0.10939334 -0.48240671 1.8830001 nan
-0.10524477 -0.47984478 1.8730001 nan
-0.10167715 -0.47984478 1.8730001 nan
-0.098109528 -0.47984478 1.8730001 nan
-0.11321334 -0.62151814 2.4260001 -2.3264167e+38
-0.10783143 -0.61716288 2.4090002 -2.3809867e+38
-0.10324287 -0.61716288 2.4090002 -2.4350935e+38
-0.098654293 -0.61716288 2.4090002 -2.475077e+38
-0.094065718 -0.61716288 2.4090002 -2.515006e+38
-0.089477152 -0.61716288 2.4090002 -2.5017139e+38
-0.084888577 -0.61716288 2.4090002 -2.4884742e+38
-0.080300003 -0.61716288 2.4090002 -2.4752862e+38
-0.075711437 -0.61716288 2.4090002 -2.4753381e+38
-0.071122862 -0.61716288 2.4090002 -2.4620458e+38
-0.066534288 -0.61716288 2.4090002 -2.4620462e+38
-0.061945718 -0.61716288 2.4090002 -2.4487541e+38
-0.057357147 -0.61716288 2.4090002 -2.4354105e+38
-0.052768573 -0.61716288 2.4090002 -2.4354631e+38
-0.048180003 -0.61716288 2.4090002 -2.4354633e+38
-0.043591432 -0.61716288 2.4090002 -2.4487556e+38
-0.039002858 -0.61716288 2.4090002 -2.4487549e+38
-0.034414288 -0.61716288 2.4090002 -2.4620466e+38
-0.029825715 -0.61716288 2.4090002 -2.4753385e+38
-0.02505905 -0.61280763 2.3920002 -2.4753381e+38
-0.020648573 -0.61716288 2.4090002 -2.4753385e+38
-0.015946668 -0.61280763 2.3920002 -2.4753387e+38
-0.011390476 -0.61280763 2.3920002 -2.4620983e+38
-0.0068342863 -0.61280763 2.3920002 -2.4753906e+38
-0.0022780953 -0.61280763 2.3920002 -2.4753906e+38
0.0022942859 -0.61716288 2.4090002 -2.4620983e+38
0.0068828575 -0.61716288 2.4090002 -2.4488061e+38
0.011471429 -0.61716288 2.4090002 -2.448858e+38
0.01606 -0.61716288 2.4090002 -2.4355655e+38
0.020794287 -0.62151814 2.4260001 -2.4355653e+38
0.02541524 -0.62151814 2.4260001 -2.4355134e+38
0.030036192 -0.62151814 2.4260001 -2.4355134e+38
0.034900002 -0.62587339 2.4430001 -2.4354614e+38
0.039553337 -0.62587339 2.4430001 -2.4355134e+38
0.044206671 -0.62587339 2.4430001 -2.4355655e+38
0.048860002 -0.62587339 2.4430001 -2.4356176e+38
0.053513337 -0.62587339 2.4430001 -2.4489616e+38
0.058166672 -0.62587339 2.4430001 -2.4489095e+38
0.062820002 -0.62587339 2.4430001 -2.4621501e+38
0.067473337 -0.62587339 2.4430001 -2.4886829e+38
0.072126672 -0.62587339 2.4430001 -2.501923e+38
0.077314287 -0.63022864 2.46 -2.4886306e+38
0.082000002 -0.63022864 2.46 -2.4752866e+38
0.086685717 -0.63022864 2.46 -2.4487539e+38
0.091371432 -0.63022864 2.46 -2.4354623e+38
0.096760005 -0.63484007 2.4780002 -2.4221704e+38
0.10148001 -0.63484007 2.4780002 -2.4221179e+38
0.10620001 -0.63484007 2.4780002 -2.4089288e+38
0.11092 -0.63484007 2.4780002 -2.4089809e+38
0.11564001 -0.63484007 2.4780002 -2.3956889e+38
0.12123429 -0.63945144 2.4960001 -2.3956889e+38
0.12598857 -0.63945144 2.4960001 -2.4089811e+38
0.13074286 -0.63945144 2.4960001 -2.4354616e+38
0.13549715 -0.63945144 2.4960001 -2.4487537e+38
0.14126286 -0.64406288 2.5140002 -2.4619413e+38
0.14709716 -0.64867431 2.5320001 -2.4884732e+38
0.15306 -0.65354192 2.5510001 -2.5284027e+38
0.15791906 -0.65354192 2.5510001 -2.6754492e+38
0.16277811 -0.65354192 2.5510001 -2.8074885e+38
0.16763715 -0.65354192 2.5510001 -2.581363e+38
0.1724962 -0.65354192 2.5510001 -2.3556025e+38
0.1760343 -0.64867431 2.5320001 -2.3821877e+38
0.18085715 -0.64867431 2.5320001 -2.4222205e+38
0.18568002 -0.64867431 2.5320001 -2.435513e+38
0.19050287 -0.64867431 2.5320001 -2.4489095e+38
0.19532573 -0.64867431 2.5320001 -2.4622541e+38
0.20014858 -0.64867431 2.5320001 -2.4888393e+38
0.20351429 -0.64406288 2.5140002 -2.5154764e+38
0.20830287 -0.64406288 2.5140002 -2.5553536e+38
0.21309145 -0.64406288 2.5140002 -2.555354e+38
0.21788001 -0.64406288 2.5140002 -2.5554061e+38
0.22266859 -0.64406288 2.5140002 -2.5687503e+38
0.22745715 -0.64406288 2.5140002 -2.5953353e+38
0.23224573 -0.64406288 2.5140002 -2.6220241e+38
0.23703431 -0.64406288 2.5140002 -2.648921e+38
0.24355431 -0.64867431 2.5320001 -2.4223298e+38
0.24837716 -0.64867431 2.5320001 -2.2093448e+38
-0.1473162 -0.49789146 1.9580001 nan
-0.14278001 -0.49509433 1.9470001 nan
-0.13828573 -0.49229717 1.9360001 nan
-0.13459811 -0.49229717 1.9360001 nan
-0.12949048 -0.48695716 1.9150001 nan
-0.12584287 -0.48695716 1.9150001 nan
-0.12149334 -0.48416004 1.904 nan
-0.11724763 -0.48161718 1.8940001 nan
-0.11364001 -0.48161718 1.8940001 nan
-0.10939334 -0.47882003 1.8830001 nan
-0.10580667 -0.47882003 1.8830001 nan
-0.10222001 -0.47882003 1.8830001 nan
-0.098633341 -0.47882003 1.8830001 nan
-0.11783429 -0.61689717 2.4260001 nan
-0.11321334 -0.61689717 2.4260001 -2.9410875e+38
-0.10783143 -0.61257434 2.4090002 -2.660282e+38
-0.10324287 -0.61257434 2.4090002 -2.3815618e+38
-0.098654293 -0.61257434 2.4090002 -2.4352525e+38
-0.094065718 -0.61257434 2.4090002 -2.4884219e+38
-0.089477152 -0.61257434 2.4090002 -2.4751298e+38
-0.084888577 -0.61257434 2.4090002 -2.4619418e+38
-0.080300003 -0.61257434 2.4090002 -2.4619422e+38
-0.075711437 -0.61257434 2.4090002 -2.4619941e+38
-0.071122862 -0.61257434 2.4090002 -2.462046e+38
-0.066534288 -0.61257434 2.4090002 -2.4487022e+38
-0.061945718 -0.61257434 2.4090002 -2.4487026e+38
-0.057357147 -0.61257434 2.4090002 -2.4354627e+38
-0.052768573 -0.61257434 2.4090002 -2.4354633e+38
-0.048180003 -0.61257434 2.4090002 -2.4354113e+38
-0.043591432 -0.61257434 2.4090002 -2.4354116e+38
-0.039002858 -0.61257434 2.4090002 -2.4354111e+38
-0.034414288 -0.61257434 2.4090002 -2.4354105e+38
-0.029825715 -0.61257434 2.4090002 -2.4354623e+38
-0.02505905 -0.60825145 2.3920002 -2.4354621e+38
-0.020648573 -0.61257434 2.4090002 -2.4222217e+38
-0.01606 -0.61257434 2.4090002 -2.4222217e+38
-0.011471429 -0.61257434 2.4090002 -2.4089292e+38
-0.0068342863 -0.60825145 2.3920002 -2.4355138e+38
-0.0022780953 -0.60825145 2.3920002 -2.4620983e+38
0.0023104763 -0.61689717 2.4260001 -2.4487541e+38
0.0069314288 -0.61689717 2.4260001 -2.4222734e+38
0.011471429 -0.61257434 2.4090002 -2.4356176e+38
0.016173335 -0.61689717 2.4260001 -2.4488582e+38
0.020794287 -0.61689717 2.4260001 -2.4488584e+38
0.02541524 -0.61689717 2.4260001 -2.4355142e+38
0.030246669 -0.62122005 2.4430001 -2.4354623e+38
0.034900002 -0.62122005 2.4430001 -2.4354623e+38
