# .PCD v0.7 - Point Cloud Data file format
VERSION 0.7
FIELDS x y z rgb
SIZE 4 4 4 4
TYPE F F F F
COUNT 1 1 1 1
WIDTH 1249
HEIGHT 1
VIEWPOINT 0 0 0 1 0 0 0
POINTS 1249
DATA ascii
2.8795054 -0.11894455 2.2467933 nan
2.8794937 -0.12406835 2.2467933 nan
2.879482 -0.12919214 2.2467933 nan
2.8794701 -0.13431594 2.2467933 nan
2.8794584 -0.13943973 2.2467933 nan
2.8794467 -0.14456353 2.2467933 nan
2.8794351 -0.14968732 2.2467933 nan
2.9004219 -0.15547927 2.254653 nan
2.9004102 -0.16064307 2.254653 nan
2.9003983 -0.16580686 2.254653 nan
2.8798225 0.019397959 2.2416692 nan
2.8588095 0.013622306 2.2338493 nan
2.858798 0.0085384995 2.2338493 -3.0624885e+38
2.8387849 0.0029100776 2.2264018 -3.1015281e+38
2.8387735 -0.0021356195 2.2264018 -3.1420322e+38
2.8187606 -0.0076497532 2.2189541 nan
2.8187492 -0.012657356 2.2189541 nan
2.7987368 -0.018057205 2.2115064 nan
2.7987254 -0.023026716 2.2115064 nan
2.7987139 -0.027996223 2.2115064 nan
2.8187032 -0.03268778 2.2189541 nan
2.8186917 -0.037695386 2.2189541 nan
2.8186803 -0.042702992 2.2189541 nan
2.8186688 -0.047710598 2.2189541 nan
2.8186574 -0.052718207 2.2189541 nan
2.8386462 -0.057638329 2.2264018 nan
2.8386345 -0.062684029 2.2264018 nan
2.838623 -0.067729734 2.2264018 nan
2.8386114 -0.072775431 2.2264018 nan
2.8585999 -0.07788603 2.2338493 nan
2.8585882 -0.082969829 2.2338493 nan
2.879576 -0.088201769 2.2416692 nan
2.8585649 -0.093137428 2.2338493 nan
2.8585532 -0.09822122 2.2338493 nan
2.8585415 -0.10330501 2.2338493 nan
2.879529 -0.10869696 2.2416692 nan
2.8795171 -0.11382075 2.2416692 nan
2.8795054 -0.11894455 2.2416692 nan
2.8794937 -0.12406835 2.2416692 nan
2.879482 -0.12919214 2.2416692 nan
2.8794701 -0.13431594 2.2416692 nan
2.8794584 -0.13943973 2.2416692 nan
2.8584483 -0.14397539 2.2338493 nan
2.8584366 -0.14905918 2.2338493 nan
2.8794231 -0.15481111 2.2416692 nan
2.8794115 -0.15993491 2.2416692 nan
2.8588095 0.013622306 2.2287655 nan
2.858798 0.0085384995 2.2287655 nan
2.8387849 0.0029100776 2.2213559 nan
2.8387735 -0.0021356195 2.2213559 nan
2.8387618 -0.0071813129 2.2213559 nan
2.8187492 -0.012657356 2.2139463 nan
2.8187377 -0.017664962 2.2139463 nan
2.7987254 -0.023026716 2.206537 nan
2.7987139 -0.027996223 2.206537 nan
2.7987025 -0.032965738 2.206537 nan
2.798691 -0.037935246 2.206537 nan
2.7986798 -0.042904761 2.206537 nan
2.8186688 -0.047710598 2.2139463 nan
2.8186574 -0.052718207 2.2139463 nan
2.8386462 -0.057638329 2.2213559 nan
2.8386345 -0.062684029 2.2213559 nan
2.858623 -0.067718439 2.2287655 nan
2.8386114 -0.072775431 2.2213559 nan
2.8585999 -0.07788603 2.2287655 nan
2.8585882 -0.082969829 2.2287655 nan
2.8585765 -0.088053629 2.2287655 nan
2.8585649 -0.093137428 2.2287655 nan
2.8585532 -0.09822122 2.2287655 nan
2.8585415 -0.10330501 2.2287655 nan
2.879529 -0.10869696 2.2365456 nan
2.8795171 -0.11382075 2.2365456 nan
2.8795054 -0.11894455 2.2365456 nan
2.8794937 -0.12406835 2.2365456 nan
2.879482 -0.12919214 2.2365456 nan
2.8794701 -0.13431594 2.2365456 nan
2.8794584 -0.13943973 2.2365456 nan
2.8794467 -0.14456353 2.2365456 nan
2.8794351 -0.14968732 2.2365456 nan
2.9004219 -0.15547927 2.2443256 nan
2.9004102 -0.16064307 2.2443256 nan
2.8588095 0.013622306 2.2236817 nan
2.858798 0.0085384995 2.2236817 nan
2.8587863 0.0034547076 2.2236817 nan
2.8387735 -0.0021356195 2.2163103 nan
2.8387618 -0.0071813129 2.2163103 nan
2.8387501 -0.012227017 2.2163103 nan
2.8187377 -0.017664962 2.2089388 nan
2.8187263 -0.022672568 2.2089388 nan
2.8187146 -0.02768017 2.2089388 nan
2.8187032 -0.03268778 2.2089388 -3.0114093e+38
2.8186917 -0.037695386 2.2089388 nan
2.8186803 -0.042702992 2.2089388 nan
2.8186688 -0.047710598 2.2089388 nan
2.8186574 -0.052718207 2.2089388 nan
2.8386462 -0.057638329 2.2163103 nan
2.8386345 -0.062684029 2.2163103 nan
2.838623 -0.067729734 2.2163103 nan
2.8386114 -0.072775431 2.2163103 nan
2.8585999 -0.07788603 2.2236817 nan
2.8585882 -0.082969829 2.2236817 nan
2.879576 -0.088201769 2.2314217 nan
2.8795643 -0.09332557 2.2314217 nan
2.8795524 -0.098449364 2.2314217 nan
2.8795407 -0.10357316 2.2314217 nan
2.879529 -0.10869696 2.2314217 nan
2.8795171 -0.11382075 2.2314217 nan
2.8795054 -0.11894455 2.2314217 nan
2.8794937 -0.12406835 2.2314217 nan
2.879482 -0.12919214 2.2314217 nan
2.8794701 -0.13431594 2.2314217 nan
2.8794584 -0.13943973 2.2314217 nan
2.8794467 -0.14456353 2.2314217 nan
2.9004338 -0.15031546 2.2391617 nan
2.9004219 -0.15547927 2.2391617 nan
2.9004102 -0.16064307 2.2391617 nan
2.8588095 0.013622306 2.2185979 nan
2.858798 0.0085384995 2.2185979 nan
2.8587863 0.0034547076 2.2185979 nan
2.8587747 -0.0016290918 2.2185979 nan
2.8387618 -0.0071813129 2.2112646 nan
2.8387501 -0.012227017 2.2112646 nan
2.8187377 -0.017664962 2.2039313 nan
2.8187263 -0.022672568 2.2039313 nan
2.8187146 -0.02768017 2.2039313 nan
2.8187032 -0.03268778 2.2039313 -3.1937544e+38
2.8186917 -0.037695386 2.2039313 nan
2.8186803 -0.042702992 2.2039313 nan
2.8186688 -0.047710598 2.2039313 nan
2.8186574 -0.052718207 2.2039313 nan
2.8386462 -0.057638329 2.2112646 nan
2.8386345 -0.062684029 2.2112646 nan
2.838623 -0.067729734 2.2112646 nan
2.8386114 -0.072775431 2.2112646 nan
2.8585999 -0.07788603 2.2185979 nan
2.8585882 -0.082969829 2.2185979 nan
2.8585765 -0.088053629 2.2185979 nan
2.8585649 -0.093137428 2.2185979 nan
2.8585532 -0.09822122 2.2185979 nan
2.8795407 -0.10357316 2.2262979 nan
2.879529 -0.10869696 2.2262979 nan
2.8795171 -0.11382075 2.2262979 nan
2.8795054 -0.11894455 2.2262979 nan
2.8794937 -0.12406835 2.2262979 nan
2.879482 -0.12919214 2.2262979 nan
2.8794701 -0.13431594 2.2262979 nan
2.8794584 -0.13943973 2.2262979 nan
2.8794467 -0.14456353 2.2262979 nan
2.9004338 -0.15031546 2.2339978 nan
2.9224203 -0.15617922 2.2420645 nan
2.9224083 -0.16138494 2.2420645 nan
2.8588095 0.013622306 2.2135141 nan
2.858798 0.0085384995 2.2135141 nan
2.8587863 0.0034547076 2.2135141 nan
2.8587747 -0.0016290918 2.2135141 nan
2.858763 -0.0067128837 2.2135141 nan
2.8387501 -0.012227017 2.2062187 nan
2.8387387 -0.017272718 2.2062187 nan
2.8187263 -0.022672568 2.1989236 nan
2.8187146 -0.02768017 2.1989236 -3.3945347e+38
2.8187032 -0.03268778 2.1989236 -3.3674345e+38
2.8186917 -0.037695386 2.1989236 nan
2.8186803 -0.042702992 2.1989236 nan
2.8186688 -0.047710598 2.1989236 nan
2.8386576 -0.052592628 2.2062187 nan
2.8386462 -0.057638329 2.2062187 nan
2.8386345 -0.062684029 2.2062187 nan
2.838623 -0.067729734 2.2062187 nan
2.8386114 -0.072775431 2.2062187 nan
2.8585999 -0.07788603 2.2135141 nan
2.8585882 -0.082969829 2.2135141 nan
2.8585765 -0.088053629 2.2135141 nan
2.8585649 -0.093137428 2.2135141 nan
2.8585532 -0.09822122 2.2135141 nan
2.8585415 -0.10330501 2.2135141 nan
2.8585298 -0.10838881 2.2135141 nan
2.8585181 -0.11347261 2.2135141 nan
2.8585064 -0.11855641 2.2135141 nan
2.8794937 -0.12406835 2.221174 nan
2.879482 -0.12919214 2.221174 nan
2.8794701 -0.13431594 2.221174 nan
2.8794584 -0.13943973 2.221174 nan
2.9004457 -0.14515167 2.2288342 nan
2.9224322 -0.15097353 2.2368588 nan
2.9224203 -0.15617922 2.2368588 nan
2.9664052 -0.16286865 2.2529082 nan
2.858798 0.0085384995 2.2084303 nan
2.8587863 0.0034547076 2.2084303 nan
2.8587747 -0.0016290918 2.2084303 nan
2.858763 -0.0067128837 2.2084303 nan
2.8587513 -0.011796672 2.2084303 nan
2.8387387 -0.017272718 2.2011731 nan
2.838727 -0.022318419 2.2011731 nan
2.8387156 -0.02736412 2.2011731 nan
2.8387039 -0.032409821 2.2011731 nan
2.8386924 -0.037455525 2.2011731 nan
2.8386807 -0.042501222 2.2011731 nan
2.8386693 -0.047546923 2.2011731 nan
2.8386576 -0.052592628 2.2011731 nan
2.8386462 -0.057638329 2.2011731 nan
2.8386345 -0.062684029 2.2011731 nan
2.838623 -0.067729734 2.2011731 nan
2.8386114 -0.072775431 2.2011731 nan
2.8585999 -0.07788603 2.2084303 nan
2.8585882 -0.082969829 2.2084303 nan
2.8585765 -0.088053629 2.2084303 nan
2.8585649 -0.093137428 2.2084303 nan
2.8585532 -0.09822122 2.2084303 nan
2.8585415 -0.10330501 2.2084303 nan
2.8585298 -0.10838881 2.2084303 nan
2.8795171 -0.11382075 2.2160501 nan
2.8795054 -0.11894455 2.2160501 nan
2.8794937 -0.12406835 2.2160501 nan
2.879482 -0.12919214 2.2160501 nan
2.8794701 -0.13431594 2.2160501 nan
2.9004574 -0.13998787 2.2236702 nan
2.9004457 -0.14515167 2.2236702 nan
2.9224322 -0.15097353 2.2316532 nan
2.9224203 -0.15617922 2.2316532 nan
2.8797991 0.0091503635 2.2109265 nan
2.8587863 0.0034547076 2.2033465 nan
2.8587747 -0.0016290918 2.2033465 nan
2.858763 -0.0067128837 2.2033465 nan
2.8587513 -0.011796672 2.2033465 nan
2.8587396 -0.016880475 2.2033465 nan
2.8587279 -0.021964271 2.2033465 nan
2.8587162 -0.027048066 2.2033465 nan
2.8587048 -0.032131862 2.2033465 nan
2.8386924 -0.037455525 2.1961274 nan
2.8386807 -0.042501222 2.1961274 nan
2.8386693 -0.047546923 2.1961274 nan
2.8386576 -0.052592628 2.1961274 nan
2.8386462 -0.057638329 2.1961274 nan
2.8386345 -0.062684029 2.1961274 nan
2.838623 -0.067729734 2.1961274 nan
2.8386114 -0.072775431 2.1961274 nan
2.8585999 -0.07788603 2.2033465 nan
2.8585882 -0.082969829 2.2033465 nan
2.8585765 -0.088053629 2.2033465 nan
2.8585649 -0.093137428 2.2033465 nan
2.8585532 -0.09822122 2.2033465 nan
2.8795407 -0.10357316 2.2109265 nan
2.8585298 -0.10838881 2.2033465 nan
2.8795171 -0.11382075 2.2109265 nan
2.8795054 -0.11894455 2.2109265 nan
2.8794937 -0.12406835 2.2109265 nan
2.879482 -0.12919214 2.2109265 nan
2.8794701 -0.13431594 2.2109265 nan
2.8794584 -0.13943973 2.2109265 nan
2.9004457 -0.14515167 2.2185063 nan
2.9004338 -0.15031546 2.2185063 nan
2.9004219 -0.15547927 2.2185063 nan
2.8797874 0.0040265694 2.2058027 nan
2.8797755 -0.0010972247 2.2058027 nan
2.8797638 -0.0062210187 2.2058027 nan
2.8797522 -0.011344831 2.2058027 nan
2.8587396 -0.016880475 2.1982627 nan
2.8587279 -0.021964271 2.1982627 nan
2.8587162 -0.027048066 2.1982627 nan
2.8587048 -0.032131862 2.1982627 nan
2.8386924 -0.037455525 2.1910818 nan
2.8386807 -0.042501222 2.1910818 nan
2.8386693 -0.047546923 2.1910818 nan
2.8386576 -0.052592628 2.1910818 nan
2.8386462 -0.057638329 2.1910818 nan
2.8386345 -0.062684029 2.1910818 nan
2.838623 -0.067729734 2.1910818 nan
2.8586113 -0.072802238 2.1982627 nan
2.8795993 -0.077954173 2.2058027 nan
2.8795877 -0.083077975 2.2058027 nan
2.879576 -0.088201769 2.2058027 nan
2.8585649 -0.093137428 2.1982627 nan
2.8585532 -0.09822122 2.1982627 nan
2.8795407 -0.10357316 2.2058027 nan
2.8585298 -0.10838881 2.1982627 nan
2.8795171 -0.11382075 2.2058027 nan
2.8795054 -0.11894455 2.2058027 nan
2.8794937 -0.12406835 2.2058027 nan
2.879482 -0.12919214 2.2058027 nan
2.8794701 -0.13431594 2.2058027 nan
2.8794584 -0.13943973 2.2058027 nan
2.8794467 -0.14456353 2.2058027 nan
2.8794351 -0.14968732 2.2058027 nan
2.9008007 0.0097622201 2.2081788 nan
2.8797874 0.0040265694 2.2006788 nan
2.8797755 -0.0010972247 2.2006788 nan
2.8797638 -0.0062210187 2.2006788 nan
2.8797522 -0.011344831 2.2006788 nan
2.8587396 -0.016880475 2.1931789 nan
2.8587279 -0.021964271 2.1931789 nan
2.8587162 -0.027048066 2.1931789 nan
2.8387039 -0.032409821 2.1860361 nan
2.8186917 -0.037695386 2.1788931 nan
2.8386807 -0.042501222 2.1860361 nan
2.8386693 -0.047546923 2.1860361 nan
2.8386576 -0.052592628 2.1860361 nan
2.8386462 -0.057638329 2.1860361 nan
2.8386345 -0.062684029 2.1860361 nan
2.858623 -0.067718439 2.1931789 nan
2.8586113 -0.072802238 2.1931789 nan
2.8795993 -0.077954173 2.2006788 nan
2.8795877 -0.083077975 2.2006788 nan
2.879576 -0.088201769 2.2006788 nan
2.8795643 -0.09332557 2.2006788 nan
2.8795524 -0.098449364 2.2006788 nan
2.8795407 -0.10357316 2.2006788 nan
2.879529 -0.10869696 2.2006788 nan
2.8795171 -0.11382075 2.2006788 nan
2.8795054 -0.11894455 2.2006788 nan
2.8794937 -0.12406835 2.2006788 nan
2.879482 -0.12919214 2.2006788 nan
2.8794701 -0.13431594 2.2006788 nan
2.8794584 -0.13943973 2.2006788 nan
2.8794467 -0.14456353 2.2006788 nan
2.8794351 -0.14968732 2.2006788 nan
2.9004219 -0.15547927 2.2081788 nan
2.9008007 0.0097622201 2.2030151 nan
2.8797874 0.0040265694 2.195555 nan
2.8797755 -0.0010972247 2.195555 nan
2.8797638 -0.0062210187 2.195555 nan
2.8797522 -0.011344831 2.195555 nan
2.8587396 -0.016880475 2.1880951 nan
2.8587279 -0.021964271 2.1880951 nan
2.8587162 -0.027048066 2.1880951 nan
2.8387039 -0.032409821 2.1809902 -3.3142094e+38
2.8386924 -0.037455525 2.1809902 -3.3944789e+38
2.8386807 -0.042501222 2.1809902 nan
2.8386693 -0.047546923 2.1809902 nan
2.8386576 -0.052592628 2.1809902 nan
2.8386462 -0.057638329 2.1809902 nan
2.8586347 -0.062634647 2.1880951 nan
2.858623 -0.067718439 2.1880951 nan
2.8586113 -0.072802238 2.1880951 nan
2.8795993 -0.077954173 2.195555 nan
2.8795877 -0.083077975 2.195555 nan
2.879576 -0.088201769 2.195555 nan
2.8795643 -0.09332557 2.195555 nan
2.8795524 -0.098449364 2.195555 nan
2.8795407 -0.10357316 2.195555 nan
2.879529 -0.10869696 2.195555 nan
2.8795171 -0.11382075 2.195555 nan
2.8795054 -0.11894455 2.195555 nan
2.8794937 -0.12406835 2.195555 nan
2.879482 -0.12919214 2.195555 nan
2.9004693 -0.13482408 2.2030151 nan
2.9004574 -0.13998787 2.2030151 nan
2.8794467 -0.14456353 2.195555 nan
2.9004338 -0.15031546 2.2030151 nan
2.9004219 -0.15547927 2.2030151 nan
2.9004102 -0.16064307 2.2030151 nan
2.8797991 0.0091503635 2.1904311 nan
2.8797874 0.0040265694 2.1904311 nan
2.8797755 -0.0010972247 2.1904311 nan
2.8797638 -0.0062210187 2.1904311 nan
2.8797522 -0.011344831 2.1904311 nan
2.8587396 -0.016880475 2.1830113 nan
2.8587279 -0.021964271 2.1830113 nan
2.8587162 -0.027048066 2.1830113 -3.2203852e+38
2.8387039 -0.032409821 2.1759446 -3.0212077e+38
2.8386924 -0.037455525 2.1759446 -2.9810702e+38
2.8386807 -0.042501222 2.1759446 -2.9282175e+38
2.8386693 -0.047546923 2.1759446 -3.1135355e+38
2.8386576 -0.052592628 2.1759446 -3.3008198e+38
2.8386462 -0.057638329 2.1759446 -3.3402796e+38
2.8386345 -0.062684029 2.1759446 -3.3817683e+38
2.858623 -0.067718439 2.1830113 nan
2.8586113 -0.072802238 2.1830113 nan
2.8795993 -0.077954173 2.1904311 nan
2.8795877 -0.083077975 2.1904311 nan
2.879576 -0.088201769 2.1904311 nan
2.8795643 -0.09332557 2.1904311 nan
2.8795524 -0.098449364 2.1904311 nan
2.8795407 -0.10357316 2.1904311 nan
2.879529 -0.10869696 2.1904311 nan
2.8795171 -0.11382075 2.1904311 nan
2.8795054 -0.11894455 2.1904311 nan
2.8794937 -0.12406835 2.1904311 nan
2.879482 -0.12919214 2.1904311 nan
2.9004693 -0.13482408 2.1978512 nan
2.8794584 -0.13943973 2.1904311 nan
2.8794467 -0.14456353 2.1904311 nan
2.9004338 -0.15031546 2.1978512 nan
2.9004219 -0.15547927 2.1978512 nan
2.9004102 -0.16064307 2.1978512 -3.0308082e+38
2.8797874 0.0040265694 2.1853075 nan
2.8797755 -0.0010972247 2.1853075 nan
2.8797638 -0.0062210187 2.1853075 nan
2.8797522 -0.011344831 2.1853075 nan
2.8587396 -0.016880475 2.1779275 nan
2.8587279 -0.021964271 2.1779275 -3.3932402e+38
2.8587162 -0.027048066 2.1779275 -3.3001361e+38
2.8387039 -0.032409821 2.1708989 -3.2205396e+38
2.8386924 -0.037455525 2.1708989 -3.2740214e+38
2.8386807 -0.042501222 2.1708989 -3.340017e+38
2.8386693 -0.047546923 2.1708989 nan
2.8386576 -0.052592628 2.1708989 nan
2.8386462 -0.057638329 2.1708989 nan
2.8586347 -0.062634647 2.1779275 nan
2.858623 -0.067718439 2.1779275 nan
2.8586113 -0.072802238 2.1779275 nan
2.8795993 -0.077954173 2.1853075 nan
2.8795877 -0.083077975 2.1853075 nan
2.879576 -0.088201769 2.1853075 nan
2.900564 -0.093513712 2.1926875 nan
2.8795524 -0.098449364 2.1853075 nan
2.9005404 -0.1038413 2.1926875 nan
2.9005284 -0.10900509 2.1926875 nan
2.8795171 -0.11382075 2.1853075 nan
2.8795054 -0.11894455 2.1853075 nan
2.8794937 -0.12406835 2.1853075 nan
2.879482 -0.12919214 2.1853075 nan
2.9004693 -0.13482408 2.1926875 nan
2.9004574 -0.13998787 2.1926875 nan
2.8794467 -0.14456353 2.1853075 nan
2.8794351 -0.14968732 2.1853075 nan
2.9004219 -0.15547927 2.1926875 nan
2.9004102 -0.16064307 2.1926875 -3.046381e+38
2.9003983 -0.16580686 2.1926875 -1.7014173e+38
2.8797638 -0.0062210187 2.1801836 nan
2.8797522 -0.011344831 2.1801836 nan
2.8797405 -0.016468618 2.1801836 nan
2.8797286 -0.02159242 2.1801836 -3.3539842e+38
2.8587162 -0.027048066 2.1728435 -3.3797338e+38
2.8387039 -0.032409821 2.165853 nan
2.8386924 -0.037455525 2.165853 nan
2.8386807 -0.042501222 2.165853 nan
2.8386693 -0.047546923 2.165853 nan
2.8586581 -0.052467052 2.1728435 nan
2.8386462 -0.057638329 2.165853 nan
2.8586347 -0.062634647 2.1728435 nan
2.858623 -0.067718439 2.1728435 nan
2.8586113 -0.072802238 2.1728435 nan
2.9005995 -0.078022324 2.1875236 nan
2.9005878 -0.08318612 2.1875236 nan
2.879576 -0.088201769 2.1801836 nan
2.900564 -0.093513712 2.1875236 nan
2.8795524 -0.098449364 2.1801836 nan
2.9005404 -0.1038413 2.1875236 nan
2.879529 -0.10869696 2.1801836 nan
2.8795171 -0.11382075 2.1801836 nan
2.8795054 -0.11894455 2.1801836 nan
2.8794937 -0.12406835 2.1801836 nan
2.879482 -0.12919214 2.1801836 nan
2.8794701 -0.13431594 2.1801836 nan
2.8794584 -0.13943973 2.1801836 nan
2.8794467 -0.14456353 2.1801836 nan
2.8794351 -0.14968732 2.1801836 nan
2.9004219 -0.15547927 2.1875236 nan
2.9004102 -0.16064307 2.1875236 -3.0572286e+38
2.8793998 -0.1650587 2.1801836 -1.7027728e+38
2.8797638 -0.0062210187 2.1750598 nan
2.9007535 -0.010892972 2.1823597 nan
2.8797405 -0.016468618 2.1750598 nan
2.8797286 -0.02159242 2.1750598 nan
2.8587162 -0.027048066 2.1677599 nan
2.8587048 -0.032131862 2.1677599 nan
2.8386924 -0.037455525 2.1608074 nan
2.8386807 -0.042501222 2.1608074 nan
2.8386693 -0.047546923 2.1608074 nan
2.8586581 -0.052467052 2.1677599 nan
2.8586464 -0.057550848 2.1677599 nan
2.8586347 -0.062634647 2.1677599 nan
2.858623 -0.067718439 2.1677599 nan
2.8586113 -0.072802238 2.1677599 nan
2.9005995 -0.078022324 2.1823597 nan
2.9005878 -0.08318612 2.1823597 nan
2.9005759 -0.088349916 2.1823597 nan
2.900564 -0.093513712 2.1823597 nan
2.9005523 -0.098677501 2.1823597 nan
2.9005404 -0.1038413 2.1823597 nan
2.879529 -0.10869696 2.1750598 nan
2.8795171 -0.11382075 2.1750598 nan
2.8795054 -0.11894455 2.1750598 nan
2.8794937 -0.12406835 2.1750598 nan
2.879482 -0.12919214 2.1750598 nan
2.8794701 -0.13431594 2.1750598 nan
2.9004574 -0.13998787 2.1823597 nan
2.8794467 -0.14456353 2.1750598 nan
2.9004338 -0.15031546 2.1823597 nan
2.9004219 -0.15547927 2.1823597 nan
2.8794115 -0.15993491 2.1750598 -3.0463206e+38
2.8793998 -0.1650587 2.1750598 -1.7014283e+38
2.8797638 -0.0062210187 2.1699359 nan
2.8797522 -0.011344831 2.1699359 nan
2.8797405 -0.016468618 2.1699359 nan
2.8587279 -0.021964271 2.1626759 nan
2.8587162 -0.027048066 2.1626759 nan
2.8587048 -0.032131862 2.1626759 nan
2.8386924 -0.037455525 2.1557617 nan
2.8386807 -0.042501222 2.1557617 nan
2.8586698 -0.047383253 2.1626759 nan
2.8586581 -0.052467052 2.1626759 nan
2.8586464 -0.057550848 2.1626759 nan
2.8586347 -0.062634647 2.1626759 nan
2.8796229 -0.067706585 2.1699359 nan
2.8796113 -0.072830379 2.1699359 nan
2.9005995 -0.078022324 2.177196 nan
2.9005878 -0.08318612 2.177196 nan
2.9005759 -0.088349916 2.177196 nan
2.900564 -0.093513712 2.177196 nan
2.9005523 -0.098677501 2.177196 nan
2.9005404 -0.1038413 2.177196 nan
2.879529 -0.10869696 2.1699359 nan
2.8795171 -0.11382075 2.1699359 nan
2.8795054 -0.11894455 2.1699359 nan
2.8794937 -0.12406835 2.1699359 nan
2.879482 -0.12919214 2.1699359 nan
2.8794701 -0.13431594 2.1699359 nan
2.9004574 -0.13998787 2.177196 nan
2.8794467 -0.14456353 2.1699359 nan
2.9004338 -0.15031546 2.177196 nan
2.9004219 -0.15547927 2.177196 nan
2.8794115 -0.15993491 2.1699359 -3.0439321e+38
2.8793998 -0.1650587 2.1699359 -1.703923e+38
2.8793881 -0.17018251 2.1699359 -3.1868618e+38
2.8793762 -0.17530631 2.1699359 nan
2.8587279 -0.021964271 2.1575923 nan
2.8587162 -0.027048066 2.1575923 nan
2.8387039 -0.032409821 2.1507158 nan
2.8386924 -0.037455525 2.1507158 nan
2.8386807 -0.042501222 2.1507158 nan
2.8386693 -0.047546923 2.1507158 nan
2.8586581 -0.052467052 2.1575923 nan
2.8586464 -0.057550848 2.1575923 nan
2.8586347 -0.062634647 2.1575923 nan
2.8796229 -0.067706585 2.1648121 nan
2.8796113 -0.072830379 2.1648121 nan
2.9005995 -0.078022324 2.1720321 nan
2.9005878 -0.08318612 2.1720321 nan
2.9005759 -0.088349916 2.1720321 nan
2.900564 -0.093513712 2.1720321 nan
2.9005523 -0.098677501 2.1720321 nan
2.9005404 -0.1038413 2.1720321 nan
2.879529 -0.10869696 2.1648121 nan
2.8795171 -0.11382075 2.1648121 nan
2.8795054 -0.11894455 2.1648121 nan
2.8794937 -0.12406835 2.1648121 nan
2.9004812 -0.12966028 2.1720321 nan
2.8794701 -0.13431594 2.1648121 nan
2.9004574 -0.13998787 2.1720321 nan
2.8794467 -0.14456353 2.1648121 nan
2.9004338 -0.15031546 2.1720321 nan
2.8794231 -0.15481111 2.1648121 nan
2.8794115 -0.15993491 2.1648121 -3.0461648e+38
2.8793998 -0.1650587 2.1648121 -1.7014331e+38
2.8793881 -0.17018251 2.1648121 -3.2651665e+38
2.8793762 -0.17530631 2.1648121 nan
2.8583667 -0.17956197 2.1575923 nan
2.8587279 -0.021964271 2.1525083 nan
2.8587162 -0.027048066 2.1525083 nan
2.8587048 -0.032131862 2.1525083 nan
2.8586931 -0.037215661 2.1525083 nan
2.8586814 -0.042299457 2.1525083 nan
2.8796699 -0.047211397 2.1596885 nan
2.8586581 -0.052467052 2.1525083 nan
2.8586464 -0.057550848 2.1525083 nan
2.8586347 -0.062634647 2.1525083 nan
2.8796229 -0.067706585 2.1596885 nan
2.8796113 -0.072830379 2.1596885 nan
2.9005995 -0.078022324 2.1668682 nan
2.9005878 -0.08318612 2.1668682 nan
2.9005759 -0.088349916 2.1668682 nan
2.900564 -0.093513712 2.1668682 nan
2.9005523 -0.098677501 2.1668682 nan
2.9005404 -0.1038413 2.1668682 nan
2.879529 -0.10869696 2.1596885 nan
2.8795171 -0.11382075 2.1596885 nan
2.8795054 -0.11894455 2.1596885 nan
2.8794937 -0.12406835 2.1596885 nan
2.879482 -0.12919214 2.1596885 nan
2.8794701 -0.13431594 2.1596885 nan
2.8794584 -0.13943973 2.1596885 nan
2.8794467 -0.14456353 2.1596885 nan
2.8794351 -0.14968732 2.1596885 nan
2.8794231 -0.15481111 2.1596885 nan
2.8794115 -0.15993491 2.1596885 -3.0439325e+38
2.8793998 -0.1650587 2.1596885 -1.7048615e+38
2.8583901 -0.16939437 2.1525083 -3.3480382e+38
2.8793762 -0.17530631 2.1596885 nan
2.8583667 -0.17956197 2.1525083 nan
2.8797169 -0.026716214 2.1545646 nan
2.8797052 -0.031840011 2.1545646 nan
2.8796935 -0.036963806 2.1545646 nan
2.8796816 -0.0420876 2.1545646 nan
2.8796699 -0.047211397 2.1545646 nan
2.8796582 -0.052335195 2.1545646 nan
2.8796463 -0.057458989 2.1545646 nan
2.8796346 -0.062582791 2.1545646 nan
2.8796229 -0.067706585 2.1545646 nan
2.8796113 -0.072830379 2.1545646 nan
2.9005995 -0.078022324 2.1617045 nan
2.9005878 -0.08318612 2.1617045 nan
2.9005759 -0.088349916 2.1617045 nan
2.900564 -0.093513712 2.1617045 nan
2.9005523 -0.098677501 2.1617045 nan
2.8795407 -0.10357316 2.1545646 nan
2.879529 -0.10869696 2.1545646 nan
2.8795171 -0.11382075 2.1545646 nan
2.8795054 -0.11894455 2.1545646 nan
2.8794937 -0.12406835 2.1545646 nan
2.879482 -0.12919214 2.1545646 nan
2.8794701 -0.13431594 2.1545646 nan
2.8794584 -0.13943973 2.1545646 nan
2.8794467 -0.14456353 2.1545646 nan
2.9004338 -0.15031546 2.1617045 nan
2.8794231 -0.15481111 2.1545646 nan
2.8794115 -0.15993491 2.1545646 nan
2.8793998 -0.1650587 2.1545646 -2.4610692e+38
2.8793881 -0.17018251 2.1545646 nan
2.8793762 -0.17530631 2.1545646 nan
2.8793645 -0.1804301 2.1545646 nan
2.8793528 -0.18555391 2.1545646 nan
2.8793409 -0.1906777 2.1545646 nan
2.9437196 -0.025704846 2.1710789 nan
2.9007061 -0.031548154 2.1565409 nan
2.9006941 -0.03671195 2.1565409 nan
2.9006824 -0.041875746 2.1565409 nan
2.9006705 -0.047039542 2.1565409 nan
2.8796582 -0.052335195 2.1494408 nan
2.8796463 -0.057458989 2.1494408 nan
2.8796346 -0.062582791 2.1494408 nan
2.8796229 -0.067706585 2.1494408 nan
2.8796113 -0.072830379 2.1494408 nan
2.9005995 -0.078022324 2.1565409 nan
2.9005878 -0.08318612 2.1565409 nan
2.9005759 -0.088349916 2.1565409 nan
2.900564 -0.093513712 2.1565409 nan
2.9005523 -0.098677501 2.1565409 nan
2.8795407 -0.10357316 2.1494408 nan
2.879529 -0.10869696 2.1494408 nan
2.8795171 -0.11382075 2.1494408 nan
2.8795054 -0.11894455 2.1494408 nan
2.8794937 -0.12406835 2.1494408 nan
2.879482 -0.12919214 2.1494408 nan
2.8794701 -0.13431594 2.1494408 nan
2.8794584 -0.13943973 2.1494408 nan
2.8794467 -0.14456353 2.1494408 nan
2.8794351 -0.14968732 2.1494408 nan
2.8794231 -0.15481111 2.1494408 nan
2.8794115 -0.15993491 2.1494408 nan
2.8793998 -0.1650587 2.1494408 -3.2221575e+38
2.8793881 -0.17018251 2.1494408 nan
2.8793762 -0.17530631 2.1494408 nan
2.8793645 -0.1804301 2.1494408 nan
2.8793528 -0.18555391 2.1494408 nan
2.8793409 -0.1906777 2.1494408 nan
2.9437797 0.00052366406 2.165833 nan
2.9007535 -0.010892972 2.151377 nan
2.9007416 -0.016056765 2.151377 nan
2.9007297 -0.021220561 2.151377 nan
2.9437196 -0.025704846 2.165833 nan
2.9227066 -0.0312424 2.1587732 nan
2.9226947 -0.036448099 2.1587732 nan
2.9006824 -0.041875746 2.151377 nan
2.9006705 -0.047039542 2.151377 nan
2.8796582 -0.052335195 2.1443169 nan
2.8796463 -0.057458989 2.1443169 nan
2.8796346 -0.062582791 2.1443169 nan
2.8796229 -0.067706585 2.1443169 nan
2.8796113 -0.072830379 2.1443169 nan
2.9005995 -0.078022324 2.151377 nan
2.9005878 -0.08318612 2.151377 nan
2.9005759 -0.088349916 2.151377 nan
2.900564 -0.093513712 2.151377 nan
2.8795524 -0.098449364 2.1443169 nan
2.8795407 -0.10357316 2.1443169 nan
2.879529 -0.10869696 2.1443169 nan
2.8795171 -0.11382075 2.1443169 nan
2.8795054 -0.11894455 2.1443169 nan
2.8794937 -0.12406835 2.1443169 nan
2.879482 -0.12919214 2.1443169 nan
2.8794701 -0.13431594 2.1443169 nan
2.8794584 -0.13943973 2.1443169 nan
2.8794467 -0.14456353 2.1443169 nan
2.8794351 -0.14968732 2.1443169 nan
2.8794231 -0.15481111 2.1443169 -3.3052316e+38
2.8794115 -0.15993491 2.1443169 -2.9414934e+38
2.8793998 -0.1650587 2.1443169 -2.5853239e+38
2.8793881 -0.17018251 2.1443169 nan
2.8793762 -0.17530631 2.1443169 nan
2.8793645 -0.1804301 2.1443169 nan
2.8793528 -0.18555391 2.1443169 nan
2.8793409 -0.1906777 2.1443169 nan
2.8793292 -0.1958015 2.1443169 nan
2.9667931 0.0063956752 2.1682758 nan
2.9667811 0.0011061653 2.1682758 nan
2.9437678 -0.0047220364 2.1605873 nan
2.9437559 -0.0099677406 2.1605873 nan
2.9227426 -0.015625298 2.1535673 nan
2.9227307 -0.020830996 2.1535673 nan
2.9437196 -0.025704846 2.1605873 nan
2.9437077 -0.030950546 2.1605873 nan
2.9226947 -0.036448099 2.1535673 nan
2.9226828 -0.041653804 2.1535673 nan
2.9226708 -0.046859503 2.1535673 nan
2.9006586 -0.052203339 2.1462131 nan
2.8796463 -0.057458989 2.1391931 -3.3411075e+38
2.8796346 -0.062582791 2.1391931 -3.2750098e+38
2.8796229 -0.067706585 2.1391931 -3.248166e+38
2.8796113 -0.072830379 2.1391931 -3.2088094e+38
2.9005995 -0.078022324 2.1462131 -3.3683697e+38
2.9005878 -0.08318612 2.1462131 nan
2.9005759 -0.088349916 2.1462131 nan
2.8795643 -0.09332557 2.1391931 -3.3952125e+38
2.8795524 -0.098449364 2.1391931 -3.3946415e+38
2.8795407 -0.10357316 2.1391931 -3.395266e+38
2.879529 -0.10869696 2.1391931 nan
2.8795171 -0.11382075 2.1391931 nan
2.8795054 -0.11894455 2.1391931 nan
2.8794937 -0.12406835 2.1391931 nan
2.879482 -0.12919214 2.1391931 nan
2.8794701 -0.13431594 2.1391931 nan
2.8794584 -0.13943973 2.1391931 nan
2.8794467 -0.14456353 2.1391931 nan
2.8794351 -0.14968732 2.1391931 -3.3138555e+38
2.8794231 -0.15481111 2.1391931 -2.2235679e+38
2.8794115 -0.15993491 2.1391931 -2.0868973e+38
2.8793998 -0.1650587 2.1391931 -1.9455822e+38
2.8793881 -0.17018251 2.1391931 nan
2.8793762 -0.17530631 2.1391931 nan
2.8793645 -0.1804301 2.1391931 nan
2.8793528 -0.18555391 2.1391931 nan
2.8793409 -0.1906777 2.1391931 nan
2.8793292 -0.1958015 2.1391931 nan
2.8793175 -0.20092529 2.1391931 nan
2.8793058 -0.20604908 2.1391931 nan
2.8792939 -0.21117288 2.1391931 nan
2.8792822 -0.21629667 2.1391931 nan
2.8792706 -0.22142047 2.1391931 nan
2.8792589 -0.22654426 2.1391931 nan
2.8582501 -0.23039994 2.1321731 nan
2.8382413 -0.23423788 2.1254873 nan
2.9667931 0.0063956752 2.1629865 nan
2.9667811 0.0011061653 2.1629865 nan
2.966769 -0.0041833445 2.1629865 nan
2.9437559 -0.0099677406 2.1553416 nan
2.9227426 -0.015625298 2.1483617 nan
2.9227307 -0.020830996 2.1483617 nan
2.9437196 -0.025704846 2.1553416 nan
2.9437077 -0.030950546 2.1553416 nan
2.9226947 -0.036448099 2.1483617 -3.3814574e+38
2.9226828 -0.041653804 2.1483617 -3.2493071e+38
2.9006705 -0.047039542 2.1410494 -3.3148793e+38
2.8796582 -0.052335195 2.1340694 -3.3674262e+38
2.8796463 -0.057458989 2.1340694 -3.3543941e+38
2.8796346 -0.062582791 2.1340694 -3.3278108e+38
2.8796229 -0.067706585 2.1340694 -3.3149351e+38
2.8796113 -0.072830379 2.1340694 -3.315042e+38
2.9005995 -0.078022324 2.1410494 -3.3815584e+38
2.9005878 -0.08318612 2.1410494 nan
2.9005759 -0.088349916 2.1410494 nan
2.8795643 -0.09332557 2.1340694 nan
2.8795524 -0.098449364 2.1340694 nan
2.8795407 -0.10357316 2.1340694 nan
2.879529 -0.10869696 2.1340694 nan
2.8795171 -0.11382075 2.1340694 nan
2.8795054 -0.11894455 2.1340694 nan
2.8794937 -0.12406835 2.1340694 nan
2.879482 -0.12919214 2.1340694 nan
2.8794701 -0.13431594 2.1340694 nan
2.8794584 -0.13943973 2.1340694 nan
2.8794467 -0.14456353 2.1340694 -3.1446355e+38
2.8794351 -0.14968732 2.1340694 -2.5960073e+38
2.8794231 -0.15481111 2.1340694 -2.049102e+38
2.8794115 -0.15993491 2.1340694 -1.9685689e+38
2.8793998 -0.1650587 2.1340694 -1.8885203e+38
2.8793881 -0.17018251 2.1340694 -3.3054626e+38
2.8793762 -0.17530631 2.1340694 nan
2.8583667 -0.17956197 2.1270893 nan
2.858355 -0.18464577 2.1270893 nan
2.8793409 -0.1906777 2.1340694 nan
2.8793292 -0.1958015 2.1340694 nan
2.8793175 -0.20092529 2.1340694 nan
2.8793058 -0.20604908 2.1340694 nan
2.8792939 -0.21117288 2.1340694 nan
2.8792822 -0.21629667 2.1340694 nan
2.8792706 -0.22142047 2.1340694 nan
2.8792589 -0.22654426 2.1340694 nan
2.8582501 -0.23039994 2.1270893 nan
2.8382413 -0.23423788 2.1204417 nan
2.9667811 0.0011061653 2.157697 nan
2.966769 -0.0041833445 2.157697 nan
2.9437559 -0.0099677406 2.1500959 nan
2.9437437 -0.015213441 2.1500959 nan
2.9437318 -0.020459145 2.1500959 nan
2.9437196 -0.025704846 2.1500959 nan
2.9437077 -0.030950546 2.1500959 nan
2.9226947 -0.036448099 2.1431561 -3.1931224e+38
2.9226828 -0.041653804 2.1431561 -2.8616963e+38
2.9006705 -0.047039542 2.1358855 -3.1014747e+38
2.8796582 -0.052335195 2.1289454 -3.3277566e+38
2.8796463 -0.057458989 2.1289454 -3.3547065e+38
2.8796346 -0.062582791 2.1289454 -3.3815515e+38
2.8796229 -0.067706585 2.1289454 -3.3952082e+38
2.8796113 -0.072830379 2.1289454 nan
2.9005995 -0.078022324 2.1358855 nan
2.9005878 -0.08318612 2.1358855 -3.3948494e+38
2.9005759 -0.088349916 2.1358855 nan
2.900564 -0.093513712 2.1358855 nan
2.9005523 -0.098677501 2.1358855 nan
2.9005404 -0.1038413 2.1358855 nan
2.879529 -0.10869696 2.1289454 nan
2.8795171 -0.11382075 2.1289454 nan
2.8795054 -0.11894455 2.1289454 nan
2.8794937 -0.12406835 2.1289454 nan
2.879482 -0.12919214 2.1289454 nan
2.8794701 -0.13431594 2.1289454 nan
2.8794584 -0.13943973 2.1289454 -2.8077587e+38
2.8794467 -0.14456353 2.1289454 -1.8780217e+38
2.8794351 -0.14968732 2.1289454 -1.8764081e+38
2.8794231 -0.15481111 2.1289454 -1.876664e+38
2.8584132 -0.15922678 2.1220055 -1.8498162e+38
2.8584018 -0.16431057 2.1220055 -1.8249118e+38
2.8793881 -0.17018251 2.1289454 -3.1870259e+38
2.8793762 -0.17530631 2.1289454 nan
2.8583667 -0.17956197 2.1220055 nan
2.858355 -0.18464577 2.1220055 nan
2.8793409 -0.1906777 2.1289454 nan
2.8793292 -0.1958015 2.1289454 nan
2.8793175 -0.20092529 2.1289454 nan
2.8793058 -0.20604908 2.1289454 nan
2.8792939 -0.21117288 2.1289454 nan
2.8582852 -0.21514854 2.1220055 nan
2.8582735 -0.22023234 2.1220055 nan
2.8382645 -0.22414649 2.115396 nan
2.8382528 -0.22919217 2.115396 nan
2.818244 -0.23299202 2.1087866 nan
2.8182325 -0.23799965 2.1087866 nan
2.9667811 0.0011061653 2.1524074 nan
2.966769 -0.0041833445 2.1524074 nan
2.9437559 -0.0099677406 2.1448503 nan
2.9437437 -0.015213441 2.1448503 nan
2.9437318 -0.020459145 2.1448503 nan
2.9437196 -0.025704846 2.1448503 nan
2.9437077 -0.030950546 2.1448503 nan
2.9226947 -0.036448099 2.1379502 nan
2.9226828 -0.041653804 2.1379502 nan
2.9006705 -0.047039542 2.1307216 nan
2.9006586 -0.052203339 2.1307216 -3.2214701e+38
2.8796463 -0.057458989 2.1238217 -3.3415187e+38
2.8796346 -0.062582791 2.1238217 nan
2.8796229 -0.067706585 2.1238217 nan
2.8796113 -0.072830379 2.1238217 nan
2.9005995 -0.078022324 2.1307216 nan
2.9005878 -0.08318612 2.1307216 nan
2.9005759 -0.088349916 2.1307216 nan
2.8795643 -0.09332557 2.1238217 nan
2.8795524 -0.098449364 2.1238217 nan
2.8795407 -0.10357316 2.1238217 nan
2.879529 -0.10869696 2.1238217 nan
2.8795171 -0.11382075 2.1238217 nan
2.8795054 -0.11894455 2.1238217 nan
2.8794937 -0.12406835 2.1238217 nan
2.879482 -0.12919214 2.1238217 nan
2.8794701 -0.13431594 2.1238217 -3.1165423e+38
2.8794584 -0.13943973 2.1238217 -2.6621557e+38
2.8794467 -0.14456353 2.1238217 -2.2087142e+38
2.8584366 -0.14905918 2.1169217 -2.2225795e+38
2.8794231 -0.15481111 2.1238217 -2.223092e+38
2.8584132 -0.15922678 2.1169217 -2.035955e+38
2.8584018 -0.16431057 2.1169217 -1.8363322e+38
2.8793881 -0.17018251 2.1238217 -3.1852599e+38
2.8583784 -0.17447817 2.1169217 nan
2.8583667 -0.17956197 2.1169217 nan
2.858355 -0.18464577 2.1169217 nan
2.8793409 -0.1906777 2.1238217 nan
2.8793292 -0.1958015 2.1238217 nan
2.8793175 -0.20092529 2.1238217 nan
2.8583083 -0.20498094 2.1169217 nan
2.8582969 -0.21006474 2.1169217 nan
2.8582852 -0.21514854 2.1169217 nan
2.8382759 -0.21910077 2.1103501 nan
2.8182671 -0.22297683 2.1037788 nan
2.8182554 -0.22798443 2.1037788 nan
2.7982469 -0.23174617 2.0972075 nan
2.7982354 -0.2367157 2.0972075 nan
2.798224 -0.24168521 2.0972075 nan
2.7982125 -0.24665472 2.0972075 nan
2.8181982 -0.25302246 2.1037788 nan
2.8181865 -0.25803006 2.1037788 nan
2.9437797 0.00052366406 2.1396046 nan
2.9437678 -0.0047220364 2.1396046 nan
2.9437559 -0.0099677406 2.1396046 nan
2.9437437 -0.015213441 2.1396046 nan
2.9437318 -0.020459145 2.1396046 nan
2.9437196 -0.025704846 2.1396046 nan
2.9437077 -0.030950546 2.1396046 nan
2.9226947 -0.036448099 2.1327446 nan
2.9226828 -0.041653804 2.1327446 nan
2.9006705 -0.047039542 2.1255579 nan
2.9006586 -0.052203339 2.1255579 -3.1155511e+38
2.8796463 -0.057458989 2.1186979 -3.3281759e+38
2.8796346 -0.062582791 2.1186979 nan
2.8796229 -0.067706585 2.1186979 nan
2.8796113 -0.072830379 2.1186979 nan
2.9005995 -0.078022324 2.1255579 nan
2.9005878 -0.08318612 2.1255579 nan
2.9005759 -0.088349916 2.1255579 nan
2.8795643 -0.09332557 2.1186979 nan
2.8795524 -0.098449364 2.1186979 nan
2.8795407 -0.10357316 2.1186979 nan
2.879529 -0.10869696 2.1186979 nan
2.8795171 -0.11382075 2.1186979 nan
2.8795054 -0.11894455 2.1186979 nan
2.8794937 -0.12406835 2.1186979 nan
2.879482 -0.12919214 2.1186979 -3.1138979e+38
2.8794701 -0.13431594 2.1186979 -2.4895717e+38
2.8794584 -0.13943973 2.1186979 -2.5155287e+38
2.8794467 -0.14456353 2.1186979 -2.5418023e+38
2.8584366 -0.14905918 2.1118379 -2.5554065e+38
2.8794231 -0.15481111 2.1186979 -2.5683311e+38
2.8584132 -0.15922678 2.1118379 -2.2079814e+38
2.8584018 -0.16431057 2.1118379 -1.8515986e+38
2.8583901 -0.16939437 2.1118379 -3.1863986e+38
2.8583784 -0.17447817 2.1118379 nan
2.8383684 -0.17873517 2.1053045 nan
2.838357 -0.18378088 2.1053045 nan
2.8583434 -0.18972957 2.1118379 nan
2.8583317 -0.19481334 2.1118379 nan
2.85832 -0.19989714 2.1118379 nan
2.8383107 -0.20396367 2.1053045 nan
2.838299 -0.20900938 2.1053045 nan
2.8382876 -0.21405509 2.1053045 nan
2.8382759 -0.21910077 2.1053045 nan
2.8182671 -0.22297683 2.0987711 nan
2.8182554 -0.22798443 2.0987711 nan
2.7982469 -0.23174617 2.0922379 nan
2.7982354 -0.2367157 2.0922379 nan
2.798224 -0.24168521 2.0922379 nan
2.7982125 -0.24665472 2.0922379 nan
2.7982013 -0.25162423 2.0922379 nan
2.7981899 -0.25659373 2.0922379 nan
2.7981784 -0.26156324 2.0922379 nan
2.9437559 -0.0099677406 2.1343589 nan
2.9437437 -0.015213441 2.1343589 nan
2.9437318 -0.020459145 2.1343589 nan
2.9437196 -0.025704846 2.1343589 nan
2.9437077 -0.030950546 2.1343589 nan
2.9226947 -0.036448099 2.1275387 nan
2.9226828 -0.041653804 2.1275387 nan
2.9006705 -0.047039542 2.120394 nan
2.9006586 -0.052203339 2.120394 nan
2.9006469 -0.057367135 2.120394 nan
2.8796346 -0.062582791 2.113574 nan
2.8796229 -0.067706585 2.113574 nan
2.8796113 -0.072830379 2.113574 nan
2.9005995 -0.078022324 2.120394 nan
2.8795877 -0.083077975 2.113574 nan
2.9005759 -0.088349916 2.120394 nan
2.8795643 -0.09332557 2.113574 nan
2.8795524 -0.098449364 2.113574 nan
2.8795407 -0.10357316 2.113574 nan
2.879529 -0.10869696 2.113574 nan
2.8795171 -0.11382075 2.113574 nan
2.8795054 -0.11894455 2.113574 nan
2.8794937 -0.12406835 2.113574 -3.07656e+38
2.879482 -0.12919214 2.113574 -2.7554688e+38
2.8584716 -0.13380779 2.1067541 -2.4485519e+38
2.8584599 -0.13889161 2.1067541 -2.4754476e+38
2.8584483 -0.14397539 2.1067541 -2.5153756e+38
2.8384378 -0.14846095 2.1002588 -2.5421151e+38
2.8384264 -0.15350665 2.1002588 -2.5556651e+38
2.8384147 -0.15855236 2.1002588 -2.2756428e+38
2.8384032 -0.16359806 2.1002588 -1.9966205e+38
2.8383915 -0.16864377 2.1002588 -2.6386595e+38
2.8383801 -0.17368945 2.1002588 -3.280641e+38
2.8183703 -0.17790836 2.0937636 nan
2.838357 -0.18378088 2.1002588 nan
2.8383453 -0.18882656 2.1002588 nan
2.8383338 -0.19387227 2.1002588 nan
2.8383222 -0.19891796 2.1002588 nan
2.8383107 -0.20396367 2.1002588 nan
2.838299 -0.20900938 2.1002588 nan
2.8382876 -0.21405509 2.1002588 nan
2.8182786 -0.21796921 2.0937636 nan
2.8182671 -0.22297683 2.0937636 nan
2.7982583 -0.22677666 2.0872684 nan
2.7982469 -0.23174617 2.0872684 nan
2.7982354 -0.2367157 2.0872684 nan
2.798224 -0.24168521 2.0872684 nan
2.7982125 -0.24665472 2.0872684 nan
2.7982013 -0.25162423 2.0872684 nan
2.7781932 -0.25515741 2.0807731 nan
2.778182 -0.26008883 2.0807731 nan
2.7591739 -0.26358336 2.0746026 nan
2.7591627 -0.2684786 2.0746026 nan
2.7591515 -0.27337381 2.0746026 nan
2.7591403 -0.27826902 2.0746026 nan
2.7591288 -0.28316426 2.0746026 nan
2.9437437 -0.015213441 2.1291132 nan
2.9437318 -0.020459145 2.1291132 nan
2.9437196 -0.025704846 2.1291132 nan
2.9437077 -0.030950546 2.1291132 nan
2.9226947 -0.036448099 2.122333 nan
2.9006824 -0.041875746 2.1152303 nan
2.9006705 -0.047039542 2.1152303 nan
2.9006586 -0.052203339 2.1152303 nan
2.9006469 -0.057367135 2.1152303 nan
2.8796346 -0.062582791 2.1084502 nan
2.8796229 -0.067706585 2.1084502 nan
2.8796113 -0.072830379 2.1084502 nan
2.9005995 -0.078022324 2.1152303 nan
2.8795877 -0.083077975 2.1084502 nan
2.9005759 -0.088349916 2.1152303 nan
2.8795643 -0.09332557 2.1084502 nan
2.8795524 -0.098449364 2.1084502 nan
2.8795407 -0.10357316 2.1084502 nan
2.879529 -0.10869696 2.1084502 nan
2.8795171 -0.11382075 2.1084502 nan
2.8795054 -0.11894455 2.1084502 -3.0199605e+38
2.8794937 -0.12406835 2.1084502 -2.4097097e+38
2.879482 -0.12919214 2.1084502 -2.409346e+38
2.8584716 -0.13380779 2.1016703 -2.3957428e+38
2.8584599 -0.13889161 2.1016703 -2.4489127e+38
2.8584483 -0.14397539 2.1016703 -2.4887892e+38
2.8384378 -0.14846095 2.0952132 -2.5154772e+38
2.8384264 -0.15350665 2.0952132 -2.5420609e+38
2.8384147 -0.15855236 2.0952132 -2.3422605e+38
2.8384032 -0.16359806 2.0952132 -2.1300037e+38
2.8383915 -0.16864377 2.0952132 -2.0776177e+38
2.8383801 -0.17368945 2.0952132 -2.0267411e+38
2.8183703 -0.17790836 2.0887561 -2.4268676e+38
2.838357 -0.18378088 2.0952132 -2.8132795e+38
2.8383453 -0.18882656 2.0952132 nan
2.8383338 -0.19387227 2.0952132 nan
2.8383222 -0.19891796 2.0952132 nan
2.8183129 -0.20294639 2.0887561 nan
2.8183014 -0.20795402 2.0887561 nan
2.81829 -0.21296161 2.0887561 nan
2.8182786 -0.21796921 2.0887561 nan
2.8182671 -0.22297683 2.0887561 nan
2.7982583 -0.22677666 2.0822988 nan
2.7982469 -0.23174617 2.0822988 nan
2.7982354 -0.2367157 2.0822988 nan
2.7782271 -0.24036318 2.0758417 nan
2.7782159 -0.24529457 2.0758417 nan
2.7782047 -0.25022599 2.0758417 nan
2.7781932 -0.25515741 2.0758417 nan
2.778182 -0.26008883 2.0758417 nan
2.7591739 -0.26358336 2.0697074 nan
2.7591627 -0.2684786 2.0697074 nan
2.7591515 -0.27337381 2.0697074 nan
2.7591403 -0.27826902 2.0697074 nan
2.7401323 -0.28158259 2.0635731 nan
2.7211249 -0.28482381 2.0574389 nan
2.9437318 -0.020459145 2.1238675 nan
2.9437196 -0.025704846 2.1238675 nan
2.9437077 -0.030950546 2.1238675 -3.4014128e+38
2.9226947 -0.036448099 2.1171274 -3.0908555e+38
2.9226828 -0.041653804 2.1171274 -2.783468e+38
2.9006705 -0.047039542 2.1100664 -3.2630769e+38
2.9006586 -0.052203339 2.1100664 nan
2.9006469 -0.057367135 2.1100664 nan
2.900635 -0.062530935 2.1100664 nan
2.8796229 -0.067706585 2.1033263 nan
2.8796113 -0.072830379 2.1033263 nan
2.9005995 -0.078022324 2.1100664 nan
2.8795877 -0.083077975 2.1033263 nan
2.9005759 -0.088349916 2.1100664 nan
2.8795643 -0.09332557 2.1033263 nan
2.8795524 -0.098449364 2.1033263 nan
2.8795407 -0.10357316 2.1033263 nan
2.879529 -0.10869696 2.1033263 -3.302326e+38
2.8795171 -0.11382075 2.1033263 -2.7304926e+38
2.8795054 -0.11894455 2.1033263 -2.5821428e+38
2.8794937 -0.12406835 2.1033263 -2.4222712e+38
2.879482 -0.12919214 2.1033263 -2.4089781e+38
2.8584716 -0.13380779 2.0965865 -2.3958434e+38
2.8584599 -0.13889161 2.0965865 -2.3956375e+38
2.8584483 -0.14397539 2.0965865 -2.408826e+38
2.8384378 -0.14846095 2.0901675 -2.4489622e+38
2.8384264 -0.15350665 2.0901675 -2.4889431e+38
2.8384147 -0.15855236 2.0901675 -2.3958454e+38
2.8384032 -0.16359806 2.0901675 -2.3162445e+38
2.8383915 -0.16864377 2.0901675 -2.2763644e+38
2.8183818 -0.17290077 2.0837483 -2.2359787e+38
2.8183703 -0.17790836 2.0837483 -2.3043196e+38
2.8183589 -0.18291596 2.0837483 -2.3701093e+38
2.8383453 -0.18882656 2.0901675 -2.7852367e+38
2.8183358 -0.19293118 2.0837483 -3.1871793e+38
2.8183243 -0.1979388 2.0837483 nan
2.8183129 -0.20294639 2.0837483 nan
2.8183014 -0.20795402 2.0837483 nan
2.81829 -0.21296161 2.0837483 nan
2.8182786 -0.21796921 2.0837483 nan
2.7982695 -0.22180715 2.0773292 nan
2.7982583 -0.22677666 2.0773292 nan
2.7982469 -0.23174617 2.0773292 nan
2.7782385 -0.23543176 2.0709102 nan
2.7782271 -0.24036318 2.0709102 nan
2.7782159 -0.24529457 2.0709102 nan
2.7782047 -0.25022599 2.0709102 nan
2.7781932 -0.25515741 2.0709102 nan
2.778182 -0.26008883 2.0709102 nan
2.7781706 -0.26502025 2.0709102 nan
2.7781594 -0.26995167 2.0709102 nan
2.7781482 -0.27488309 2.0709102 nan
2.7781367 -0.27981451 2.0709102 nan
2.7591288 -0.28316426 2.0648122 nan
2.7401214 -0.28644165 2.0587142 nan
2.7401102 -0.29130068 2.0587142 nan
2.740099 -0.29615971 2.0587142 nan
2.9437318 -0.020459145 2.1186218 nan
2.9437196 -0.025704846 2.1186218 -3.127765e+38
2.9437077 -0.030950546 2.1186218 -1.8250644e+38
2.9436955 -0.03619625 2.1186218 -1.8078205e+38
2.9226828 -0.041653804 2.1119218 -1.7837321e+38
2.9226708 -0.046859503 2.1119218 -2.7295126e+38
2.9006586 -0.052203339 2.1049027 nan
2.9006469 -0.057367135 2.1049027 nan
2.900635 -0.062530935 2.1049027 nan
2.8796229 -0.067706585 2.0982027 nan
2.8796113 -0.072830379 2.0982027 nan
2.9005995 -0.078022324 2.1049027 nan
2.8795877 -0.083077975 2.0982027 nan
2.9005759 -0.088349916 2.1049027 nan
2.8795643 -0.09332557 2.0982027 nan
2.8795524 -0.098449364 2.0982027 nan
2.8795407 -0.10357316 2.0982027 nan
2.879529 -0.10869696 2.0982027 -2.7950308e+38
2.8795171 -0.11382075 2.0982027 -1.8376737e+38
2.8795054 -0.11894455 2.0982027 -2.1425121e+38
2.8794937 -0.12406835 2.0982027 -2.4351493e+38
2.879482 -0.12919214 2.0982027 -2.4084603e+38
2.8584716 -0.13380779 2.0915027 -2.3821879e+38
2.8384612 -0.13836956 2.0851216 -2.355552e+38
2.8384495 -0.14341526 2.0851216 -2.3292275e+38
2.8384378 -0.14846095 2.0851216 -2.3825528e+38
2.8384264 -0.15350665 2.0851216 -2.422534e+38
2.8184161 -0.15787792 2.0787406 -2.4624634e+38
2.8184047 -0.16288555 2.0787406 -2.5023392e+38
2.8183932 -0.16789314 2.0787406 -2.4756498e+38
2.8183818 -0.17290077 2.0787406 -2.4493304e+38
2.8183703 -0.17790836 2.0787406 -2.1975096e+38
2.8183589 -0.18291596 2.0787406 -1.9314064e+38
2.8183475 -0.18792358 2.0787406 -2.0244025e+38
2.8183358 -0.19293118 2.0787406 -2.1073306e+38
2.8183243 -0.1979388 2.0787406 -3.0403934e+38
2.8183129 -0.20294639 2.0787406 nan
2.8183014 -0.20795402 2.0787406 nan
2.81829 -0.21296161 2.0787406 nan
2.798281 -0.21683764 2.0723598 nan
2.7982695 -0.22180715 2.0723598 nan
2.7982583 -0.22677666 2.0723598 nan
2.7982469 -0.23174617 2.0723598 nan
2.7782385 -0.23543176 2.0659788 nan
2.7782271 -0.24036318 2.0659788 nan
2.7782159 -0.24529457 2.0659788 nan
2.7782047 -0.25022599 2.0659788 nan
2.7781932 -0.25515741 2.0659788 nan
2.778182 -0.26008883 2.0659788 nan
2.7591739 -0.26358336 2.059917 nan
2.7591627 -0.2684786 2.059917 nan
2.7781482 -0.27488309 2.0659788 nan
2.7781367 -0.27981451 2.0659788 nan
2.7591288 -0.28316426 2.059917 nan
2.7401214 -0.28644165 2.0538549 nan
2.7401102 -0.29130068 2.0538549 nan
2.740099 -0.29615971 2.0538549 nan
2.7400877 -0.30101874 2.0538549 nan
2.7400768 -0.30587777 2.0538549 nan
2.9667325 -0.020051874 2.1206703 -3.0797874e+38
2.9437196 -0.025704846 2.1133759 -2.5822426e+38
2.9437077 -0.030950546 2.1133759 -2.1001851e+38
2.9436955 -0.03619625 2.1133759 -2.0078093e+38
2.9226828 -0.041653804 2.1067159 -1.9142033e+38
2.9006705 -0.047039542 2.0997388 -2.7290414e+38
2.9006586 -0.052203339 2.0997388 nan
2.9006469 -0.057367135 2.0997388 nan
2.8796346 -0.062582791 2.0930789 nan
2.8796229 -0.067706585 2.0930789 nan
2.8796113 -0.072830379 2.0930789 nan
2.9005995 -0.078022324 2.0997388 nan
2.8795877 -0.083077975 2.0930789 nan
2.879576 -0.088201769 2.0930789 nan
2.8795643 -0.09332557 2.0930789 nan
2.8795524 -0.098449364 2.0930789 nan
2.8795407 -0.10357316 2.0930789 -3.1031928e+38
2.879529 -0.10869696 2.0930789 -2.5418985e+38
2.8585181 -0.11347261 2.0864189 -1.9955161e+38
2.8585064 -0.11855641 2.0864189 -2.1955262e+38
2.8794937 -0.12406835 2.0930789 -2.3952218e+38
2.879482 -0.12919214 2.0930789 -2.3820329e+38
2.8584716 -0.13380779 2.0864189 -2.3688958e+38
2.8384612 -0.13836956 2.080076 -2.3424145e+38
2.8384495 -0.14341526 2.080076 -2.3293828e+38
2.8384378 -0.14846095 2.080076 -2.3825528e+38
2.8384264 -0.15350665 2.080076 -2.4225345e+38
2.8184161 -0.15787792 2.0737331 -2.4758084e+38
2.8184047 -0.16288555 2.0737331 -2.5423749e+38
2.8183932 -0.16789314 2.0737331 -2.5423759e+38
2.8183818 -0.17290077 2.0737331 -2.5558767e+38
2.8183703 -0.17790836 2.0737331 -2.4098699e+38
2.8183589 -0.18291596 2.0737331 -2.2767922e+38
2.8183475 -0.18792358 2.0737331 -2.1840585e+38
2.8183358 -0.19293118 2.0737331 -2.1046758e+38
2.8183243 -0.1979388 2.0737331 -2.6255744e+38
2.8183129 -0.20294639 2.0737331 -3.1460549e+38
2.8183014 -0.20795402 2.0737331 -3.2918071e+38
2.7982924 -0.21186814 2.0673902 nan
2.798281 -0.21683764 2.0673902 -3.2781996e+38
2.7982695 -0.22180715 2.0673902 -3.0936686e+38
2.7782612 -0.22556892 2.0610473 nan
2.7782497 -0.23050034 2.0610473 nan
2.7782385 -0.23543176 2.0610473 nan
2.7592299 -0.23910722 2.0550218 nan
2.7592187 -0.24400246 2.0550218 nan
2.7592075 -0.24889767 2.0550218 nan
2.7591963 -0.25379291 2.0550218 nan
2.7591851 -0.25868815 2.0550218 nan
2.7591739 -0.26358336 2.0550218 nan
2.7591627 -0.2684786 2.0550218 nan
2.7591515 -0.27337381 2.0550218 nan
2.7591403 -0.27826902 2.0550218 nan
2.7591288 -0.28316426 2.0550218 nan
2.7401214 -0.28644165 2.048996 nan
2.7401102 -0.29130068 2.048996 nan
2.740099 -0.29615971 2.048996 nan
2.9667447 -0.014762364 2.1153808 -2.8580728e+38
2.9667325 -0.020051874 2.1153808 -1.7039735e+38
2.9667203 -0.025341384 2.1153808 -2.0477478e+38
2.9437077 -0.030950546 2.1081302 -2.3808316e+38
2.9436955 -0.03619625 2.1081302 -2.2089647e+38
2.9226828 -0.041653804 2.1015103 -2.0361215e+38
2.9226708 -0.046859503 2.1015103 -2.7433208e+38
2.9006586 -0.052203339 2.0945749 nan
2.8796463 -0.057458989 2.087955 nan
2.8796346 -0.062582791 2.087955 nan
2.8796229 -0.067706585 2.087955 nan
2.8796113 -0.072830379 2.087955 nan
2.9005995 -0.078022324 2.0945749 nan
2.8795877 -0.083077975 2.087955 nan
2.879576 -0.088201769 2.087955 nan
2.8795643 -0.09332557 2.087955 nan
2.8795524 -0.098449364 2.087955 -3.2483251e+38
2.8795407 -0.10357316 2.087955 -2.4359827e+38
2.879529 -0.10869696 2.087955 -2.2871123e+38
2.8585181 -0.11347261 2.0813351 -2.1419906e+38
2.8585064 -0.11855641 2.0813351 -2.248903e+38
2.858495 -0.1236402 2.0813351 -2.3421046e+38
2.8584833 -0.12872399 2.0813351 -2.3422603e+38
2.8584716 -0.13380779 2.0813351 -2.3423636e+38
2.8384612 -0.13836956 2.0750303 -2.3424149e+38
2.8384495 -0.14341526 2.0750303 -2.3292792e+38
2.8184392 -0.14786273 2.0687256 -2.3825012e+38
2.8184278 -0.15287033 2.0687256 -2.4224829e+38
2.8184161 -0.15787792 2.0687256 -2.5023415e+38
2.8184047 -0.16288555 2.0687256 -2.5689079e+38
2.8183932 -0.16789314 2.0687256 -2.608786e+38
