# .PCD v0.7 - Point Cloud Data file format
VERSION 0.7
FIELDS x y z rgb
SIZE 4 4 4 4
TYPE F F F F
COUNT 1 1 1 1
WIDTH 1021
HEIGHT 1
VIEWPOINT 0 0 0 1 0 0 0
POINTS 1021
DATA ascii
3.4970484 0.04725109 1.0288187 -2.3704156e+38
3.5290351 0.041995883 1.0267768 -2.3969484e+38
3.5290194 0.035632096 1.0267768 -2.4502733e+38
3.5290034 0.029268302 1.0267768 -2.5035465e+38
3.4969852 0.022039734 1.0288187 -2.6233327e+38
3.5289714 0.016540729 1.0267768 -2.7432764e+38
3.2886899 -0.095807627 1.0420911 nan
3.2606759 -0.10140429 1.0438778 -3.2898661e+38
3.2606611 -0.1072576 1.0438778 -2.477014e+38
3.2606466 -0.11311091 1.0438778 -2.5306523e+38
3.233633 -0.11851104 1.0456007 -2.5973739e+38
3.2336185 -0.12431292 1.0456007 -2.5574457e+38
3.233604 -0.13011481 1.0456007 -2.5174133e+38
3.2065909 -0.13530922 1.0473235 -2.5308614e+38
3.2605734 -0.1423775 1.0438778 -2.5574985e+38
3.2605588 -0.14823082 1.0438778 -2.5709469e+38
3.2605443 -0.15408413 1.0438778 -2.5843954e+38
3.2605295 -0.15993744 1.0438778 -2.5977917e+38
3.260515 -0.16579077 1.0438778 -2.6112402e+38
3.2605002 -0.17164408 1.0438778 -2.6644095e+38
3.2604856 -0.17749739 1.0438778 -2.7176307e+38
3.2604711 -0.18335071 1.0438778 -2.7575078e+38
3.2604563 -0.18920402 1.0438778 -2.797281e+38
3.2604418 -0.19505735 1.0438778 -2.6778062e+38
3.2604272 -0.20091066 1.0438778 -2.5585923e+38
3.2604125 -0.20676398 1.0438778 -3.2915381e+38
3.2603979 -0.21261729 1.0438778 nan
3.5612786 0.13941465 1.0183102 -2.1941182e+38
3.5292578 0.13108894 1.020413 -2.1945336e+38
3.529242 0.12472515 1.020413 -2.2745988e+38
3.5292261 0.11836137 1.020413 -2.3557599e+38
3.5292101 0.11199757 1.020413 -2.3302712e+38
3.49719 0.10397664 1.0225159 -2.2901366e+38
3.4971743 0.097673789 1.0225159 -2.3300152e+38
3.4971585 0.091370955 1.0225159 -2.369945e+38
3.4971428 0.085068122 1.0225159 -2.369946e+38
3.4971271 0.078765273 1.0225159 -2.3567063e+38
3.4971113 0.07246244 1.0225159 -2.356759e+38
3.4970956 0.066159606 1.0225159 -2.3568631e+38
3.4970798 0.059856772 1.0225159 -2.3436227e+38
3.4970641 0.053553924 1.0225159 -2.3304864e+38
3.4970484 0.04725109 1.0225159 -2.3571748e+38
3.4970324 0.040948249 1.0225159 -2.3704673e+38
3.4970167 0.034645408 1.0225159 -2.4103962e+38
3.4970009 0.028342575 1.0225159 -2.4503771e+38
3.4969852 0.022039734 1.0225159 -2.5833001e+38
3.4969695 0.0157369 1.0225159 -2.7172113e+38
3.2886899 -0.095807627 1.0361844 nan
3.2606759 -0.10140429 1.0380244 -3.3296417e+38
3.2606611 -0.1072576 1.0380244 -2.5440989e+38
3.2606466 -0.11311091 1.0380244 -2.5967484e+38
3.233633 -0.11851104 1.0397987 -2.636938e+38
3.2336185 -0.12431292 1.0397987 -2.5971662e+38
3.233604 -0.13011481 1.0397987 -2.5573417e+38
3.2065909 -0.13530922 1.041573 -2.5574459e+38
3.2605734 -0.1423775 1.0380244 -2.5574983e+38
3.2605588 -0.14823082 1.0380244 -2.5708429e+38
3.2605443 -0.15408413 1.0380244 -2.5709991e+38
3.2605295 -0.15993744 1.0380244 -2.5976877e+38
3.260515 -0.16579077 1.0380244 -2.6111361e+38
3.2605002 -0.17164408 1.0380244 -2.6510653e+38
3.2604856 -0.17749739 1.0380244 -2.6910462e+38
3.2604711 -0.18335071 1.0380244 -2.7441636e+38
3.233459 -0.18813369 1.0397987 -2.7974881e+38
3.2604418 -0.19505735 1.0380244 -2.7710071e+38
3.2604272 -0.20091066 1.0380244 -2.731859e+38
3.2604125 -0.20676398 1.0380244 nan
3.2603979 -0.21261729 1.0380244 nan
3.5612948 0.14583939 1.0118854 -2.2209612e+38
3.5292737 0.13745274 1.0140493 -2.2345141e+38
3.5292578 0.13108894 1.0140493 -2.2613581e+38
3.529242 0.12472515 1.0140493 -2.3813518e+38
3.5292261 0.11836137 1.0140493 -2.488058e+38
3.5292101 0.11199757 1.0140493 -2.3828665e+38
3.49719 0.10397664 1.0162131 -2.2632908e+38
3.4971743 0.097673789 1.0162131 -2.3033779e+38
3.4971585 0.091370955 1.0162131 -2.3300156e+38
3.4971428 0.085068122 1.0162131 -2.3300688e+38
3.5291307 0.080178618 1.0140493 -2.3433619e+38
3.5291147 0.073814824 1.0140493 -2.3301742e+38
3.4970956 0.066159606 1.0162131 -2.3302264e+38
3.4970798 0.059856772 1.0162131 -2.3170899e+38
3.4970641 0.053553924 1.0162131 -2.3172456e+38
3.4970484 0.04725109 1.0162131 -2.3571744e+38
3.4970324 0.040948249 1.0162131 -2.3971034e+38
3.4970167 0.034645408 1.0162131 -2.4370323e+38
3.4970009 0.028342575 1.0162131 -2.4637211e+38
3.4969852 0.022039734 1.0162131 -2.5836634e+38
3.2886899 -0.095807627 1.0302778 nan
3.2606759 -0.10140429 1.0321711 nan
3.2886603 -0.10762092 1.0302778 -2.8761467e+38
3.2606466 -0.11311091 1.0321711 -2.7298251e+38
3.233633 -0.11851104 1.0339968 -2.5835599e+38
3.2336185 -0.12431292 1.0339968 -2.5572368e+38
3.233604 -0.13011481 1.0339968 -2.5307048e+38
3.2335894 -0.13591669 1.0339968 -2.5308093e+38
3.2335751 -0.14171858 1.0339968 -2.5441539e+38
3.2605588 -0.14823082 1.0321711 -2.5575504e+38
3.2605443 -0.15408413 1.0321711 -2.5709988e+38
3.2605295 -0.15993744 1.0321711 -2.5843433e+38
3.260515 -0.16579077 1.0321711 -2.5977917e+38
3.2605002 -0.17164408 1.0321711 -2.6245324e+38
3.2604856 -0.17749739 1.0321711 -2.6645133e+38
3.2604711 -0.18335071 1.0321711 -2.7044423e+38
3.233459 -0.18813369 1.0339968 -2.7445262e+38
3.2604418 -0.19505735 1.0321711 -2.6646679e+38
3.2604272 -0.20091066 1.0321711 -2.5714688e+38
3.2604125 -0.20676398 1.0321711 -3.3046755e+38
3.2603979 -0.21261729 1.0321711 nan
3.5292897 0.14381652 1.0076854 -2.2481173e+38
3.5292737 0.13745274 1.0076854 -2.288255e+38
3.5292578 0.13108894 1.0076854 -2.3282363e+38
3.529242 0.12472515 1.0076854 -2.4747637e+38
3.5292261 0.11836137 1.0076854 -2.6218653e+38
3.5292101 0.11199757 1.0076854 -2.4364522e+38
3.49719 0.10397664 1.0099102 -2.2369666e+38
3.4971743 0.097673789 1.0099102 -2.2636577e+38
3.4971585 0.091370955 1.0099102 -2.2901911e+38
3.4971428 0.085068122 1.0099102 -2.3035361e+38
3.5291307 0.080178618 1.0076854 -2.3168288e+38
3.5291147 0.073814824 1.0076854 -2.3035371e+38
3.5290987 0.06745103 1.0076854 -2.2904006e+38
3.4970798 0.059856772 1.0099102 -2.2905566e+38
3.529067 0.054723464 1.0076854 -2.2906087e+38
3.4970484 0.04725109 1.0099102 -2.3571742e+38
3.4970324 0.040948249 1.0099102 -2.4236356e+38
3.4970167 0.034645408 1.0099102 -2.4502203e+38
3.4970009 0.028342575 1.0099102 -2.4770653e+38
3.4649827 0.02117496 1.0121349 -2.5837157e+38
3.2886899 -0.095807627 1.0243711 nan
3.2606759 -0.10140429 1.0263178 nan
3.2886603 -0.10762092 1.0243711 -3.1961486e+38
3.2606466 -0.11311091 1.0263178 -2.8629055e+38
3.260632 -0.11896423 1.0263178 -2.5305474e+38
3.2336185 -0.12431292 1.0281949 -2.5174638e+38
3.233604 -0.13011481 1.0281949 -2.50412e+38
3.2605882 -0.13652419 1.0263178 -2.5174129e+38
3.2605734 -0.1423775 1.0263178 -2.5175691e+38
3.2605588 -0.14823082 1.0263178 -2.5442579e+38
3.2605443 -0.15408413 1.0263178 -2.5576023e+38
3.2605295 -0.15993744 1.0263178 -2.5709469e+38
3.260515 -0.16579077 1.0263178 -2.571155e+38
3.2605002 -0.17164408 1.0263178 -2.61124e+38
3.2604856 -0.17749739 1.0263178 -2.6378766e+38
3.2334735 -0.1823318 1.0281949 -2.6645653e+38
3.233459 -0.18813369 1.0281949 -2.6912533e+38
3.2334445 -0.19393557 1.0281949 -2.5583301e+38
3.2604272 -0.20091066 1.0263178 -2.4125322e+38
3.2334154 -0.20553935 1.0281949 -3.1719074e+38
3.2603979 -0.21261729 1.0263178 nan
3.5943 0.14792547 0.99667877 -2.2616698e+38
3.5612786 0.13941465 0.99903589 -2.2883073e+38
3.5612626 0.13298991 0.99903589 -2.3283934e+38
3.529242 0.12472515 1.0013216 -2.3954276e+38
3.5292261 0.11836137 1.0013216 -2.4633461e+38
3.5292101 0.11199757 1.0013216 -2.3036343e+38
3.49719 0.10397664 1.0036073 -2.1307332e+38
3.4971743 0.097673789 1.0036073 -2.1839046e+38
3.4971585 0.091370955 1.0036073 -2.2237301e+38
3.4971428 0.085068122 1.0036073 -2.2636074e+38
3.5291307 0.080178618 1.0013216 -2.2902441e+38
3.5291147 0.073814824 1.0013216 -2.3035883e+38
3.5290987 0.06745103 1.0013216 -2.3036404e+38
3.5290828 0.061087251 1.0013216 -2.3037444e+38
3.529067 0.054723464 1.0013216 -2.3170371e+38
3.4970484 0.04725109 1.0036073 -2.3570699e+38
3.4970324 0.040948249 1.0036073 -2.4103431e+38
3.4970167 0.034645408 1.0036073 -2.4236873e+38
3.4970009 0.028342575 1.0036073 -2.4505327e+38
3.2886899 -0.095807627 1.0184644 -3.1446933e+38
3.2886751 -0.10171428 1.0184644 -2.9971808e+38
3.2886603 -0.10762092 1.0184644 -2.8645691e+38
3.2886455 -0.11352757 1.0184644 -2.7038671e+38
3.288631 -0.11943422 1.0184644 -2.5437888e+38
3.2336185 -0.12431292 1.022393 -2.5174119e+38
3.233604 -0.13011481 1.022393 -2.5040681e+38
3.2605882 -0.13652419 1.0204644 -2.5174644e+38
3.2605734 -0.1423775 1.0204644 -2.530861e+38
3.2605588 -0.14823082 1.0204644 -2.5442056e+38
3.2605443 -0.15408413 1.0204644 -2.5707386e+38
3.2605295 -0.15993744 1.0204644 -2.5842909e+38
3.260515 -0.16579077 1.0204644 -2.5977394e+38
3.2605002 -0.17164408 1.0204644 -2.6377722e+38
3.2604856 -0.17749739 1.0204644 -2.6777012e+38
3.2334735 -0.1823318 1.022393 -2.7176301e+38
3.233459 -0.18813369 1.022393 -2.7577147e+38
3.2334445 -0.19393557 1.022393 -2.6381361e+38
3.2334299 -0.19973746 1.022393 -2.5047472e+38
3.2064185 -0.20431472 1.0243216 -3.2512447e+38
3.5943 0.14792547 0.9901911 -2.2615661e+38
3.5612786 0.13941465 0.99261117 -2.2881515e+38
3.5612626 0.13298991 0.99261117 -2.3149452e+38
3.5612466 0.12656517 0.99261117 -2.3151543e+38
3.5292261 0.11836137 0.9949578 -2.3026433e+38
3.5292101 0.11199757 0.9949578 -2.1706056e+38
3.49719 0.10397664 0.99730444 -2.0244459e+38
3.4971743 0.097673789 0.99730444 -2.0908588e+38
3.5291624 0.092906192 0.9949578 -2.1572687e+38
3.5291464 0.086542398 0.9949578 -2.2103863e+38
3.5291307 0.080178618 0.9949578 -2.2636076e+38
3.5291147 0.073814824 0.9949578 -2.2902445e+38
3.5290987 0.06745103 0.9949578 -2.3168811e+38
3.5290828 0.061087251 0.9949578 -2.3302258e+38
3.529067 0.054723464 0.9949578 -2.33033e+38
3.4970484 0.04725109 0.99730444 -2.3570188e+38
3.4970324 0.040948249 0.99730444 -2.3837072e+38
3.4970167 0.034645408 0.99730444 -2.3969995e+38
3.4649985 0.02741684 0.99965113 -2.4108122e+38
3.2886751 -0.10171428 1.0125577 -2.5163635e+38
3.2886603 -0.10762092 1.0125577 -2.5173549e+38
3.2886455 -0.11352757 1.0125577 -2.530808e+38
3.288631 -0.11943422 1.0125577 -2.5440484e+38
3.2606173 -0.12481755 1.0146111 -2.530808e+38
3.233604 -0.13011481 1.0165911 -2.5041716e+38
3.2605882 -0.13652419 1.0146111 -2.517516e+38
3.2605734 -0.1423775 1.0146111 -2.5308608e+38
3.2605588 -0.14823082 1.0146111 -2.5574459e+38
3.2605443 -0.15408413 1.0146111 -2.5708944e+38
3.2605295 -0.15993744 1.0146111 -2.5976353e+38
3.260515 -0.16579077 1.0146111 -2.6110319e+38
3.2605002 -0.17164408 1.0146111 -2.6643052e+38
3.2604856 -0.17749739 1.0146111 -2.7042342e+38
3.2334735 -0.1823318 1.0165911 -2.7705922e+38
3.233459 -0.18813369 1.0165911 -2.8241769e+38
3.2334445 -0.19393557 1.0165911 -2.7183583e+38
3.2334299 -0.19973746 1.0165911 -2.5988839e+38
3.2334154 -0.20553935 1.0165911 -3.3314657e+38
3.5943 0.14792547 0.98370349 -2.2082934e+38
3.5292737 0.13745274 0.988594 -2.2348786e+38
3.5292578 0.13108894 0.988594 -2.2749643e+38
3.5612466 0.12656517 0.98618639 -2.2882057e+38
3.5292261 0.11836137 0.988594 -2.30124e+38
3.5292101 0.11199757 0.988594 -2.1564284e+38
3.49719 0.10397664 0.99100161 -2.0112045e+38
3.5291784 0.099270001 0.988594 -2.0775146e+38
3.5291624 0.092906192 0.988594 -2.1306322e+38
3.4971428 0.085068122 0.99100161 -2.197094e+38
3.5291307 0.080178618 0.988594 -2.2502636e+38
3.4971113 0.07246244 0.99100161 -2.2769524e+38
3.5290987 0.06745103 0.988594 -2.3035893e+38
3.4970798 0.059856772 0.99100161 -2.2904012e+38
3.529067 0.054723464 0.988594 -2.2772134e+38
3.4970484 0.04725109 0.99100161 -2.3039022e+38
3.4970324 0.040948249 0.99100161 -2.3438829e+38
3.4970167 0.034645408 0.99100161 -2.3839674e+38
3.2886751 -0.10171428 1.0066512 -2.4893528e+38
3.2886603 -0.10762092 1.0066512 -2.6095648e+38
3.2886455 -0.11352757 1.0066512 -2.5704772e+38
3.288631 -0.11943422 1.0066512 -2.5175158e+38
3.2606173 -0.12481755 1.0087578 -2.5042233e+38
3.233604 -0.13011481 1.0107893 -2.4776387e+38
3.2605882 -0.13652419 1.0087578 -2.4909829e+38
3.2605734 -0.1423775 1.0087578 -2.504276e+38
3.2605588 -0.14823082 1.0087578 -2.530965e+38
3.2605443 -0.15408413 1.0087578 -2.557654e+38
3.2605295 -0.15993744 1.0087578 -2.5843431e+38
3.260515 -0.16579077 1.0087578 -2.6110321e+38
3.2605002 -0.17164408 1.0087578 -2.6643054e+38
3.2334881 -0.17652991 1.0107893 -2.7042346e+38
3.2334735 -0.1823318 1.0107893 -2.7574561e+38
3.233459 -0.18813369 1.0107893 -2.8106777e+38
3.2334445 -0.19393557 1.0107893 -2.7446842e+38
3.2334299 -0.19973746 1.0107893 -2.6783786e+38
3.2064185 -0.20431472 1.0128207 -3.3976673e+38
3.5943 0.14792547 0.97721589 -2.1416243e+38
3.5292737 0.13745274 0.98223019 -2.1947419e+38
3.5292578 0.13108894 0.98223019 -2.2348796e+38
3.5612466 0.12656517 0.9797616 -2.2614653e+38
3.5612304 0.12014042 0.9797616 -2.2883113e+38
3.5292101 0.11199757 0.98223019 -2.1425654e+38
3.5291941 0.10563378 0.98223019 -1.9971851e+38
3.5291784 0.099270001 0.98223019 -2.0507218e+38
3.5291624 0.092906192 0.98223019 -2.1039434e+38
3.5291464 0.086542398 0.98223019 -2.1704054e+38
3.5291307 0.080178618 0.98223019 -2.2369713e+38
3.5291147 0.073814824 0.98223019 -2.2636084e+38
3.5290987 0.06745103 0.98223019 -2.2902972e+38
3.5290828 0.061087251 0.98223019 -2.2638169e+38
3.529067 0.054723464 0.98223019 -2.2240443e+38
3.4970484 0.04725109 0.98469877 -2.2640775e+38
3.4970324 0.040948249 0.98469877 -2.2908178e+38
3.4970167 0.034645408 0.98469877 -2.3574352e+38
3.4970009 0.028342575 0.98469877 -2.4242094e+38
3.3166745 -0.10202426 0.99858445 -2.464073e+38
3.3166595 -0.10798424 0.99858445 -2.7034971e+38
3.2886455 -0.11352757 1.0007445 -2.5973737e+38
3.260632 -0.11896423 1.0029044 -2.4909314e+38
3.2606173 -0.12481755 1.0029044 -2.4775349e+38
3.2606027 -0.13067088 1.0029044 -2.4510542e+38
3.2605882 -0.13652419 1.0029044 -2.4643986e+38
3.2605734 -0.1423775 1.0029044 -2.4777434e+38
3.2335606 -0.14752048 1.0049874 -2.5177247e+38
3.2605443 -0.15408413 1.0029044 -2.5443618e+38
3.2605295 -0.15993744 1.0029044 -2.5842911e+38
3.260515 -0.16579077 1.0029044 -2.6110321e+38
3.2605002 -0.17164408 1.0029044 -2.6643574e+38
3.2334881 -0.17652991 1.0049874 -2.7042865e+38
3.2334735 -0.1823318 1.0049874 -2.7575082e+38
3.233459 -0.18813369 1.0049874 -2.7976452e+38
3.2334445 -0.19393557 1.0049874 -2.7845613e+38
3.2334299 -0.19973746 1.0049874 -2.7583923e+38
3.2334154 -0.20553935 1.0049874 nan
3.5292737 0.13745274 0.97586638 -2.1416245e+38
3.5292578 0.13108894 0.97586638 -2.1550738e+38
3.529242 0.12472515 0.97586638 -2.1283347e+38
3.5612304 0.12014042 0.97333682 -2.1022713e+38
3.5292101 0.11199757 0.97586638 -2.1690463e+38
3.5291941 0.10563378 0.97586638 -2.2361864e+38
3.5291784 0.099270001 0.97586638 -2.2100726e+38
3.5291624 0.092906192 0.97586638 -2.1835409e+38
3.5291464 0.086542398 0.97586638 -2.2235744e+38
3.5291307 0.080178618 0.97586638 -2.2767962e+38
3.5291147 0.073814824 0.97586638 -2.2769007e+38
3.5290987 0.06745103 0.97586638 -2.2903491e+38
3.5290828 0.061087251 0.97586638 -2.2904014e+38
3.529067 0.054723464 0.97586638 -2.2905059e+38
3.4970484 0.04725109 0.97839594 -2.3172466e+38
3.4970324 0.040948249 0.97839594 -2.3572797e+38
3.4970167 0.034645408 0.97839594 -2.4371893e+38
3.4970009 0.028342575 0.97839594 -2.5170998e+38
3.3166745 -0.10202426 0.99262446 -2.2636051e+38
3.3166595 -0.10798424 0.99262446 -2.5581163e+38
3.2886455 -0.11352757 0.99483782 -2.5044839e+38
3.288631 -0.11943422 0.99483782 -2.4511067e+38
3.2606173 -0.12481755 0.99705112 -2.4510542e+38
3.2606027 -0.13067088 0.99705112 -2.4643986e+38
3.2605882 -0.13652419 0.99705112 -2.4776908e+38
3.2605734 -0.1423775 0.99705112 -2.4909837e+38
3.2605588 -0.14823082 0.99705112 -2.5043805e+38
3.2605443 -0.15408413 0.99705112 -2.5177253e+38
3.2605295 -0.15993744 0.99705112 -2.5444662e+38
3.260515 -0.16579077 0.99705112 -2.5712072e+38
3.2605002 -0.17164408 0.99705112 -2.5977921e+38
3.2604856 -0.17749739 0.99705112 -2.6378253e+38
3.2604711 -0.18335071 0.99705112 -2.7177352e+38
3.2604563 -0.18920402 0.99705112 -2.7845609e+38
3.2334445 -0.19393557 0.99918544 -2.7577692e+38
3.2334299 -0.19973746 0.99918544 -2.7307697e+38
3.2334154 -0.20553935 0.99918544 nan
3.5612466 0.12656517 0.96691209 -1.9944229e+38
3.5612304 0.12014042 0.96691209 -1.9156586e+38
3.5292101 0.11199757 0.96950257 -2.1951108e+38
3.5291941 0.10563378 0.96950257 -2.4618951e+38
3.5291784 0.099270001 0.96950257 -2.3698917e+38
3.5291624 0.092906192 0.96950257 -2.2633465e+38
3.5291464 0.086542398 0.96950257 -2.290036e+38
3.5291307 0.080178618 0.96950257 -2.3033808e+38
3.5291147 0.073814824 0.96950257 -2.3034854e+38
3.5290987 0.06745103 0.96950257 -2.2903491e+38
3.5290828 0.061087251 0.96950257 -2.316986e+38
3.529067 0.054723464 0.96950257 -2.3437269e+38
3.4970484 0.04725109 0.97209305 -2.3837602e+38
3.4970324 0.040948249 0.97209305 -2.4104488e+38
3.4970167 0.034645408 0.97209305 -2.516943e+38
3.5290034 0.029268302 0.96950257 -2.6104053e+38
3.2886751 -0.10171428 0.98893118 -2.0763673e+38
3.2886603 -0.10762092 0.98893118 -2.3970488e+38
3.2606466 -0.11311091 0.99119782 -2.3980408e+38
3.260632 -0.11896423 0.99119782 -2.3978329e+38
3.2606173 -0.12481755 0.99119782 -2.4376578e+38
3.2606027 -0.13067088 0.99119782 -2.4776387e+38
3.2605882 -0.13652419 0.99119782 -2.4908793e+38
3.2605734 -0.1423775 0.99119782 -2.5042241e+38
3.2605588 -0.14823082 0.99119782 -2.4909845e+38
3.2605443 -0.15408413 0.99119782 -2.4779006e+38
3.2605295 -0.15993744 0.99119782 -2.5046934e+38
3.260515 -0.16579077 0.99119782 -2.5179861e+38
3.2605002 -0.17164408 0.99119782 -2.5444155e+38
3.2604856 -0.17749739 0.99119782 -2.5713641e+38
3.2604711 -0.18335071 0.99119782 -2.6777028e+38
3.2604563 -0.18920402 0.99119782 -2.7711126e+38
3.2604418 -0.19505735 0.99119782 -2.7445287e+38
3.2604272 -0.20091066 0.99119782 -2.7051193e+38
3.2334154 -0.20553935 0.99338353 -3.3846354e+38
3.5612304 0.12014042 0.96048737 -2.4076271e+38
3.5292101 0.11199757 0.96313876 -2.5016632e+38
3.5291941 0.10563378 0.96313876 -2.6077463e+38
3.5291784 0.099270001 0.96313876 -2.4890029e+38
3.5291624 0.092906192 0.96313876 -2.3561331e+38
3.5291464 0.086542398 0.96313876 -2.3298609e+38
3.5291307 0.080178618 0.96313876 -2.303381e+38
3.5291147 0.073814824 0.96313876 -2.3035374e+38
3.5290987 0.06745103 0.96313876 -2.3036935e+38
3.5290828 0.061087251 0.96313876 -2.3303302e+38
3.529067 0.054723464 0.96313876 -2.3570192e+38
3.4970484 0.04725109 0.96579015 -2.3970005e+38
3.4970324 0.040948249 0.96579015 -2.4370333e+38
3.5290194 0.035632096 0.96313876 -2.5302872e+38
3.5290034 0.029268302 0.96313876 -2.6236459e+38
3.2886751 -0.10171428 0.98302448 -2.1160847e+38
3.2886603 -0.10762092 0.98302448 -2.4492811e+38
3.2886455 -0.11352757 0.98302448 -2.4106569e+38
3.260632 -0.11896423 0.98534447 -2.3842285e+38
3.2606173 -0.12481755 0.98534447 -2.4376574e+38
3.2606027 -0.13067088 0.98534447 -2.4777424e+38
3.2605882 -0.13652419 0.98534447 -2.4908793e+38
3.2605734 -0.1423775 0.98534447 -2.5041204e+38
3.2605588 -0.14823082 0.98534447 -2.5043287e+38
3.2605443 -0.15408413 0.98534447 -2.5044332e+38
3.2605295 -0.15993744 0.98534447 -2.5178819e+38
3.260515 -0.16579077 0.98534447 -2.5445709e+38
3.2605002 -0.17164408 0.98534447 -2.5580715e+38
3.2604856 -0.17749739 0.98534447 -2.5849682e+38
3.2604711 -0.18335071 0.98534447 -2.6647222e+38
3.2604563 -0.18920402 0.98534447 -2.7446319e+38
3.2604418 -0.19505735 0.98534447 -2.5585921e+38
3.2604272 -0.20091066 0.98534447 -2.3726559e+38
3.5292101 0.11199757 0.95677495 -2.8228082e+38
3.5291941 0.10563378 0.95677495 -2.7554158e+38
3.5291784 0.099270001 0.95677495 -2.6089969e+38
3.5291624 0.092906192 0.95677495 -2.4492829e+38
3.5291464 0.086542398 0.95677495 -2.3830821e+38
3.5291307 0.080178618 0.95677495 -2.3034329e+38
3.5291147 0.073814824 0.95677495 -2.3035376e+38
3.5290987 0.06745103 0.95677495 -2.3036937e+38
3.5290828 0.061087251 0.95677495 -2.3303825e+38
3.529067 0.054723464 0.95677495 -2.3570194e+38
3.4970484 0.04725109 0.95948732 -2.410189e+38
3.5290351 0.041995883 0.95677495 -2.4503256e+38
3.5290194 0.035632096 0.95677495 -2.5434754e+38
3.5290034 0.029268302 0.95677495 -2.6236449e+38
3.593992 0.024661079 0.95126545 -2.7703277e+38
3.2886603 -0.10762092 0.97711778 -2.4892084e+38
3.2886455 -0.11352757 0.97711778 -2.437656e+38
3.260632 -0.11896423 0.97949111 -2.3711952e+38
3.2606173 -0.12481755 0.97949111 -2.424313e+38
3.2606027 -0.13067088 0.97949111 -2.4775866e+38
3.2605882 -0.13652419 0.97949111 -2.4907756e+38
3.2605734 -0.1423775 0.97949111 -2.490932e+38
3.2605588 -0.14823082 0.97949111 -2.5044847e+38
3.2605443 -0.15408413 0.97949111 -2.5177774e+38
3.2605295 -0.15993744 0.97949111 -2.5444664e+38
3.260515 -0.16579077 0.97949111 -2.5580189e+38
3.2605002 -0.17164408 0.97949111 -2.5716233e+38
3.2604856 -0.17749739 0.97949111 -2.5850201e+38
3.2604711 -0.18335071 0.97949111 -2.6516379e+38
3.2604563 -0.18920402 0.97949111 -2.7180473e+38
3.2604418 -0.19505735 0.97949111 -2.3857405e+38
3.2604272 -0.20091066 0.97949111 -2.0407128e+38
3.2334154 -0.20553935 0.98177969 -3.1458938e+38
3.594219 0.11548747 0.94477779 -3.0487782e+38
3.5291941 0.10563378 0.95041114 -3.0219371e+38
3.5291784 0.099270001 0.95041114 -2.6223929e+38
3.5291624 0.092906192 0.95041114 -2.2362949e+38
3.5291464 0.086542398 0.95041114 -2.2633478e+38
3.5291307 0.080178618 0.95041114 -2.2901408e+38
3.5291147 0.073814824 0.95041114 -2.3168818e+38
3.5290987 0.06745103 0.95041114 -2.3436227e+38
3.5290828 0.061087251 0.95041114 -2.3702596e+38
3.529067 0.054723464 0.95041114 -2.4101888e+38
3.4970484 0.04725109 0.95318449 -2.4501696e+38
3.5290351 0.041995883 0.95041114 -2.4902542e+38
3.5290194 0.035632096 0.95041114 -2.5434752e+38
3.5610056 0.030194029 0.9476378 -2.5836113e+38
3.593992 0.024661079 0.94477779 -2.6501761e+38
3.2886603 -0.10762092 0.97121114 -2.5683897e+38
3.2886455 -0.11352757 0.97121114 -2.4902012e+38
3.288631 -0.11943422 0.97121114 -2.4113313e+38
3.2606173 -0.12481755 0.97363782 -2.4377089e+38
3.2606027 -0.13067088 0.97363782 -2.4775866e+38
3.2605882 -0.13652419 0.97363782 -2.4908795e+38
3.2605734 -0.1423775 0.97363782 -2.4909841e+38
3.2605588 -0.14823082 0.97363782 -2.5176734e+38
3.2605443 -0.15408413 0.97363782 -2.5310699e+38
3.2885275 -0.16078076 0.97121114 -2.5578104e+38
3.260515 -0.16579077 0.97363782 -2.5846035e+38
3.2605002 -0.17164408 0.97363782 -2.6113444e+38
3.2604856 -0.17749739 0.97363782 -2.6381373e+38
3.2604711 -0.18335071 0.97363782 -2.6913589e+38
3.2604563 -0.18920402 0.97363782 -2.74458e+38
3.2604418 -0.19505735 0.97363782 -2.5318516e+38
3.2604272 -0.20091066 0.97363782 -2.332157e+38
3.2604125 -0.20676398 0.97363782 -3.318331e+38
3.5292261 0.11836137 0.94404733 -3.2485772e+38
3.594219 0.11548747 0.93829018 -3.2619757e+38
3.49719 0.10397664 0.94688165 -3.2745946e+38
3.4971743 0.097673789 0.94688165 -2.6489247e+38
3.5291624 0.092906192 0.94404733 -2.0239291e+38
3.4971428 0.085068122 0.94688165 -2.1572166e+38
3.4971271 0.078765273 0.94688165 -2.2769518e+38
3.5291147 0.073814824 0.94404733 -2.3302777e+38
3.4970956 0.066159606 0.94688165 -2.3701549e+38
3.4970798 0.059856772 0.94688165 -2.4100843e+38
3.4970641 0.053553924 0.94688165 -2.4501171e+38
3.4970484 0.04725109 0.94688165 -2.490098e+38
3.4970324 0.040948249 0.94688165 -2.530027e+38
3.5290194 0.035632096 0.94404733 -2.5433192e+38
3.5610056 0.030194029 0.94121301 -2.5437348e+38
3.5609896 0.023769289 0.94121301 -2.5307541e+38
3.2886751 -0.10171428 0.96530449 -2.4084544e+38
3.2886603 -0.10762092 0.96530449 -2.6348477e+38
3.2886455 -0.11352757 0.96530449 -2.5433685e+38
3.288631 -0.11943422 0.96530449 -2.4375517e+38
3.2606173 -0.12481755 0.96778446 -2.4640868e+38
3.2606027 -0.13067088 0.96778446 -2.4775351e+38
3.2605882 -0.13652419 0.96778446 -2.4908797e+38
3.2605734 -0.1423775 0.96778446 -2.4909841e+38
3.2605588 -0.14823082 0.96778446 -2.5176212e+38
3.2605443 -0.15408413 0.96778446 -2.54431e+38
3.2885275 -0.16078076 0.96530449 -2.5709988e+38
3.260515 -0.16579077 0.96778446 -2.5977398e+38
3.2605002 -0.17164408 0.96778446 -2.6377213e+38
3.2604856 -0.17749739 0.96778446 -2.6778064e+38
3.2604711 -0.18335071 0.96778446 -2.7176839e+38
3.2604563 -0.18920402 0.96778446 -2.7578201e+38
3.2604418 -0.19505735 0.96778446 -2.6914624e+38
3.2334299 -0.19973746 0.97017586 -2.6257812e+38
3.4972215 0.1165823 0.94057876 -3.1160724e+38
3.4972057 0.11027947 0.94057876 -3.0755739e+38
3.49719 0.10397664 0.94057876 -3.0489899e+38
3.4971743 0.097673789 0.94057876 -2.6489239e+38
3.4971585 0.091370955 0.94057876 -2.2362413e+38
3.4971428 0.085068122 0.94057876 -2.2766905e+38
3.4971271 0.078765273 0.94057876 -2.3169321e+38
3.4971113 0.07246244 0.94057876 -2.3567061e+38
3.4970956 0.066159606 0.94057876 -2.4099796e+38
3.4970798 0.059856772 0.94057876 -2.4634088e+38
3.4970641 0.053553924 0.94057876 -2.5165781e+38
3.4970484 0.04725109 0.94057876 -2.5432667e+38
3.4970324 0.040948249 0.94057876 -2.5697996e+38
3.4970167 0.034645408 0.94057876 -2.5569229e+38
3.5610056 0.030194029 0.93478829 -2.5571831e+38
3.2886603 -0.10762092 0.95939779 -2.6602346e+38
3.2886455 -0.11352757 0.95939779 -2.5561915e+38
3.288631 -0.11943422 0.95939779 -2.4643436e+38
3.2606173 -0.12481755 0.96193111 -2.4643472e+38
3.2606027 -0.13067088 0.96193111 -2.4775876e+38
3.2605882 -0.13652419 0.96193111 -2.4776395e+38
3.2605734 -0.1423775 0.96193111 -2.4909841e+38
3.2605588 -0.14823082 0.96193111 -2.517621e+38
3.2605443 -0.15408413 0.96193111 -2.5310178e+38
3.2885275 -0.16078076 0.95939779 -2.5577066e+38
3.2885127 -0.1666874 0.95939779 -2.5976879e+38
3.2884979 -0.17259406 0.95939779 -2.6376692e+38
3.2604856 -0.17749739 0.96193111 -2.6909947e+38
3.2604711 -0.18335071 0.96193111 -2.7443721e+38
3.2604563 -0.18920402 0.96193111 -2.7978525e+38
3.2604418 -0.19505735 0.96193111 -2.8113002e+38
3.5292261 0.11836137 0.93131971 -2.9683479e+38
3.5292101 0.11199757 0.93131971 -2.9018879e+38
3.49719 0.10397664 0.93427587 -2.8218247e+38
3.4971743 0.097673789 0.93427587 -2.634956e+38
3.4971585 0.091370955 0.93427587 -2.4491247e+38
3.4971428 0.085068122 0.93427587 -2.396372e+38
3.4971271 0.078765273 0.93427587 -2.3431519e+38
3.4971113 0.07246244 0.93427587 -2.3962699e+38
3.4970956 0.066159606 0.93427587 -2.4499072e+38
3.4970798 0.059856772 0.93427587 -2.5170442e+38
3.4970641 0.053553924 0.93427587 -2.5833502e+38
3.4970484 0.04725109 0.93427587 -2.5965908e+38
3.4970324 0.040948249 0.93427587 -2.610091e+38
3.5290194 0.035632096 0.93131971 -2.583922e+38
3.5610056 0.030194029 0.9283635 -2.5569719e+38
3.5609896 0.023769289 0.9283635 -2.6231198e+38
3.5609736 0.017344542 0.9283635 -2.675764e+38
3.2886603 -0.10762092 0.95349109 -2.6752969e+38
3.2886455 -0.11352757 0.95349109 -2.5833999e+38
3.288631 -0.11943422 0.95349109 -2.490876e+38
3.2606173 -0.12481755 0.95607781 -2.4778462e+38
3.2606027 -0.13067088 0.95607781 -2.4643986e+38
3.2605882 -0.13652419 0.95607781 -2.4776393e+38
3.2605734 -0.1423775 0.95607781 -2.4909839e+38
3.2605588 -0.14823082 0.95607781 -2.5042768e+38
3.2605443 -0.15408413 0.95607781 -2.5176736e+38
3.2885275 -0.16078076 0.95349109 -2.5576546e+38
3.2885127 -0.1666874 0.95349109 -2.5843437e+38
3.2884979 -0.17259406 0.95349109 -2.6375134e+38
3.2884831 -0.17850071 0.95349109 -2.6909427e+38
3.2604711 -0.18335071 0.95607781 -2.7709047e+38
3.2604563 -0.18920402 0.95607781 -2.8376261e+38
3.2604418 -0.19505735 0.95607781 -2.9175877e+38
3.529242 0.12472515 0.9249559 -2.4349903e+38
3.5292261 0.11836137 0.9249559 -2.4219071e+38
3.4972057 0.11027947 0.92797303 -2.4883697e+38
3.49719 0.10397664 0.92797303 -2.55525e+38
3.5291784 0.099270001 0.9249559 -2.4885324e+38
3.4971585 0.091370955 0.92797303 -2.409299e+38
3.4971428 0.085068122 0.92797303 -2.3691633e+38
3.4971271 0.078765273 0.92797303 -2.3427873e+38
3.4971113 0.07246244 0.92797303 -2.3961647e+38
3.4970956 0.066159606 0.92797303 -2.4629386e+38
3.4970798 0.059856772 0.92797303 -2.5298682e+38
3.4970641 0.053553924 0.92797303 -2.6100895e+38
3.4970484 0.04725109 0.92797303 -2.6099342e+38
3.5290351 0.041995883 0.9249559 -2.623642e+38
3.5290194 0.035632096 0.9249559 -2.6234346e+38
3.5610056 0.030194029 0.92193878 -2.6232222e+38
3.5609896 0.023769289 0.92193878 -2.6095618e+38
3.5609736 0.017344542 0.92193878 -2.5961632e+38
3.2886603 -0.10762092 0.94758451 -2.6236382e+38
3.2886455 -0.11352757 0.94758451 -2.5704717e+38
3.288631 -0.11943422 0.94758451 -2.5309604e+38
3.2886162 -0.12534086 0.94758451 -2.5175661e+38
3.2886014 -0.13124752 0.94758451 -2.5041707e+38
3.2885866 -0.13715416 0.94758451 -2.5042235e+38
3.2885718 -0.1430608 0.94758451 -2.5042762e+38
3.2605588 -0.14823082 0.95022446 -2.5175691e+38
3.2885423 -0.15487412 0.94758451 -2.5309139e+38
3.2885275 -0.16078076 0.94758451 -2.5709469e+38
3.2885127 -0.1666874 0.94758451 -2.5976359e+38
3.2884979 -0.17259406 0.94758451 -2.6508574e+38
3.2604856 -0.17749739 0.95022446 -2.704235e+38
3.2604711 -0.18335071 0.95022446 -2.7709047e+38
3.2604563 -0.18920402 0.95022446 -2.8375748e+38
3.2334445 -0.19393557 0.95277017 -2.9444331e+38
3.5942676 0.13495027 0.91233969 -2.208034e+38
3.5612466 0.12656517 0.91551399 -2.0474888e+38
3.5292261 0.11836137 0.9185921 -1.8757284e+38
3.5292101 0.11199757 0.9185921 -2.0877826e+38
3.49719 0.10397664 0.9216702 -2.2881018e+38
3.4971743 0.097673789 0.9216702 -2.328031e+38
3.4971585 0.091370955 0.9216702 -2.3681174e+38
3.4971428 0.085068122 0.9216702 -2.3547231e+38
3.4971271 0.078765273 0.9216702 -2.3288656e+38
3.4971113 0.07246244 0.9216702 -2.4091907e+38
3.4970956 0.066159606 0.9216702 -2.4756535e+38
3.4970798 0.059856772 0.9216702 -2.5559278e+38
3.4970641 0.053553924 0.9216702 -2.6225985e+38
3.4970484 0.04725109 0.9216702 -2.6360484e+38
3.5290351 0.041995883 0.9185921 -2.6362563e+38
3.5610218 0.036618769 0.91551399 -2.662841e+38
3.5610056 0.030194029 0.91551399 -2.6764416e+38
3.5609896 0.023769289 0.91551399 -2.5957503e+38
3.5609736 0.017344542 0.91551399 -2.5026506e+38
3.2606759 -0.10140429 0.9443711 -2.6893159e+38
3.2886603 -0.10762092 0.94167781 -2.569845e+38
3.2886455 -0.11352757 0.94167781 -2.5703683e+38
3.288631 -0.11943422 0.94167781 -2.5571815e+38
3.2886162 -0.12534086 0.94167781 -2.5571829e+38
3.2606027 -0.13067088 0.9443711 -2.5439437e+38
3.2605882 -0.13652419 0.9443711 -2.5307044e+38
3.2605734 -0.1423775 0.9443711 -2.5041204e+38
3.2605588 -0.14823082 0.9443711 -2.5307056e+38
3.2605443 -0.15408413 0.9443711 -2.5442062e+38
3.2605295 -0.15993744 0.9443711 -2.5842392e+38
3.2885127 -0.1666874 0.94167781 -2.6109282e+38
3.2605002 -0.17164408 0.9443711 -2.6640979e+38
3.2604856 -0.17749739 0.9443711 -2.7175271e+38
3.2604711 -0.18335071 0.9443711 -2.7708526e+38
3.2604563 -0.18920402 0.9443711 -2.8242819e+38
3.2334445 -0.19393557 0.94696832 -2.9709647e+38
3.4973004 0.14809649 0.91536736 -2.2213256e+38
3.4972847 0.14179367 0.91536736 -2.2079814e+38
3.4972689 0.13549082 0.91536736 -2.2080851e+38
3.5612626 0.13298991 0.90908921 -2.2215337e+38
3.4972372 0.12288515 0.91536736 -2.1150401e+38
3.4972215 0.1165823 0.91536736 -2.0223059e+38
3.4972057 0.11027947 0.91536736 -2.1283328e+38
3.49719 0.10397664 0.91536736 -2.2345648e+38
3.4971743 0.097673789 0.91536736 -2.2744909e+38
3.4971585 0.091370955 0.91536736 -2.3139552e+38
3.4971428 0.085068122 0.91536736 -2.3146848e+38
3.4971271 0.078765273 0.91536736 -2.328392e+38
3.4971113 0.07246244 0.91536736 -2.3950088e+38
3.4970956 0.066159606 0.91536736 -2.474453e+38
3.4970798 0.059856772 0.91536736 -2.5684354e+38
3.4970641 0.053553924 0.91536736 -2.6617959e+38
3.4970484 0.04725109 0.91536736 -2.6891623e+38
3.5290351 0.041995883 0.91222829 -2.7288838e+38
3.5610218 0.036618769 0.90908921 -2.7697993e+38
3.5610056 0.030194029 0.90908921 -2.8106092e+38
3.5609896 0.023769289 0.90908921 -2.7691209e+38
3.5609736 0.017344542 0.90908921 -2.7416009e+38
3.2606759 -0.10140429 0.93851781 -2.66195e+38
3.2886603 -0.10762092 0.93577111 -2.6086306e+38
3.2886455 -0.11352757 0.93577111 -2.5433168e+38
3.288631 -0.11943422 0.93577111 -2.4904085e+38
3.2886162 -0.12534086 0.93577111 -2.5039095e+38
3.2606027 -0.13067088 0.93851781 -2.5305993e+38
3.2605882 -0.13652419 0.93851781 -2.5173085e+38
3.2605734 -0.1423775 0.93851781 -2.5173091e+38
3.2605588 -0.14823082 0.93851781 -2.5307056e+38
3.2605443 -0.15408413 0.93851781 -2.5574985e+38
3.2605295 -0.15993744 0.93851781 -2.5842392e+38
3.2885127 -0.1666874 0.93577111 -2.6109282e+38
3.2884979 -0.17259406 0.93577111 -2.6642018e+38
3.2604856 -0.17749739 0.93851781 -2.7043387e+38
3.2604711 -0.18335071 0.93851781 -2.7575082e+38
3.2884536 -0.19031399 0.93577111 -2.8107294e+38
3.2604418 -0.19505735 0.93851781 -2.9044504e+38
3.4972847 0.14179367 0.90906447 -2.2746507e+38
3.4972689 0.13549082 0.90906447 -2.2481698e+38
3.5292578 0.13108894 0.90586448 -2.2217932e+38
3.4972372 0.12288515 0.90906447 -2.1954686e+38
3.4972215 0.1165823 0.90906447 -2.1686762e+38
3.4972057 0.11027947 0.90906447 -2.1818646e+38
3.49719 0.10397664 0.90906447 -2.1816555e+38
3.4971743 0.097673789 0.90906447 -2.2214273e+38
3.4971585 0.091370955 0.90906447 -2.2613059e+38
3.4971428 0.085068122 0.90906447 -2.2882041e+38
3.4971271 0.078765273 0.90906447 -2.3149444e+38
3.4971113 0.07246244 0.90906447 -2.3946463e+38
3.4970956 0.066159606 0.90906447 -2.4747643e+38
3.4970798 0.059856772 0.90906447 -2.5947589e+38
3.4970641 0.053553924 0.90906447 -2.702036e+38
3.4970484 0.04725109 0.90906447 -2.7564557e+38
3.5290351 0.041995883 0.90586448 -2.8096246e+38
3.5290194 0.035632096 0.90586448 -2.876761e+38
3.5610056 0.030194029 0.90266442 -2.9295657e+38
3.5289874 0.022904515 0.90586448 -2.955111e+38
3.5289714 0.016540729 0.90586448 -2.9823711e+38
3.5289557 0.010176934 0.90586448 -3.1034042e+38
3.2606759 -0.10140429 0.93266445 -2.6479292e+38
3.2886603 -0.10762092 0.92986447 -2.648817e+38
3.2886455 -0.11352757 0.92986447 -2.5304377e+38
3.288631 -0.11943422 0.92986447 -2.4108098e+38
3.2886162 -0.12534086 0.92986447 -2.4640335e+38
3.2606027 -0.13067088 0.93266445 -2.5039633e+38
3.2605882 -0.13652419 0.93266445 -2.5172563e+38
3.2605734 -0.1423775 0.93266445 -2.5305492e+38
3.2605588 -0.14823082 0.93266445 -2.543946e+38
3.2605443 -0.15408413 0.93266445 -2.5574463e+38
3.2605295 -0.15993744 0.93266445 -2.5841873e+38
3.260515 -0.16579077 0.93266445 -2.6109282e+38
3.2605002 -0.17164408 0.93266445 -2.6508576e+38
3.2604856 -0.17749739 0.93266445 -2.6909425e+38
3.2604711 -0.18335071 0.93266445 -2.7441642e+38
3.2604563 -0.18920402 0.93266445 -2.7844043e+38
3.2604418 -0.19505735 0.93266445 -2.8380405e+38
3.5293055 0.15018031 0.89950067 -2.3016511e+38
3.4972847 0.14179367 0.90276158 -2.3148912e+38
3.4972689 0.13549082 0.90276158 -2.2751178e+38
3.4972532 0.12918797 0.90276158 -2.2351893e+38
3.4972372 0.12288515 0.90276158 -2.222053e+38
3.4972215 0.1165823 0.90276158 -2.2219487e+38
3.4972057 0.11027947 0.90276158 -2.2085001e+38
3.49719 0.10397664 0.90276158 -2.1950001e+38
3.4971743 0.097673789 0.90276158 -2.2215844e+38
3.4971585 0.091370955 0.90276158 -2.2615144e+38
3.4971428 0.085068122 0.90276158 -2.2882558e+38
3.4971271 0.078765273 0.90276158 -2.3149969e+38
3.4971113 0.07246244 0.90276158 -2.3683224e+38
3.4970956 0.066159606 0.90276158 -2.4218546e+38
3.4970798 0.059856772 0.90276158 -2.6216016e+38
3.4970641 0.053553924 0.90276158 -2.8216665e+38
3.4970484 0.04725109 0.90276158 -2.9428602e+38
3.5290351 0.041995883 0.89950067 -3.0757307e+38
3.5290194 0.035632096 0.89950067 -3.0363205e+38
3.5610056 0.030194029 0.8962397 -2.9959764e+38
3.5609896 0.023769289 0.8962397 -2.9827358e+38
3.5289714 0.016540729 0.89950067 -2.9698612e+38
3.5289557 0.010176934 0.89950067 -2.9967593e+38
3.5609415 0.0044950619 0.8962397 -3.0366842e+38
3.2606905 -0.095550969 0.9268111 -2.5547269e+38
3.2606759 -0.10140429 0.9268111 -2.5145373e+38
3.2886603 -0.10762092 0.92395782 -2.4625673e+38
3.2886455 -0.11352757 0.92395782 -2.4502662e+38
3.288631 -0.11943422 0.92395782 -2.4373935e+38
3.2606173 -0.12481755 0.9268111 -2.4641901e+38
3.2606027 -0.13067088 0.9268111 -2.4773789e+38
3.2605882 -0.13652419 0.9268111 -2.4906716e+38
3.2605734 -0.1423775 0.9268111 -2.5171529e+38
3.2605588 -0.14823082 0.9268111 -2.5307054e+38
3.2605443 -0.15408413 0.9268111 -2.5441021e+38
3.2605295 -0.15993744 0.9268111 -2.5576027e+38
3.260515 -0.16579077 0.9268111 -2.5843956e+38
3.2605002 -0.17164408 0.9268111 -2.637669e+38
3.2604856 -0.17749739 0.9268111 -2.6909945e+38
3.2604711 -0.18335071 0.9268111 -2.7310796e+38
3.2604563 -0.18920402 0.9268111 -2.7712676e+38
3.2604418 -0.19505735 0.9268111 -2.8247478e+38
3.2604272 -0.20091066 0.9268111 -2.8782273e+38
3.2604125 -0.20676398 0.9268111 -3.2774096e+38
3.5293055 0.15018031 0.89313686 -2.342048e+38
3.4972847 0.14179367 0.89645875 -2.3551841e+38
3.4972689 0.13549082 0.89645875 -2.3021703e+38
3.5292578 0.13108894 0.89313686 -2.2487935e+38
3.4972372 0.12288515 0.89645875 -2.2620858e+38
3.4972215 0.1165823 0.89645875 -2.2618777e+38
3.5292101 0.11199757 0.89313686 -2.235085e+38
3.49719 0.10397664 0.89645875 -2.1951041e+38
3.4971743 0.097673789 0.89645875 -2.2216885e+38
3.4971585 0.091370955 0.89645875 -2.248326e+38
3.4971428 0.085068122 0.89645875 -2.288256e+38
3.4971271 0.078765273 0.89645875 -2.3149973e+38
3.4971113 0.07246244 0.89645875 -2.3416867e+38
3.4970956 0.066159606 0.89645875 -2.3553956e+38
3.4970798 0.059856772 0.89645875 -2.6480349e+38
3.4970641 0.053553924 0.89645875 -2.9289434e+38
3.4970484 0.04725109 0.89645875 -3.1307733e+38
3.5290351 0.041995883 0.89313686 -3.3295336e+38
3.5290194 0.035632096 0.89313686 -3.1967138e+38
3.5610056 0.030194029 0.88981497 -3.0500823e+38
3.5289874 0.022904515 0.89313686 -2.9967566e+38
3.5289714 0.016540729 0.89313686 -2.9430687e+38
3.5289557 0.010176934 0.89313686 -2.9036594e+38
3.2606905 -0.095550969 0.9209578 -2.4605368e+38
3.2886751 -0.10171428 0.91805112 -2.3662445e+38
3.2886603 -0.10762092 0.91805112 -2.2756444e+38
3.2886455 -0.11352757 0.91805112 -2.3706172e+38
3.288631 -0.11943422 0.91805112 -2.4639783e+38
3.2606173 -0.12481755 0.9209578 -2.4645533e+38
3.2606027 -0.13067088 0.9209578 -2.4508459e+38
3.2605882 -0.13652419 0.9209578 -2.4773789e+38
3.2605734 -0.1423775 0.9209578 -2.4908278e+38
3.2605588 -0.14823082 0.9209578 -2.5043285e+38
3.2605443 -0.15408413 0.9209578 -2.5176734e+38
3.2605295 -0.15993744 0.9209578 -2.5443626e+38
3.260515 -0.16579077 0.9209578 -2.5578629e+38
3.2605002 -0.17164408 0.9209578 -2.6244288e+38
3.2604856 -0.17749739 0.9209578 -2.6778579e+38
3.2604711 -0.18335071 0.9209578 -2.717891e+38
3.2604563 -0.18920402 0.9209578 -2.758027e+38
3.2604418 -0.19505735 0.9209578 -2.8114555e+38
3.2604272 -0.20091066 0.9209578 -2.8652986e+38
3.2604125 -0.20676398 0.9209578 nan
3.2603979 -0.21261729 0.9209578 nan
3.5293214 0.1565441 0.88677299 -2.3688928e+38
3.5293055 0.15018031 0.88677299 -2.368841e+38
3.4972847 0.14179367 0.89015591 -2.368581e+38
3.5292737 0.13745274 0.88677299 -2.3287555e+38
3.5612626 0.13298991 0.88339019 -2.2886708e+38
3.529242 0.12472515 0.88677299 -2.2753261e+38
3.5292261 0.11836137 0.88677299 -2.2751702e+38
3.5292101 0.11199757 0.88677299 -2.2483256e+38
3.49719 0.10397664 0.89015591 -2.2348773e+38
3.5291784 0.099270001 0.88677299 -2.2348769e+38
3.4971585 0.091370955 0.89015591 -2.2350339e+38
3.4971428 0.085068122 0.89015591 -2.2617235e+38
3.4971271 0.078765273 0.89015591 -2.3018095e+38
3.4971113 0.07246244 0.89015591 -2.3284472e+38
3.4970956 0.066159606 0.89015591 -2.3687944e+38
3.4970798 0.059856772 0.89015591 -2.5289279e+38
3.4970641 0.053553924 0.89015591 -2.7031864e+38
3.4970484 0.04725109 0.89015591 -2.7838277e+38
3.5290351 0.041995883 0.88677299 -2.8648784e+38
3.5290194 0.035632096 0.88677299 -2.917579e+38
3.5610056 0.030194029 0.88339019 -2.9842984e+38
3.5289874 0.022904515 0.88677299 -2.9564141e+38
3.5289714 0.016540729 0.88677299 -2.9419262e+38
3.5289557 0.010176934 0.88677299 -2.9030862e+38
3.2607052 -0.089697659 0.91510451 -2.3008193e+38
3.2606905 -0.095550969 0.91510451 -2.5539444e+38
3.2606759 -0.10140429 0.91510451 -2.5009836e+38
3.2606611 -0.1072576 0.91510451 -2.4480806e+38
3.2606466 -0.11311091 0.91510451 -2.462937e+38
3.260632 -0.11896423 0.91510451 -2.4770114e+38
3.2606173 -0.12481755 0.91510451 -2.4641894e+38
3.2606027 -0.13067088 0.91510451 -2.4372938e+38
3.2605882 -0.13652419 0.91510451 -2.4508459e+38
3.2605734 -0.1423775 0.91510451 -2.4643468e+38
3.2605588 -0.14823082 0.91510451 -2.477744e+38
3.2605443 -0.15408413 0.91510451 -2.4912448e+38
3.2605295 -0.15993744 0.91510451 -2.5178819e+38
3.260515 -0.16579077 0.91510451 -2.557967e+38
3.2605002 -0.17164408 0.91510451 -2.598e+38
3.2604856 -0.17749739 0.91510451 -2.6514809e+38
3.2604711 -0.18335071 0.91510451 -2.7180982e+38
3.2604563 -0.18920402 0.91510451 -2.7847154e+38
3.2604418 -0.19505735 0.91510451 -2.8244882e+38
3.2604272 -0.20091066 0.91510451 -2.8642606e+38
3.2884095 -0.20803395 0.91214442 nan
3.2603979 -0.21261729 0.91510451 nan
3.2603834 -0.2184706 0.91510451 nan
3.5293214 0.1565441 0.88040924 -2.3958414e+38
3.5293055 0.15018031 0.88040924 -2.3824453e+38
3.4972847 0.14179367 0.88385308 -2.3689449e+38
3.5292737 0.13745274 0.88040924 -2.3422559e+38
3.5292578 0.13108894 0.88040924 -2.3154113e+38
3.529242 0.12472515 0.88040924 -2.301963e+38
3.4972215 0.1165823 0.88385308 -2.2750663e+38
3.4972057 0.11027947 0.88385308 -2.2747025e+38
3.49719 0.10397664 0.88385308 -2.2614102e+38
3.4971743 0.097673789 0.88385308 -2.2346696e+38
3.4971585 0.091370955 0.88385308 -2.2083455e+38
3.4971428 0.085068122 0.88385308 -2.2484309e+38
3.4971271 0.078765273 0.88385308 -2.2750162e+38
3.4971113 0.07246244 0.88385308 -2.3280306e+38
3.4970956 0.066159606 0.88385308 -2.381669e+38
3.4970798 0.059856772 0.88385308 -2.4222231e+38
3.4970641 0.053553924 0.88385308 -2.4626729e+38
3.4970484 0.04725109 0.88385308 -2.4230575e+38
3.5290351 0.041995883 0.88040924 -2.3844301e+38
3.5290194 0.035632096 0.88040924 -2.6509537e+38
3.5290034 0.029268302 0.88040924 -2.9038693e+38
3.5289874 0.022904515 0.88040924 -2.9292584e+38
3.4969695 0.0157369 0.88385308 -2.9424456e+38
3.5609574 0.010919802 0.8769654 -2.9166387e+38
3.2887342 -0.07808768 0.90623784 -1.7679803e+38
3.2607198 -0.083844341 0.90925109 -1.808277e+38
3.2607052 -0.089697659 0.90925109 -2.2213808e+38
3.2606905 -0.095550969 0.90925109 -2.6345836e+38
3.2606759 -0.10140429 0.90925109 -2.6357257e+38
3.2606611 -0.1072576 0.90925109 -2.6220229e+38
3.2606466 -0.11311091 0.90925109 -2.5560856e+38
3.260632 -0.11896423 0.90925109 -2.4904077e+38
3.2606173 -0.12481755 0.90925109 -2.4645028e+38
3.2606027 -0.13067088 0.90925109 -2.4242621e+38
3.2605882 -0.13652419 0.90925109 -2.4244175e+38
3.2605734 -0.1423775 0.90925109 -2.4243664e+38
3.2605588 -0.14823082 0.90925109 -2.4509517e+38
3.2605443 -0.15408413 0.90925109 -2.4645042e+38
3.2605295 -0.15993744 0.90925109 -2.5045377e+38
3.260515 -0.16579077 0.90925109 -2.5445709e+38
3.2605002 -0.17164408 0.90925109 -2.584656e+38
3.2604856 -0.17749739 0.90925109 -2.6248967e+38
3.2604711 -0.18335071 0.90925109 -2.7182544e+38
3.2604563 -0.18920402 0.90925109 -2.7978519e+38
3.2604418 -0.19505735 0.90925109 -2.8242803e+38
3.2884243 -0.20212731 0.90623784 -2.8515906e+38
3.2884095 -0.20803395 0.90623784 nan
3.2603979 -0.21261729 0.90925109 nan
3.2883799 -0.21984725 0.90623784 nan
3.5293214 0.1565441 0.87404537 -2.4360304e+38
3.5293055 0.15018031 0.87404537 -2.4224783e+38
3.4972847 0.14179367 0.87755018 -2.4222702e+38
3.4972689 0.13549082 0.87755018 -2.3821331e+38
3.5292578 0.13108894 0.87404537 -2.3420482e+38
3.529242 0.12472515 0.87404537 -2.3285478e+38
3.4972215 0.1165823 0.87755018 -2.3149434e+38
3.4972057 0.11027947 0.87755018 -2.3014428e+38
3.49719 0.10397664 0.87755018 -2.3012872e+38
3.4971743 0.097673789 0.87755018 -2.2747546e+38
3.4971585 0.091370955 0.87755018 -2.2615146e+38
3.4971428 0.085068122 0.87755018 -2.2883071e+38
3.4971271 0.078765273 0.87755018 -2.3014961e+38
3.4971113 0.07246244 0.87755018 -2.3546657e+38
3.4970956 0.066159606 0.87755018 -2.4209208e+38
3.4970798 0.059856772 0.87755018 -2.4615258e+38
3.4970641 0.053553924 0.87755018 -2.5015572e+38
3.4970484 0.04725109 0.87755018 -2.4491655e+38
3.5290351 0.041995883 0.87404537 -2.3963154e+38
3.5290194 0.035632096 0.87404537 -2.6905182e+38
3.5290034 0.029268302 0.87404537 -2.9977975e+38
3.5289874 0.022904515 0.87404537 -2.9428622e+38
3.4969695 0.0157369 0.87755018 -2.9022055e+38
3.2887342 -0.07808768 0.90033114 -2.5675397e+38
3.2887194 -0.083994329 0.90033114 -2.5388857e+38
3.2607052 -0.089697659 0.9033978 -2.6080546e+38
3.2606905 -0.095550969 0.9033978 -2.68869e+38
3.2606759 -0.10140429 0.9033978 -2.6888966e+38
3.2606611 -0.1072576 0.9033978 -2.6753999e+38
3.2606466 -0.11311091 0.9033978 -2.5297592e+38
3.260632 -0.11896423 0.9033978 -2.3708812e+38
3.2606173 -0.12481755 0.9033978 -2.3975757e+38
3.2606027 -0.13067088 0.9033978 -2.4107631e+38
3.2605882 -0.13652419 0.9033978 -2.4241583e+38
3.2605734 -0.1423775 0.9033978 -2.4374511e+38
3.2605588 -0.14823082 0.9033978 -2.4508996e+38
3.2605443 -0.15408413 0.9033978 -2.4777446e+38
3.2605295 -0.15993744 0.9033978 -2.5177259e+38
3.260515 -0.16579077 0.9033978 -2.5444151e+38
3.2605002 -0.17164408 0.9033978 -2.5847601e+38
3.2604856 -0.17749739 0.9033978 -2.6116566e+38
3.2604711 -0.18335071 0.9033978 -2.6915145e+38
3.2604563 -0.18920402 0.9033978 -2.7711635e+38
3.2604418 -0.19505735 0.9033978 -2.7578185e+38
3.2884243 -0.20212731 0.90033114 -2.7580248e+38
3.2884095 -0.20803395 0.90033114 -3.0779208e+38
3.2603979 -0.21261729 0.9033978 nan
3.2603834 -0.2184706 0.9033978 nan
3.2603686 -0.22432393 0.9033978 nan
3.260354 -0.23017724 0.9033978 nan
3.5613108 0.15226415 0.86411589 -2.4625111e+38
3.5292897 0.14381652 0.86768162 -2.4620953e+38
3.5612786 0.13941465 0.86411589 -2.4219065e+38
3.5292578 0.13108894 0.86768162 -2.368581e+38
3.529242 0.12472515 0.86768162 -2.3684768e+38
3.5292261 0.11836137 0.86768162 -2.3549245e+38
3.4972057 0.11027947 0.87124729 -2.341476e+38
3.49719 0.10397664 0.87124729 -2.3280799e+38
3.4971743 0.097673789 0.87124729 -2.3281318e+38
3.4971585 0.091370955 0.87124729 -2.3149955e+38
3.4971428 0.085068122 0.87124729 -2.3284439e+38
3.4971271 0.078765273 0.87124729 -2.3283924e+38
3.4971113 0.07246244 0.87124729 -2.3948544e+38
3.4970956 0.066159606 0.87124729 -2.4479726e+38
3.5290828 0.061087251 0.86768162 -2.5014024e+38
3.4970641 0.053553924 0.87124729 -2.5416942e+38
3.4970484 0.04725109 0.87124729 -2.4756478e+38
3.4970324 0.040948249 0.87124729 -2.410075e+38
3.5290194 0.035632096 0.86768162 -2.7435823e+38
3.5290034 0.029268302 0.86768162 -3.0763556e+38
3.288749 -0.072181031 0.89442444 nan
3.2887342 -0.07808768 0.89442444 -3.3556896e+38
3.2887194 -0.083994329 0.89442444 -3.261505e+38
3.2887046 -0.089900978 0.89442444 -3.0097861e+38
3.2606905 -0.095550969 0.8975445 -2.742589e+38
3.2606759 -0.10140429 0.8975445 -2.7425355e+38
3.2606611 -0.1072576 0.8975445 -2.729245e+38
3.2606466 -0.11311091 0.8975445 -2.4899858e+38
3.260632 -0.11896423 0.8975445 -2.2507301e+38
3.2606173 -0.12481755 0.8975445 -2.3309046e+38
3.2606027 -0.13067088 0.8975445 -2.3973658e+38
3.2605882 -0.13652419 0.8975445 -2.4240542e+38
3.2605734 -0.1423775 0.8975445 -2.4374509e+38
3.2605588 -0.14823082 0.8975445 -2.464088e+38
3.2605443 -0.15408413 0.8975445 -2.4908809e+38
3.2605295 -0.15993744 0.8975445 -2.517518e+38
3.260515 -0.16579077 0.8975445 -2.5446747e+38
3.2605002 -0.17164408 0.8975445 -2.5716755e+38
3.2604856 -0.17749739 0.8975445 -2.5983126e+38
3.2604711 -0.18335071 0.8975445 -2.6781705e+38
3.2604563 -0.18920402 0.8975445 -2.7445274e+38
3.2604418 -0.19505735 0.8975445 -2.7042865e+38
3.2884243 -0.20212731 0.89442444 -2.6511659e+38
3.2884095 -0.20803395 0.89442444 -2.677176e+38
3.2603979 -0.21261729 0.8975445 -2.7050601e+38
3.2603834 -0.2184706 0.8975445 -3.2642202e+38
3.2603686 -0.22432393 0.8975445 nan
3.260354 -0.23017724 0.8975445 nan
3.5292897 0.14381652 0.86131775 -2.4751801e+38
3.5292737 0.13745274 0.86131775 -2.435199e+38
3.5292578 0.13108894 0.86131775 -2.3950102e+38
3.5612466 0.12656517 0.85769117 -2.3683212e+38
3.5292261 0.11836137 0.86131775 -2.3548729e+38
3.4972057 0.11027947 0.86494446 -2.3548208e+38
3.49719 0.10397664 0.86494446 -2.3414764e+38
3.5291784 0.099270001 0.86131775 -2.3283397e+38
3.4971585 0.091370955 0.86494446 -2.3152555e+38
3.4971428 0.085068122 0.86494446 -2.3418924e+38
3.4971271 0.078765273 0.86494446 -2.3552889e+38
3.4971113 0.07246244 0.86494446 -2.3950104e+38
3.4970956 0.066159606 0.86494446 -2.4481284e+38
3.5290828 0.061087251 0.86131775 -2.4749734e+38
3.529067 0.054723464 0.86131775 -2.5020257e+38
3.4970484 0.04725109 0.86494446 -2.4891492e+38
3.4970324 0.040948249 0.86494446 -2.4765885e+38
3.5290194 0.035632096 0.86131775 -2.6636197e+38
3.4970009 0.028342575 0.86494446 -2.8508008e+38
3.2887638 -0.066274382 0.8885178 nan
