# .PCD v0.7 - Point Cloud Data file format
VERSION 0.7
FIELDS x y z rgb
SIZE 4 4 4 4
TYPE F F F F
COUNT 1 1 1 1
WIDTH 1025
HEIGHT 1
VIEWPOINT 0 0 0 1 0 0 0
POINTS 1025
DATA ascii
0.21406668 -0.53275239 1.6900001 -2.1156129e+38
0.21728572 -0.53275239 1.6900001 -2.1288539e+38
0.22050478 -0.53275239 1.6900001 -2.1421468e+38
0.22253239 -0.52991527 1.6810001 -2.1421466e+38
0.22573429 -0.52991527 1.6810001 -2.1554388e+38
0.22893621 -0.52991527 1.6810001 -2.1554904e+38
0.23338097 -0.53275239 1.6900001 -2.1687305e+38
0.23534001 -0.52991527 1.6810001 -2.1820228e+38
0.23981906 -0.53275239 1.6900001 -2.1952632e+38
0.24303812 -0.53275239 1.6900001 -2.1953151e+38
0.24625716 -0.53275239 1.6900001 -2.1952632e+38
0.25065717 -0.53527433 1.6980001 -2.1821266e+38
0.25389144 -0.53527433 1.6980001 -2.1954191e+38
0.25712574 -0.53527433 1.6980001 -2.2087112e+38
0.26036 -0.53527433 1.6980001 -2.2220554e+38
0.2635943 -0.53527433 1.6980001 -2.222056e+38
0.2668286 -0.53527433 1.6980001 -2.2220566e+38
0.27006286 -0.53527433 1.6980001 -2.2088686e+38
0.27329716 -0.53527433 1.6980001 -2.2621939e+38
0.27653146 -0.53527433 1.6980001 -2.3021746e+38
0.27976573 -0.53527433 1.6980001 -2.328863e+38
0.28300002 -0.53527433 1.6980001 -2.3426228e+38
0.28758287 -0.5377962 1.7060001 -2.3428826e+38
0.29236668 -0.54063338 1.715 -2.3428311e+38
0.29701239 -0.54315525 1.723 -2.3293317e+38
0.30029431 -0.54315525 1.723 -2.3025926e+38
0.30516192 -0.54599243 1.7320001 -2.3554516e+38
0.30846098 -0.54599243 1.7320001 -2.4089842e+38
0.31338003 -0.54882956 1.7410001 -2.395744e+38
0.3166962 -0.54882956 1.7410001 -2.3692633e+38
0.32001239 -0.54882956 1.7410001 -2.5151669e+38
0.32332858 -0.54882956 1.7410001 -2.6646685e+38
0.04170667 -0.5965867 1.904 nan
0.045333337 -0.5965867 1.904 nan
0.048960004 -0.5965867 1.904 nan
0.052310478 -0.59345335 1.8940001 -3.0744156e+38
0.055918097 -0.59345335 1.8940001 -1.9821194e+38
0.059180003 -0.59000671 1.8830001 -2.2491144e+38
0.062766671 -0.59000671 1.8830001 -2.5020303e+38
0.066000953 -0.58687335 1.8730001 -2.4621527e+38
0.069197148 -0.58374006 1.863 -2.4221193e+38
0.072355241 -0.5806067 1.853 -2.4087223e+38
0.075475246 -0.57747334 1.8430001 -2.3820337e+38
0.078985721 -0.57747334 1.8430001 -2.3555528e+38
0.08204858 -0.57434005 1.8330001 -2.3290723e+38
0.085540004 -0.57434005 1.8330001 -2.3290723e+38
0.088594295 -0.57152003 1.8240001 -2.3291238e+38
0.091059051 -0.56525338 1.8040001 -2.3291234e+38
0.094023816 -0.56243336 1.7950001 -2.3291749e+38
0.096954294 -0.55961335 1.7860001 -2.3024861e+38
0.1003562 -0.55961335 1.7860001 -2.2890898e+38
0.10323524 -0.55679339 1.7770001 -2.2757452e+38
0.10662001 -0.55679339 1.7770001 -2.2490564e+38
0.10944763 -0.55397338 1.7680001 -2.2489519e+38
0.11281525 -0.55397338 1.7680001 -2.2621399e+38
0.11559144 -0.55115336 1.7590001 -2.2355028e+38
0.11833334 -0.54833335 1.7500001 -2.2088662e+38
0.12166668 -0.54833335 1.7500001 -2.1955735e+38
0.12435715 -0.54551339 1.7410001 -2.1689891e+38
0.12767334 -0.54551339 1.7410001 -2.1689374e+38
0.13098954 -0.54551339 1.7410001 -2.1689368e+38
0.13361144 -0.54269338 1.7320001 -2.1554881e+38
0.13691048 -0.54269338 1.7320001 -2.1554883e+38
0.14020953 -0.54269338 1.7320001 -2.1554364e+38
0.14350858 -0.54269338 1.7320001 -2.1686253e+38
0.14680763 -0.54269338 1.7320001 -2.1819177e+38
0.14932668 -0.53987336 1.723 -2.1819183e+38
0.15260859 -0.53987336 1.723 -2.1819187e+38
0.15589048 -0.53987336 1.723 -2.1686263e+38
0.15917239 -0.53987336 1.723 -2.1554894e+38
0.16245429 -0.53987336 1.723 -2.1290088e+38
0.16496667 -0.53736669 1.715 -2.1289571e+38
0.16823335 -0.53736669 1.715 -2.1289571e+38
0.17150001 -0.53736669 1.715 -2.0890282e+38
0.17476667 -0.53736669 1.715 -2.0623395e+38
0.17803335 -0.53736669 1.715 -2.0756314e+38
0.18130001 -0.53736669 1.715 -2.0889756e+38
0.1835981 -0.53454667 1.7060001 -2.0756312e+38
0.18684763 -0.53454667 1.7060001 -2.0756314e+38
0.19009715 -0.53454667 1.7060001 -2.1155083e+38
0.19244002 -0.53204006 1.6980001 -2.1553847e+38
0.1956743 -0.53204006 1.6980001 -2.1819169e+38
0.19797145 -0.52953339 1.6900001 -2.195209e+38
0.20119049 -0.52953339 1.6900001 -2.1952088e+38
0.20440954 -0.52953339 1.6900001 -2.1818644e+38
0.20762858 -0.52953339 1.6900001 -2.1686758e+38
0.21084763 -0.52953339 1.6900001 -2.1420399e+38
0.21406668 -0.52953339 1.6900001 -2.1420922e+38
0.21728572 -0.52953339 1.6900001 -2.1288009e+38
0.22050478 -0.52953339 1.6900001 -2.1288539e+38
0.22253239 -0.52671337 1.6810001 -2.1289054e+38
0.22573429 -0.52671337 1.6810001 -2.1422492e+38
0.22893621 -0.52671337 1.6810001 -2.1555934e+38
0.23338097 -0.52953339 1.6900001 -2.1688338e+38
0.23534001 -0.52671337 1.6810001 -2.1820224e+38
0.24095429 -0.53204006 1.6980001 -2.1820743e+38
0.24418859 -0.53204006 1.6980001 -2.195367e+38
0.24625716 -0.52953339 1.6900001 -2.1953672e+38
0.25065717 -0.53204006 1.6980001 -2.2087116e+38
0.25389144 -0.53204006 1.6980001 -2.2220041e+38
0.25712574 -0.53204006 1.6980001 -2.2485887e+38
0.26036 -0.53204006 1.6980001 -2.2485884e+38
0.2635943 -0.53204006 1.6980001 -2.2352966e+38
0.2668286 -0.53204006 1.6980001 -2.2221083e+38
0.27006286 -0.53204006 1.6980001 -2.2089205e+38
0.27329716 -0.53204006 1.6980001 -2.2223173e+38
0.27653146 -0.53204006 1.6980001 -2.2490057e+38
0.27844763 -0.52953339 1.6900001 -2.2758496e+38
0.28300002 -0.53204006 1.6980001 -2.3028498e+38
0.28758287 -0.53454667 1.7060001 -2.316194e+38
0.29236668 -0.53736669 1.715 -2.3294865e+38
0.29701239 -0.53987336 1.723 -2.3160903e+38
0.30029431 -0.53987336 1.723 -2.3158325e+38
0.30516192 -0.54269338 1.7320001 -2.3556593e+38
0.30846098 -0.54269338 1.7320001 -2.4090365e+38
0.31338003 -0.54551339 1.7410001 -2.2759583e+38
0.3166962 -0.54551339 1.7410001 -2.1432952e+38
0.32001239 -0.54551339 1.7410001 -2.502654e+38
0.32332858 -0.54551339 1.7410001 -2.8499303e+38
0.041947622 -0.59638578 1.9150001 nan
0.04559524 -0.59638578 1.9150001 nan
0.048960004 -0.59296006 1.904 nan
0.052310478 -0.58984578 1.8940001 -2.9654881e+38
0.055918097 -0.58984578 1.8940001 -1.7698092e+38
0.059525717 -0.58984578 1.8940001 -2.1436059e+38
0.062766671 -0.58642006 1.8830001 -2.5155293e+38
0.066000953 -0.58330578 1.8730001 -2.4623076e+38
0.069197148 -0.58019149 1.863 -2.4088783e+38
0.072745718 -0.58019149 1.863 -2.3820856e+38
0.075475246 -0.57396287 1.8430001 -2.3555009e+38
0.078985721 -0.57396287 1.8430001 -2.3422086e+38
0.08204858 -0.57084858 1.8330001 -2.315676e+38
0.085540004 -0.57084858 1.8330001 -2.315676e+38
0.088594295 -0.56804574 1.8240001 -2.3157794e+38
0.091059051 -0.56181717 1.8040001 -2.3158307e+38
0.094023816 -0.55901432 1.7950001 -2.3157784e+38
0.096954294 -0.55621147 1.7860001 -2.3023819e+38
0.099850483 -0.55340862 1.7770001 -2.275745e+38
0.10323524 -0.55340862 1.7770001 -2.2624523e+38
0.10608001 -0.55060577 1.7680001 -2.2490558e+38
0.10944763 -0.55060577 1.7680001 -2.2490034e+38
0.11281525 -0.55060577 1.7680001 -2.2356069e+38
0.11559144 -0.54780287 1.7590001 -2.2223142e+38
0.11833334 -0.54500002 1.7500001 -2.2089177e+38
0.12166668 -0.54500002 1.7500001 -2.1956252e+38
0.12500001 -0.54500002 1.7500001 -2.168937e+38
0.12767334 -0.54219717 1.7410001 -2.1688853e+38
0.13098954 -0.54219717 1.7410001 -2.1688851e+38
0.13361144 -0.53939432 1.7320001 -2.1687291e+38
0.13691048 -0.53939432 1.7320001 -2.1687291e+38
0.14020953 -0.53939432 1.7320001 -2.1687291e+38
0.14350858 -0.53939432 1.7320001 -2.1553851e+38
0.14604478 -0.53659147 1.723 -2.1685737e+38
0.14932668 -0.53659147 1.723 -2.1819181e+38
0.15260859 -0.53659147 1.723 -2.1819703e+38
0.15589048 -0.53659147 1.723 -2.1686778e+38
0.15917239 -0.53659147 1.723 -2.1554894e+38
0.16170001 -0.53410006 1.715 -2.1289048e+38
0.16496667 -0.53410006 1.715 -2.1288529e+38
0.16823335 -0.53410006 1.715 -2.1288531e+38
0.17150001 -0.53410006 1.715 -2.1022687e+38
0.17476667 -0.53410006 1.715 -2.0755799e+38
0.17803335 -0.53410006 1.715 -2.0887681e+38
0.18034859 -0.53129721 1.7060001 -2.088872e+38
0.1835981 -0.53129721 1.7060001 -2.0888722e+38
0.18684763 -0.53129721 1.7060001 -2.0756318e+38
0.19009715 -0.53129721 1.7060001 -2.1021125e+38
0.19244002 -0.52880573 1.6980001 -2.1286965e+38
0.1956743 -0.52880573 1.6980001 -2.168521e+38
0.19890858 -0.52880573 1.6980001 -2.1951575e+38
0.20119049 -0.52631432 1.6900001 -2.1818652e+38
0.20440954 -0.52631432 1.6900001 -2.1686242e+38
0.20762858 -0.52631432 1.6900001 -2.181968e+38
0.21084763 -0.52631432 1.6900001 -2.1819686e+38
0.21406668 -0.52631432 1.6900001 -2.1553847e+38
0.21728572 -0.52631432 1.6900001 -2.1288525e+38
0.21933049 -0.52351147 1.6810001 -2.1156125e+38
0.22253239 -0.52351147 1.6810001 -2.1024239e+38
0.22573429 -0.52351147 1.6810001 -2.1290602e+38
0.22893621 -0.52351147 1.6810001 -2.1556447e+38
0.23213811 -0.52351147 1.6810001 -2.168937e+38
0.23534001 -0.52351147 1.6810001 -2.1688331e+38
0.24095429 -0.52880573 1.6980001 -2.1821254e+38
0.24418859 -0.52880573 1.6980001 -2.1821258e+38
0.24625716 -0.52631432 1.6900001 -2.2087627e+38
0.25065717 -0.52880573 1.6980001 -2.2220552e+38
0.25389144 -0.52880573 1.6980001 -2.2619322e+38
0.25712574 -0.52880573 1.6980001 -2.2884645e+38
0.26036 -0.52880573 1.6980001 -2.275172e+38
0.2635943 -0.52880573 1.6980001 -2.24864e+38
0.2668286 -0.52880573 1.6980001 -2.2221599e+38
0.27006286 -0.52880573 1.6980001 -2.195628e+38
0.27329716 -0.52880573 1.6980001 -2.1957327e+38
0.27653146 -0.52880573 1.6980001 -2.1825964e+38
0.27844763 -0.52631432 1.6900001 -2.2225773e+38
0.28300002 -0.52880573 1.6980001 -2.2495251e+38
0.28758287 -0.53129721 1.7060001 -2.2762654e+38
0.29236668 -0.53410006 1.715 -2.3029538e+38
0.29701239 -0.53659147 1.723 -2.3162463e+38
0.30029431 -0.53659147 1.723 -2.3159364e+38
0.30516192 -0.53939432 1.7320001 -2.3689512e+38
0.30846098 -0.53939432 1.7320001 -2.408672e+38
0.31338003 -0.54219717 1.7410001 -2.1689435e+38
0.3166962 -0.54219717 1.7410001 -1.9169132e+38
0.32001239 -0.54219717 1.7410001 -2.4756602e+38
0.32332858 -0.54219717 1.7410001 -3.0379466e+38
0.045333337 -0.58933336 1.904 nan
0.048960004 -0.58933336 1.904 nan
0.052586671 -0.58933336 1.904 -2.9943641e+38
0.055918097 -0.58623815 1.8940001 -1.8887676e+38
0.059525717 -0.58623815 1.8940001 -2.1960988e+38
0.062766671 -0.58283335 1.8830001 -2.5155285e+38
0.066000953 -0.57973814 1.8730001 -2.4490146e+38
0.069197148 -0.57664287 1.863 -2.3956375e+38
0.072745718 -0.57664287 1.863 -2.3689487e+38
0.075884767 -0.57354766 1.853 -2.3422603e+38
0.078985721 -0.57045239 1.8430001 -2.328968e+38
0.08204858 -0.56735718 1.8330001 -2.3289161e+38
0.085120007 -0.56457144 1.8240001 -2.3156758e+38
0.088108577 -0.56147623 1.8140001 -2.3156752e+38
0.090604767 -0.55559528 1.7950001 -2.3157265e+38
0.094023816 -0.55559528 1.7950001 -2.3157261e+38
0.096954294 -0.55280954 1.7860001 -2.289089e+38
0.1003562 -0.55280954 1.7860001 -2.2756924e+38
0.10323524 -0.55002385 1.7770001 -2.2756918e+38
0.10608001 -0.54723811 1.7680001 -2.2622955e+38
0.10944763 -0.54723811 1.7680001 -2.2622434e+38
0.11224096 -0.54445243 1.7590001 -2.2620872e+38
0.11559144 -0.54445243 1.7590001 -2.2355022e+38
0.11833334 -0.54166669 1.7500001 -2.222054e+38
0.12166668 -0.54166669 1.7500001 -2.1955211e+38
0.12500001 -0.54166669 1.7500001 -2.1821252e+38
0.12767334 -0.538881 1.7410001 -2.1688851e+38
0.13098954 -0.538881 1.7410001 -2.1688853e+38
0.13361144 -0.53609526 1.7320001 -2.1554894e+38
0.13691048 -0.53609526 1.7320001 -2.1553855e+38
0.14020953 -0.53609526 1.7320001 -2.1553853e+38
0.14350858 -0.53609526 1.7320001 -2.1553855e+38
0.14604478 -0.53330958 1.723 -2.1686259e+38
0.14932668 -0.53330958 1.723 -2.1686257e+38
0.15260859 -0.53330958 1.723 -2.1686774e+38
0.15589048 -0.53330958 1.723 -2.1686257e+38
0.15917239 -0.53330958 1.723 -2.1553855e+38
0.16170001 -0.53083336 1.715 -2.1420411e+38
0.16496667 -0.53083336 1.715 -2.1288005e+38
0.16823335 -0.53083336 1.715 -2.128749e+38
0.17060001 -0.52804768 1.7060001 -2.1154571e+38
0.17476667 -0.53083336 1.715 -2.1020608e+38
0.17709906 -0.52804768 1.7060001 -2.1021123e+38
0.18034859 -0.52804768 1.7060001 -2.0888724e+38
0.1835981 -0.52804768 1.7060001 -2.0889245e+38
0.18684763 -0.52804768 1.7060001 -2.0889764e+38
0.18920572 -0.52557147 1.6980001 -2.1154569e+38
0.19244002 -0.52557147 1.6980001 -2.141989e+38
0.1956743 -0.52557147 1.6980001 -2.1685729e+38
0.19890858 -0.52557147 1.6980001 -2.1819173e+38
0.20119049 -0.52309525 1.6900001 -2.1686253e+38
0.20440954 -0.52309525 1.6900001 -2.1685727e+38
0.20762858 -0.52309525 1.6900001 -2.1686238e+38
0.21084763 -0.52309525 1.6900001 -2.1686766e+38
0.21406668 -0.52309525 1.6900001 -2.1554368e+38
0.21728572 -0.52309525 1.6900001 -2.1421963e+38
0.21933049 -0.52030957 1.6810001 -2.1289555e+38
0.22253239 -0.52030957 1.6810001 -2.1290595e+38
0.22573429 -0.52030957 1.6810001 -2.1422999e+38
0.22893621 -0.52030957 1.6810001 -2.1555922e+38
0.23338097 -0.52309525 1.6900001 -2.1555922e+38
0.23660001 -0.52309525 1.6900001 -2.1688325e+38
0.24095429 -0.52557147 1.6980001 -2.1821246e+38
0.24418859 -0.52557147 1.6980001 -2.1821252e+38
0.24742287 -0.52557147 1.6980001 -2.2087621e+38
0.25065717 -0.52557147 1.6980001 -2.2220027e+38
0.25389144 -0.52557147 1.6980001 -2.2485872e+38
0.25712574 -0.52557147 1.6980001 -2.2751195e+38
0.26036 -0.52557147 1.6980001 -2.2618787e+38
0.2635943 -0.52557147 1.6980001 -2.2486913e+38
0.2668286 -0.52557147 1.6980001 -2.2221595e+38
0.27006286 -0.52557147 1.6980001 -2.2089201e+38
0.27329716 -0.52557147 1.6980001 -2.1957846e+38
0.27653146 -0.52557147 1.6980001 -2.195941e+38
0.27976573 -0.52557147 1.6980001 -2.235974e+38
0.28433335 -0.52804768 1.7060001 -2.2893504e+38
0.28758287 -0.52804768 1.7060001 -2.30285e+38
0.2937305 -0.53330958 1.723 -2.3295905e+38
0.29701239 -0.53330958 1.723 -2.3427272e+38
0.30186287 -0.53609526 1.7320001 -2.355813e+38
0.30516192 -0.53609526 1.7320001 -2.3688988e+38
0.30846098 -0.53609526 1.7320001 -2.3953268e+38
0.31338003 -0.538881 1.7410001 -2.1291689e+38
0.3166962 -0.538881 1.7410001 -1.8767271e+38
0.32001239 -0.538881 1.7410001 -2.5431659e+38
0.32332858 -0.538881 1.7410001 -3.2111129e+38
0.04559524 -0.58909053 1.9150001 nan
0.048960004 -0.58570671 1.904 nan
0.052586671 -0.58570671 1.904 -3.0316387e+38
0.055918097 -0.58263052 1.8940001 -1.9952585e+38
0.059525717 -0.58263052 1.8940001 -2.2496833e+38
0.062766671 -0.5792467 1.8830001 -2.502236e+38
0.066000953 -0.5761705 1.8730001 -2.4491182e+38
0.069197148 -0.57309431 1.863 -2.3824489e+38
0.072355241 -0.57001811 1.853 -2.3558122e+38
0.075884767 -0.57001811 1.853 -2.3290719e+38
0.078985721 -0.56694192 1.8430001 -2.328968e+38
0.08204858 -0.56386578 1.8330001 -2.3290198e+38
0.085120007 -0.5610972 1.8240001 -2.3156754e+38
0.088108577 -0.55802101 1.8140001 -2.3024346e+38
0.090604767 -0.55217624 1.7950001 -2.3024344e+38
0.094023816 -0.55217624 1.7950001 -2.3024338e+38
0.096954294 -0.54940766 1.7860001 -2.289089e+38
0.1003562 -0.54940766 1.7860001 -2.2757444e+38
0.10323524 -0.54663908 1.7770001 -2.275692e+38
0.10608001 -0.54387051 1.7680001 -2.2756395e+38
0.10944763 -0.54387051 1.7680001 -2.2755872e+38
0.11281525 -0.54387051 1.7680001 -2.2754312e+38
0.11559144 -0.54110193 1.7590001 -2.2620868e+38
0.11833334 -0.53833336 1.7500001 -2.2353984e+38
0.12166668 -0.53833336 1.7500001 -2.208814e+38
0.12500001 -0.53833336 1.7500001 -2.1821776e+38
0.12767334 -0.53556478 1.7410001 -2.1821778e+38
0.13098954 -0.53556478 1.7410001 -2.1688336e+38
0.13361144 -0.5327962 1.7320001 -2.1554374e+38
0.13691048 -0.5327962 1.7320001 -2.1288531e+38
0.14020953 -0.5327962 1.7320001 -2.1420936e+38
0.14350858 -0.5327962 1.7320001 -2.1553859e+38
0.14604478 -0.53002763 1.723 -2.155334e+38
0.14932668 -0.53002763 1.723 -2.1553855e+38
0.15260859 -0.53002763 1.723 -2.1686776e+38
0.15589048 -0.53002763 1.723 -2.1686255e+38
0.15917239 -0.53002763 1.723 -2.1553328e+38
0.16170001 -0.52756673 1.715 -2.1420926e+38
0.16496667 -0.52756673 1.715 -2.1420409e+38
0.16735049 -0.52479815 1.7060001 -2.1287488e+38
0.17060001 -0.52479815 1.7060001 -2.1286969e+38
0.17476667 -0.52756673 1.715 -2.1287488e+38
0.17709906 -0.52479815 1.7060001 -2.1154563e+38
0.18034859 -0.52479815 1.7060001 -2.088872e+38
0.1835981 -0.52479815 1.7060001 -2.088872e+38
0.18684763 -0.52479815 1.7060001 -2.0888718e+38
0.19009715 -0.52479815 1.7060001 -2.1286965e+38
0.19244002 -0.5223372 1.6980001 -2.1553326e+38
0.1956743 -0.5223372 1.6980001 -2.1686244e+38
0.19890858 -0.5223372 1.6980001 -2.1686244e+38
0.20214286 -0.5223372 1.6980001 -2.1686242e+38
0.20440954 -0.51987624 1.6900001 -2.1553318e+38
0.20762858 -0.51987624 1.6900001 -2.1553318e+38
0.21084763 -0.51987624 1.6900001 -2.1553841e+38
0.21406668 -0.51987624 1.6900001 -2.1554364e+38
0.21612859 -0.51710767 1.6810001 -2.1422478e+38
0.21933049 -0.51710767 1.6810001 -2.1422993e+38
0.22253239 -0.51710767 1.6810001 -2.1422995e+38
0.22573429 -0.51710767 1.6810001 -2.1422478e+38
0.22893621 -0.51710767 1.6810001 -2.1422999e+38
0.23213811 -0.51710767 1.6810001 -2.1555924e+38
0.23534001 -0.51710767 1.6810001 -2.1687808e+38
0.24095429 -0.5223372 1.6980001 -2.1820212e+38
0.24418859 -0.5223372 1.6980001 -2.1820733e+38
0.24742287 -0.5223372 1.6980001 -2.2087617e+38
0.25065717 -0.5223372 1.6980001 -2.2220023e+38
0.25389144 -0.5223372 1.6980001 -2.248587e+38
0.25712574 -0.5223372 1.6980001 -2.2618791e+38
0.26036 -0.5223372 1.6980001 -2.2485347e+38
0.2635943 -0.5223372 1.6980001 -2.235399e+38
0.2668286 -0.5223372 1.6980001 -2.2221595e+38
0.27006286 -0.5223372 1.6980001 -2.208972e+38
0.27329716 -0.5223372 1.6980001 -2.2090769e+38
0.27653146 -0.5223372 1.6980001 -2.2091814e+38
0.27976573 -0.5223372 1.6980001 -2.2625068e+38
0.28300002 -0.5223372 1.6980001 -2.3158831e+38
0.28758287 -0.52479815 1.7060001 -2.3294343e+38
0.29236668 -0.52756673 1.715 -2.3427787e+38
0.29856384 -0.5327962 1.7320001 -2.3691558e+38
0.30186287 -0.5327962 1.7320001 -2.3822412e+38
0.30516192 -0.5327962 1.7320001 -2.3820343e+38
0.31006384 -0.53556478 1.7410001 -2.3818771e+38
0.31338003 -0.53556478 1.7410001 -2.1022705e+38
0.3166962 -0.53556478 1.7410001 -1.8235566e+38
0.32001239 -0.53556478 1.7410001 -2.6091598e+38
0.32332858 -0.53556478 1.7410001 -3.3844835e+38
0.32664478 -0.53556478 1.7410001 nan
0.04559524 -0.5854429 1.9150001 nan
0.048960004 -0.58208007 1.904 nan
0.052586671 -0.58208007 1.904 -2.8210331e+38
0.055918097 -0.57902288 1.8940001 -1.8876192e+38
0.059525717 -0.57902288 1.8940001 -2.1558585e+38
0.062766671 -0.57566005 1.8830001 -2.4224823e+38
0.066000953 -0.57260287 1.8730001 -2.3957931e+38
0.069197148 -0.56954575 1.863 -2.3690526e+38
0.072745718 -0.56954575 1.863 -2.3424678e+38
0.075475246 -0.56343144 1.8430001 -2.3291236e+38
0.078985721 -0.56343144 1.8430001 -2.3290717e+38
0.08204858 -0.56037432 1.8330001 -2.3291232e+38
0.085120007 -0.55762291 1.8240001 -2.3157786e+38
0.088108577 -0.55456573 1.8140001 -2.3157786e+38
0.091059051 -0.55150861 1.8040001 -2.3024344e+38
0.094023816 -0.5487572 1.7950001 -2.3023819e+38
0.096954294 -0.54600573 1.7860001 -2.289089e+38
0.1003562 -0.54600573 1.7860001 -2.2890886e+38
0.10323524 -0.54325432 1.7770001 -2.275744e+38
0.10608001 -0.54050291 1.7680001 -2.2756914e+38
0.10944763 -0.54050291 1.7680001 -2.2888791e+38
0.11224096 -0.53775144 1.7590001 -2.2886714e+38
0.11559144 -0.53775144 1.7590001 -2.2620347e+38
0.11894191 -0.53775144 1.7590001 -2.2485872e+38
0.12166668 -0.53500003 1.7500001 -2.2087627e+38
0.12500001 -0.53500003 1.7500001 -2.1821262e+38
0.12767334 -0.53224862 1.7410001 -2.1687818e+38
0.13098954 -0.53224862 1.7410001 -2.1421454e+38
0.13361144 -0.52949721 1.7320001 -2.1421971e+38
0.13691048 -0.52949721 1.7320001 -2.1422494e+38
0.14020953 -0.52949721 1.7320001 -2.1554902e+38
0.14276287 -0.52674574 1.723 -2.1687305e+38
0.14604478 -0.52674574 1.723 -2.1687822e+38
0.14932668 -0.52674574 1.723 -2.168782e+38
0.15260859 -0.52674574 1.723 -2.1553855e+38
0.15589048 -0.52674574 1.723 -2.1553328e+38
0.15917239 -0.52674574 1.723 -2.1287993e+38
0.16170001 -0.52430004 1.715 -2.1022673e+38
0.16496667 -0.52430004 1.715 -2.1022679e+38
0.16823335 -0.52430004 1.715 -2.1022158e+38
0.17150001 -0.52430004 1.715 -2.1022156e+38
0.17476667 -0.52430004 1.715 -2.1156119e+38
0.17709906 -0.52154863 1.7060001 -2.0888716e+38
0.18034859 -0.52154863 1.7060001 -2.0755793e+38
0.1835981 -0.52154863 1.7060001 -2.0888714e+38
0.18684763 -0.52154863 1.7060001 -2.088819e+38
0.19009715 -0.52154863 1.7060001 -2.1154551e+38
0.19244002 -0.51910287 1.6980001 -2.1554358e+38
0.1956743 -0.51910287 1.6980001 -2.1420395e+38
0.19890858 -0.51910287 1.6980001 -2.1419352e+38
0.20214286 -0.51910287 1.6980001 -2.1419867e+38
0.20440954 -0.51665717 1.6900001 -2.1419871e+38
0.20762858 -0.51665717 1.6900001 -2.1420395e+38
0.21084763 -0.51665717 1.6900001 -2.1420397e+38
0.21406668 -0.51665717 1.6900001 -2.1421957e+38
0.21612859 -0.51390576 1.6810001 -2.1422993e+38
0.21933049 -0.51390576 1.6810001 -2.1422989e+38
0.22253239 -0.51390576 1.6810001 -2.1422991e+38
0.22573429 -0.51390576 1.6810001 -2.1422993e+38
0.22893621 -0.51390576 1.6810001 -2.1422999e+38
0.23213811 -0.51390576 1.6810001 -2.1555407e+38
0.23534001 -0.51390576 1.6810001 -2.1687293e+38
0.23981906 -0.51665717 1.6900001 -2.1819697e+38
0.24303812 -0.51665717 1.6900001 -2.1952098e+38
0.24742287 -0.51910287 1.6980001 -2.2086575e+38
0.25065717 -0.51910287 1.6980001 -2.2220019e+38
0.25389144 -0.51910287 1.6980001 -2.2353463e+38
0.25712574 -0.51910287 1.6980001 -2.2353982e+38
0.26036 -0.51910287 1.6980001 -2.2221059e+38
0.2635943 -0.51910287 1.6980001 -2.2088144e+38
0.2668286 -0.51910287 1.6980001 -2.2089191e+38
0.27006286 -0.51910287 1.6980001 -2.208972e+38
0.27329716 -0.51910287 1.6980001 -2.2089728e+38
0.27653146 -0.51910287 1.6980001 -2.2089737e+38
0.27976573 -0.51910287 1.6980001 -2.2757472e+38
0.28433335 -0.52154863 1.7060001 -2.3424157e+38
0.28758287 -0.52154863 1.7060001 -2.3825513e+38
0.29236668 -0.52430004 1.715 -2.4225841e+38
0.29856384 -0.52949721 1.7320001 -2.4223245e+38
0.30186287 -0.52949721 1.7320001 -2.4220136e+38
0.30516192 -0.52949721 1.7320001 -2.4086698e+38
0.31006384 -0.53224862 1.7410001 -2.3953236e+38
0.31338003 -0.53224862 1.7410001 -2.1022681e+38
0.3166962 -0.53224862 1.7410001 -1.8226207e+38
0.32001239 -0.53224862 1.7410001 -2.5830423e+38
0.32332858 -0.53224862 1.7410001 -3.3581064e+38
0.32664478 -0.53224862 1.7410001 nan
0.04559524 -0.58179528 1.9150001 nan
0.048960004 -0.57845336 1.904 nan
0.052586671 -0.57845336 1.904 -2.606127e+38
0.056213338 -0.57845336 1.904 -1.78284e+38
0.059525717 -0.57541525 1.8940001 -2.0635395e+38
0.062766671 -0.5720734 1.8830001 -2.3426248e+38
0.066000953 -0.56903529 1.8730001 -2.3424682e+38
0.069197148 -0.56599718 1.863 -2.3424678e+38
0.072745718 -0.56599718 1.863 -2.3424155e+38
0.075475246 -0.55992097 1.8430001 -2.3290711e+38
0.078985721 -0.55992097 1.8430001 -2.329019e+38
0.08204858 -0.55688292 1.8330001 -2.3290705e+38
0.085120007 -0.55414861 1.8240001 -2.3290703e+38
0.088108577 -0.55111051 1.8140001 -2.315778e+38
0.091059051 -0.5480724 1.8040001 -2.3024855e+38
0.094023816 -0.54533815 1.7950001 -2.2891932e+38
0.096954294 -0.54260385 1.7860001 -2.2891413e+38
0.1003562 -0.54260385 1.7860001 -2.2891407e+38
0.10323524 -0.53986955 1.7770001 -2.2891401e+38
0.10662001 -0.53986955 1.7770001 -2.2757434e+38
0.10944763 -0.5371353 1.7680001 -2.2889314e+38
0.11281525 -0.5371353 1.7680001 -2.302016e+38
0.11559144 -0.534401 1.7590001 -2.2753276e+38
0.11894191 -0.534401 1.7590001 -2.248639e+38
0.12166668 -0.5316667 1.7500001 -2.2220025e+38
0.12500001 -0.5316667 1.7500001 -2.1821256e+38
0.12833335 -0.5316667 1.7500001 -2.155437e+38
0.13098954 -0.52893239 1.7410001 -2.1155602e+38
0.13430573 -0.52893239 1.7410001 -2.1289046e+38
0.13691048 -0.52619815 1.7320001 -2.1422492e+38
0.14020953 -0.52619815 1.7320001 -2.15549e+38
0.14276287 -0.52346385 1.723 -2.1688344e+38
0.14604478 -0.52346385 1.723 -2.1690423e+38
0.14932668 -0.52346385 1.723 -2.1687303e+38
0.15260859 -0.52346385 1.723 -2.1553336e+38
0.15589048 -0.52346385 1.723 -2.1288005e+38
0.15917239 -0.52346385 1.723 -2.1023194e+38
0.16245429 -0.52346385 1.723 -2.0623909e+38
0.16496667 -0.52103335 1.715 -2.0757353e+38
0.16823335 -0.52103335 1.715 -2.0756833e+38
0.17150001 -0.52103335 1.715 -2.0889754e+38
0.17476667 -0.52103335 1.715 -2.0889235e+38
0.17803335 -0.52103335 1.715 -2.0754754e+38
0.18034859 -0.5182991 1.7060001 -2.0622868e+38
0.1835981 -0.5182991 1.7060001 -2.0756825e+38
0.18684763 -0.5182991 1.7060001 -2.0889227e+38
0.19009715 -0.5182991 1.7060001 -2.1154551e+38
0.19244002 -0.5158686 1.6980001 -2.1420397e+38
0.1956743 -0.5158686 1.6980001 -2.1286955e+38
0.19890858 -0.5158686 1.6980001 -2.115403e+38
0.20214286 -0.5158686 1.6980001 -2.1286951e+38
0.20440954 -0.51343811 1.6900001 -2.1287472e+38
0.20762858 -0.51343811 1.6900001 -2.1288512e+38
0.21084763 -0.51343811 1.6900001 -2.115559e+38
0.21406668 -0.51343811 1.6900001 -2.1289553e+38
0.21728572 -0.51343811 1.6900001 -2.1289551e+38
0.22050478 -0.51343811 1.6900001 -2.1289032e+38
0.22372383 -0.51343811 1.6900001 -2.1289551e+38
0.22694287 -0.51343811 1.6900001 -2.1422995e+38
0.22893621 -0.51070386 1.6810001 -2.1422482e+38
0.23213811 -0.51070386 1.6810001 -2.1554889e+38
0.23660001 -0.51343811 1.6900001 -2.1687295e+38
0.23981906 -0.51343811 1.6900001 -2.1819181e+38
0.24303812 -0.51343811 1.6900001 -2.1952619e+38
0.24625716 -0.51343811 1.6900001 -2.208554e+38
0.24947621 -0.51343811 1.6900001 -2.2220023e+38
0.25269526 -0.51343811 1.6900001 -2.2220542e+38
0.2559143 -0.51343811 1.6900001 -2.208814e+38
0.26036 -0.5158686 1.6980001 -2.1956258e+38
0.2635943 -0.5158686 1.6980001 -2.1823341e+38
0.26557145 -0.51343811 1.6900001 -2.1956272e+38
0.27006286 -0.5158686 1.6980001 -2.1956278e+38
0.27329716 -0.5158686 1.6980001 -2.2088171e+38
0.27653146 -0.5158686 1.6980001 -2.2090771e+38
0.27976573 -0.5158686 1.6980001 -2.2890391e+38
0.28433335 -0.5182991 1.7060001 -2.3557595e+38
0.28758287 -0.5182991 1.7060001 -2.4224801e+38
0.29236668 -0.52103335 1.715 -2.4888898e+38
0.29701239 -0.52346385 1.723 -2.4754419e+38
0.30186287 -0.52619815 1.7320001 -2.4619943e+38
0.30674765 -0.52893239 1.7410001 -2.4353065e+38
0.31006384 -0.52893239 1.7410001 -2.3952199e+38
0.31338003 -0.52893239 1.7410001 -2.1155091e+38
0.31833336 -0.5316667 1.7500001 -1.8233475e+38
0.32166669 -0.5316667 1.7500001 -2.5689185e+38
0.32332858 -0.52893239 1.7410001 -3.3182294e+38
0.32664478 -0.52893239 1.7410001 nan
0.04559524 -0.57814765 1.9150001 nan
0.048960004 -0.57482672 1.904 -2.9849233e+38
0.05289048 -0.57814765 1.9150001 -2.4355629e+38
0.056213338 -0.57482672 1.904 -1.8900107e+38
0.059525717 -0.57180768 1.8940001 -2.129897e+38
0.063133337 -0.57180768 1.8940001 -2.3692613e+38
0.066000953 -0.56546766 1.8730001 -2.3691566e+38
0.069197148 -0.56244862 1.863 -2.3690522e+38
0.072745718 -0.56244862 1.863 -2.3557074e+38
0.075475246 -0.55641049 1.8430001 -2.3423628e+38
0.078557149 -0.55339146 1.8330001 -2.3290699e+38
0.08164572 -0.55067432 1.8240001 -2.3290699e+38
0.085120007 -0.55067432 1.8240001 -2.302537e+38
0.088108577 -0.54765528 1.8140001 -2.2891926e+38
0.090604767 -0.54191911 1.7950001 -2.2892443e+38
0.094023816 -0.54191911 1.7950001 -2.2759527e+38
0.096954294 -0.53920192 1.7860001 -2.2759011e+38
0.1003562 -0.53920192 1.7860001 -2.2759005e+38
0.10323524 -0.53648478 1.7770001 -2.2757959e+38
0.10662001 -0.53648478 1.7770001 -2.2624513e+38
0.10944763 -0.53376764 1.7680001 -2.2622951e+38
0.11281525 -0.53376764 1.7680001 -2.2754318e+38
0.11559144 -0.5310505 1.7590001 -2.2620357e+38
0.11894191 -0.5310505 1.7590001 -2.2486909e+38
0.12166668 -0.52833337 1.7500001 -2.2087615e+38
0.12500001 -0.52833337 1.7500001 -2.1688327e+38
0.12767334 -0.52561623 1.7410001 -2.1289038e+38
0.13098954 -0.52561623 1.7410001 -2.0889752e+38
0.13361144 -0.52289909 1.7320001 -2.0890273e+38
0.13691048 -0.52289909 1.7320001 -2.0890799e+38
0.13948096 -0.52018195 1.723 -2.1156129e+38
0.14276287 -0.52018195 1.723 -2.1555423e+38
0.14604478 -0.52018195 1.723 -2.1554908e+38
0.14932668 -0.52018195 1.723 -2.1552305e+38
0.15260859 -0.52018195 1.723 -2.1420932e+38
0.15516667 -0.51776671 1.715 -2.1288529e+38
0.15917239 -0.52018195 1.723 -2.1023202e+38
0.16170001 -0.51776671 1.715 -2.0889239e+38
0.16496667 -0.51776671 1.715 -2.0756833e+38
0.16823335 -0.51776671 1.715 -2.0623911e+38
0.17150001 -0.51776671 1.715 -2.0623391e+38
0.17476667 -0.51776671 1.715 -2.0755795e+38
0.17803335 -0.51776671 1.715 -2.0489428e+38
0.18130001 -0.51776671 1.715 -2.0223059e+38
0.18456668 -0.51776671 1.715 -2.0357014e+38
0.18684763 -0.51504958 1.7060001 -2.0623379e+38
0.19009715 -0.51504958 1.7060001 -2.0888706e+38
0.19334668 -0.51504958 1.7060001 -2.1154032e+38
0.1956743 -0.51263434 1.6980001 -2.1154032e+38
0.19890858 -0.51263434 1.6980001 -2.1154032e+38
0.20119049 -0.5102191 1.6900001 -2.1287474e+38
0.20440954 -0.5102191 1.6900001 -2.1420916e+38
0.20762858 -0.5102191 1.6900001 -2.1288512e+38
0.21084763 -0.5102191 1.6900001 -2.1288514e+38
0.21406668 -0.5102191 1.6900001 -2.1289034e+38
0.21612859 -0.50750196 1.6810001 -2.1289034e+38
0.21933049 -0.50750196 1.6810001 -2.1289034e+38
0.22253239 -0.50750196 1.6810001 -2.1422478e+38
0.22573429 -0.50750196 1.6810001 -2.1422478e+38
0.22893621 -0.50750196 1.6810001 -2.1422484e+38
0.23213811 -0.50750196 1.6810001 -2.1422488e+38
0.23534001 -0.50750196 1.6810001 -2.1554894e+38
0.23981906 -0.5102191 1.6900001 -2.1687818e+38
0.24303812 -0.5102191 1.6900001 -2.1821258e+38
0.24625716 -0.5102191 1.6900001 -2.195366e+38
0.24947621 -0.5102191 1.6900001 -2.2087621e+38
0.25269526 -0.5102191 1.6900001 -2.1954698e+38
0.2559143 -0.5102191 1.6900001 -2.1955222e+38
0.25913334 -0.5102191 1.6900001 -2.182282e+38
0.2635943 -0.51263434 1.6980001 -2.1823347e+38
0.26557145 -0.5102191 1.6900001 -2.1956276e+38
0.27006286 -0.51263434 1.6980001 -2.2088684e+38
0.27329716 -0.51263434 1.6980001 -2.2222649e+38
0.27653146 -0.51263434 1.6980001 -2.2357653e+38
0.27976573 -0.51263434 1.6980001 -2.3023308e+38
0.28433335 -0.51504958 1.7060001 -2.3557074e+38
0.28758287 -0.51504958 1.7060001 -2.4089801e+38
0.29236668 -0.51776671 1.715 -2.4754419e+38
0.29701239 -0.52018195 1.723 -2.4489095e+38
0.30186287 -0.52289909 1.7320001 -2.4222215e+38
0.30674765 -0.52561623 1.7410001 -2.3954816e+38
0.31006384 -0.52561623 1.7410001 -2.3688435e+38
0.31500003 -0.52833337 1.7500001 -2.0891326e+38
0.31833336 -0.52833337 1.7500001 -1.8231396e+38
0.32166669 -0.52833337 1.7500001 -2.2639739e+38
0.32500002 -0.52833337 1.7500001 -2.7203879e+38
0.32664478 -0.52561623 1.7410001 nan
0.33166668 -0.52833337 1.7500001 nan
0.04559524 -0.57450002 1.9150001 nan
0.049242862 -0.57450002 1.9150001 -2.5446666e+38
0.05289048 -0.57450002 1.9150001 -2.2611019e+38
0.056213338 -0.57120001 1.904 -1.9832641e+38
0.059525717 -0.56820005 1.8940001 -2.1967215e+38
0.062766671 -0.56490004 1.8830001 -2.3958972e+38
0.066000953 -0.56190002 1.8730001 -2.3957925e+38
0.069197148 -0.55890006 1.863 -2.382344e+38
0.072745718 -0.55890006 1.863 -2.3689473e+38
0.075475246 -0.55290002 1.8430001 -2.3424147e+38
0.078557149 -0.54990005 1.8330001 -2.3291741e+38
0.08164572 -0.54720002 1.8240001 -2.315882e+38
0.08465334 -0.54420006 1.8140001 -2.2892977e+38
0.088108577 -0.54420006 1.8140001 -2.2627127e+38
0.090604767 -0.53850001 1.7950001 -2.2627123e+38
0.094023816 -0.53850001 1.7950001 -2.2626087e+38
0.096954294 -0.53580004 1.7860001 -2.2625571e+38
0.1003562 -0.53580004 1.7860001 -2.2625048e+38
0.10323524 -0.53310001 1.7770001 -2.2624006e+38
0.10662001 -0.53310001 1.7770001 -2.249056e+38
0.10944763 -0.53040004 1.7680001 -2.2489517e+38
0.11281525 -0.53040004 1.7680001 -2.2355556e+38
0.11559144 -0.52770001 1.7590001 -2.2354515e+38
0.11894191 -0.52770001 1.7590001 -2.2353992e+38
0.12166668 -0.52500004 1.7500001 -2.1954179e+38
0.12500001 -0.52500004 1.7500001 -2.1422486e+38
0.12767334 -0.5223 1.7410001 -2.1023715e+38
0.13098954 -0.5223 1.7410001 -2.0490988e+38
0.13361144 -0.51960003 1.7320001 -2.0490992e+38
0.13691048 -0.51960003 1.7320001 -2.035859e+38
0.13948096 -0.51690006 1.723 -2.0889762e+38
0.14276287 -0.51690006 1.723 -2.1288537e+38
0.14604478 -0.51690006 1.723 -2.1287502e+38
0.14932668 -0.51690006 1.723 -2.1288018e+38
0.15260859 -0.51690006 1.723 -2.1288531e+38
0.15516667 -0.51450002 1.715 -2.128905e+38
0.15917239 -0.51690006 1.723 -2.1156646e+38
0.16170001 -0.51450002 1.715 -2.1023204e+38
0.16496667 -0.51450002 1.715 -2.0756318e+38
0.16823335 -0.51450002 1.715 -2.035755e+38
0.17150001 -0.51450002 1.715 -2.0489432e+38
0.17476667 -0.51450002 1.715 -2.0489432e+38
0.17709906 -0.51180005 1.7060001 -2.0223585e+38
0.18034859 -0.51180005 1.7060001 -1.9824812e+38
0.1835981 -0.51180005 1.7060001 -2.0090654e+38
0.18684763 -0.51180005 1.7060001 -2.0224094e+38
0.19009715 -0.51180005 1.7060001 -2.0622862e+38
0.19334668 -0.51180005 1.7060001 -2.0888708e+38
0.1956743 -0.50940001 1.6980001 -2.102163e+38
0.19890858 -0.50940001 1.6980001 -2.1022152e+38
0.20214286 -0.50940001 1.6980001 -2.1287999e+38
0.20537716 -0.50940001 1.6980001 -2.1421441e+38
0.20762858 -0.50700003 1.6900001 -2.1421441e+38
0.21084763 -0.50700003 1.6900001 -2.1421441e+38
0.21406668 -0.50700003 1.6900001 -2.1288517e+38
0.21728572 -0.50700003 1.6900001 -2.1156113e+38
0.22050478 -0.50700003 1.6900001 -2.1289036e+38
0.22253239 -0.50430006 1.6810001 -2.142248e+38
0.22694287 -0.50700003 1.6900001 -2.1422484e+38
0.22893621 -0.50430006 1.6810001 -2.1422486e+38
0.23213811 -0.50430006 1.6810001 -2.142249e+38
0.23534001 -0.50430006 1.6810001 -2.1289569e+38
0.23981906 -0.50700003 1.6900001 -2.1555936e+38
0.24303812 -0.50700003 1.6900001 -2.168834e+38
0.24625716 -0.50700003 1.6900001 -2.1820743e+38
0.24947621 -0.50700003 1.6900001 -2.1954185e+38
0.25269526 -0.50700003 1.6900001 -2.1821264e+38
0.2559143 -0.50700003 1.6900001 -2.1689386e+38
0.25913334 -0.50700003 1.6900001 -2.1822313e+38
0.2635943 -0.50940001 1.6980001 -2.1823356e+38
0.26557145 -0.50700003 1.6900001 -2.2089722e+38
0.27006286 -0.50940001 1.6980001 -2.2222649e+38
0.27329716 -0.50940001 1.6980001 -2.2489537e+38
0.27653146 -0.50940001 1.6980001 -2.2623505e+38
0.27976573 -0.50940001 1.6980001 -2.3155721e+38
0.28300002 -0.50940001 1.6980001 -2.3556047e+38
0.28758287 -0.51180005 1.7060001 -2.4088779e+38
0.29236668 -0.51450002 1.715 -2.4490661e+38
0.29701239 -0.51690006 1.723 -2.4225332e+38
0.30186287 -0.51960003 1.7320001 -2.3824489e+38
0.30674765 -0.5223 1.7410001 -2.3556049e+38
0.3116667 -0.52500004 1.7500001 -2.3288113e+38
0.31500003 -0.52500004 1.7500001 -2.0756336e+38
0.31833336 -0.52500004 1.7500001 -1.8233454e+38
0.32166669 -0.52500004 1.7500001 -1.9699814e+38
0.32500002 -0.52500004 1.7500001 -2.10785e+38
0.32833335 -0.52500004 1.7500001 nan
0.33166668 -0.52500004 1.7500001 nan
0.041947622 -0.5708524 1.9150001 nan
0.04559524 -0.5708524 1.9150001 nan
0.049242862 -0.5708524 1.9150001 -2.3177095e+38
0.05289048 -0.5708524 1.9150001 -2.1828023e+38
0.056538098 -0.5708524 1.9150001 -2.0637445e+38
0.059840005 -0.56757337 1.904 -2.2232016e+38
0.063133337 -0.56459242 1.8940001 -2.3958965e+38
0.066000953 -0.55833244 1.8730001 -2.3823958e+38
0.069197148 -0.55535144 1.863 -2.3688954e+38
0.072355241 -0.55237049 1.853 -2.3557065e+38
0.075475246 -0.54938954 1.8430001 -2.3423628e+38
0.078557149 -0.54640859 1.8330001 -2.3424668e+38
0.08164572 -0.54372573 1.8240001 -2.3292788e+38
0.085120007 -0.54372573 1.8240001 -2.3025908e+38
0.088108577 -0.54074478 1.8140001 -2.2892981e+38
0.091059051 -0.53776383 1.8040001 -2.2892456e+38
0.094023816 -0.53508097 1.7950001 -2.2890898e+38
0.096954294 -0.5323981 1.7860001 -2.2891417e+38
0.1003562 -0.5323981 1.7860001 -2.2757456e+38
0.10323524 -0.5297153 1.7770001 -2.2623493e+38
0.10662001 -0.5297153 1.7770001 -2.2489529e+38
0.10944763 -0.52703243 1.7680001 -2.2356083e+38
0.11281525 -0.52703243 1.7680001 -2.222212e+38
0.11559144 -0.52434957 1.7590001 -2.2088674e+38
0.11894191 -0.52434957 1.7590001 -2.1955228e+38
0.12166668 -0.52166671 1.7500001 -2.1688859e+38
0.12500001 -0.52166671 1.7500001 -2.142249e+38
0.12767334 -0.51898384 1.7410001 -2.0890275e+38
0.13031238 -0.51630098 1.7320001 -2.0490475e+38
0.13361144 -0.51630098 1.7320001 -2.0225672e+38
0.13691048 -0.51630098 1.7320001 -2.0093266e+38
0.13948096 -0.51361811 1.723 -2.0358588e+38
0.14276287 -0.51361811 1.723 -2.062444e+38
0.14604478 -0.51361811 1.723 -2.0623925e+38
0.14932668 -0.51361811 1.723 -2.0757365e+38
0.15260859 -0.51361811 1.723 -2.0890284e+38
0.15516667 -0.51123339 1.715 -2.1024245e+38
0.15917239 -0.51361811 1.723 -2.0890803e+38
0.16170001 -0.51123339 1.715 -2.0890803e+38
0.1657362 -0.51361811 1.723 -2.0756842e+38
0.16823335 -0.51123339 1.715 -2.0622878e+38
0.17150001 -0.51123339 1.715 -2.0489434e+38
0.17476667 -0.51123339 1.715 -2.0356511e+38
0.17803335 -0.51123339 1.715 -2.0090664e+38
0.18130001 -0.51123339 1.715 -1.9825333e+38
0.18456668 -0.51123339 1.715 -2.0091175e+38
0.18783334 -0.51123339 1.715 -2.0224098e+38
0.19009715 -0.50855052 1.7060001 -2.0357018e+38
0.19334668 -0.50855052 1.7060001 -2.0357018e+38
0.1956743 -0.50616574 1.6980001 -2.049098e+38
0.19890858 -0.50616574 1.6980001 -2.0624426e+38
0.20214286 -0.50616574 1.6980001 -2.0756831e+38
0.20537716 -0.50616574 1.6980001 -2.1022679e+38
0.20762858 -0.50378096 1.6900001 -2.1155602e+38
0.21084763 -0.50378096 1.6900001 -2.1288003e+38
0.21406668 -0.50378096 1.6900001 -2.1155596e+38
0.21728572 -0.50378096 1.6900001 -2.1156115e+38
0.22050478 -0.50378096 1.6900001 -2.1156632e+38
0.22253239 -0.50109816 1.6810001 -2.1157157e+38
0.22694287 -0.50378096 1.6900001 -2.1289567e+38
0.22893621 -0.50109816 1.6810001 -2.142249e+38
0.23213811 -0.50109816 1.6810001 -2.142249e+38
0.23534001 -0.50109816 1.6810001 -2.1423011e+38
0.23981906 -0.50378096 1.6900001 -2.1555936e+38
0.24303812 -0.50378096 1.6900001 -2.1821784e+38
0.24625716 -0.50378096 1.6900001 -2.1820747e+38
0.24947621 -0.50378096 1.6900001 -2.1820751e+38
0.25269526 -0.50378096 1.6900001 -2.1821273e+38
0.2559143 -0.50378096 1.6900001 -2.1822319e+38
0.25913334 -0.50378096 1.6900001 -2.1689922e+38
0.26235241 -0.50378096 1.6900001 -2.169096e+38
0.26557145 -0.50378096 1.6900001 -2.1956804e+38
0.27006286 -0.50616574 1.6980001 -2.2222653e+38
0.27329716 -0.50616574 1.6980001 -2.2489539e+38
0.27653146 -0.50616574 1.6980001 -2.2755914e+38
0.27976573 -0.50616574 1.6980001 -2.3155729e+38
0.28300002 -0.50616574 1.6980001 -2.3556062e+38
0.28758287 -0.50855052 1.7060001 -2.3826065e+38
0.2908324 -0.50855052 1.7060001 -2.42295e+38
0.29701239 -0.51361811 1.723 -2.4093973e+38
0.30029431 -0.51361811 1.723 -2.4092416e+38
0.30674765 -0.51898384 1.7410001 -2.3823453e+38
0.31006384 -0.51898384 1.7410001 -2.3556041e+38
0.31500003 -0.52166671 1.7500001 -2.1691477e+38
0.31833336 -0.52166671 1.7500001 -1.9829027e+38
0.32166669 -0.52166671 1.7500001 -2.0101129e+38
0.32500002 -0.52166671 1.7500001 -2.0399321e+38
0.32833335 -0.52166671 1.7500001 nan
0.32996097 -0.51898384 1.7410001 nan
0.042166669 -0.57016671 1.9250001 nan
0.045833338 -0.57016671 1.9250001 nan
0.049242862 -0.56720477 1.9150001 -2.0913243e+38
0.05289048 -0.56720477 1.9150001 -2.1151983e+38
0.056213338 -0.56394672 1.904 -2.1297386e+38
0.059840005 -0.56394672 1.904 -2.2630269e+38
0.063133337 -0.56098479 1.8940001 -2.3825006e+38
0.066000953 -0.55476481 1.8730001 -2.3689479e+38
0.069197148 -0.55180287 1.863 -2.3557593e+38
0.072355241 -0.548841 1.853 -2.355811e+38
0.075475246 -0.54587907 1.8430001 -2.3424672e+38
0.078557149 -0.54291719 1.8330001 -2.3424157e+38
0.08164572 -0.54025149 1.8240001 -2.3424676e+38
0.085120007 -0.54025149 1.8240001 -2.3291236e+38
0.088108577 -0.53728956 1.8140001 -2.3025906e+38
0.091059051 -0.53432763 1.8040001 -2.3158303e+38
0.094023816 -0.53166193 1.7950001 -2.3157784e+38
0.096954294 -0.52899623 1.7860001 -2.3024861e+38
0.1003562 -0.52899623 1.7860001 -2.2890381e+38
0.10323524 -0.52633053 1.7770001 -2.2622977e+38
0.10662001 -0.52633053 1.7770001 -2.2356608e+38
0.10944763 -0.52366477 1.7680001 -2.2222643e+38
0.11281525 -0.52366477 1.7680001 -2.2089199e+38
0.11559144 -0.52099907 1.7590001 -2.1822313e+38
0.11894191 -0.52099907 1.7590001 -2.1556461e+38
0.12229239 -0.52099907 1.7590001 -2.1423013e+38
0.12500001 -0.51833338 1.7500001 -2.1289567e+38
0.12767334 -0.51566768 1.7410001 -2.0890797e+38
0.13098954 -0.51566768 1.7410001 -2.0358588e+38
0.13430573 -0.51566768 1.7410001 -2.0093264e+38
0.13691048 -0.51300192 1.7320001 -1.9827938e+38
0.13948096 -0.51033622 1.723 -1.9827418e+38
0.14276287 -0.51033622 1.723 -1.9826903e+38
0.14604478 -0.51033622 1.723 -2.0092753e+38
0.14932668 -0.51033622 1.723 -2.0225154e+38
0.15260859 -0.51033622 1.723 -2.0491e+38
0.15589048 -0.51033622 1.723 -2.0757363e+38
0.15917239 -0.51033622 1.723 -2.0757361e+38
0.16245429 -0.51033622 1.723 -2.0623917e+38
0.1657362 -0.51033622 1.723 -2.075684e+38
0.1690181 -0.51033622 1.723 -2.0888722e+38
0.17230001 -0.51033622 1.723 -2.0489432e+38
0.17558192 -0.51033622 1.723 -2.0090145e+38
0.17803335 -0.5079667 1.715 -1.9957741e+38
0.18130001 -0.5079667 1.715 -1.9825337e+38
0.18456668 -0.5079667 1.715 -2.0091181e+38
0.18783334 -0.5079667 1.715 -2.0224102e+38
0.19110002 -0.5079667 1.715 -2.0091177e+38
0.19334668 -0.505301 1.7060001 -1.9826887e+38
0.19659621 -0.505301 1.7060001 -1.9960848e+38
0.19890858 -0.50293148 1.6980001 -2.0093254e+38
0.20214286 -0.50293148 1.6980001 -2.0358584e+38
0.20537716 -0.50293148 1.6980001 -2.0491507e+38
0.20861144 -0.50293148 1.6980001 -2.0756314e+38
0.21084763 -0.50056195 1.6900001 -2.1022677e+38
0.21406668 -0.50056195 1.6900001 -2.1156117e+38
0.21728572 -0.50056195 1.6900001 -2.1156636e+38
0.22050478 -0.50056195 1.6900001 -2.1024235e+38
0.22372383 -0.50056195 1.6900001 -2.0757874e+38
0.22694287 -0.50056195 1.6900001 -2.1023724e+38
0.22893621 -0.49789622 1.6810001 -2.1289569e+38
0.23213811 -0.49789622 1.6810001 -2.1422492e+38
0.23534001 -0.49789622 1.6810001 -2.1555934e+38
0.23981906 -0.50056195 1.6900001 -2.1688857e+38
0.24303812 -0.50056195 1.6900001 -2.1821262e+38
0.24625716 -0.50056195 1.6900001 -2.1687303e+38
0.24947621 -0.50056195 1.6900001 -2.1555423e+38
0.25269526 -0.50056195 1.6900001 -2.168835e+38
0.2559143 -0.50056195 1.6900001 -2.1822317e+38
0.25913334 -0.50056195 1.6900001 -2.1689922e+38
0.2635943 -0.50293148 1.6980001 -2.1557516e+38
0.26557145 -0.50056195 1.6900001 -2.1823362e+38
0.27006286 -0.50293148 1.6980001 -2.2090248e+38
0.27329716 -0.50293148 1.6980001 -2.248902e+38
0.27653146 -0.50293148 1.6980001 -2.2888837e+38
0.27976573 -0.50293148 1.6980001 -2.3154693e+38
0.28300002 -0.50293148 1.6980001 -2.3424175e+38
0.28623432 -0.50293148 1.6980001 -2.3694698e+38
0.2908324 -0.505301 1.7060001 -2.3829168e+38
0.29563335 -0.5079667 1.715 -2.4093967e+38
0.30029431 -0.51033622 1.723 -2.4224809e+38
0.30674765 -0.51566768 1.7410001 -2.3956365e+38
0.3116667 -0.51833338 1.7500001 -2.3688948e+38
0.31662002 -0.52099907 1.7590001 -2.2491073e+38
0.31997049 -0.52099907 1.7590001 -2.1288557e+38
0.32332098 -0.52099907 1.7590001 -2.0477023e+38
0.32667145 -0.52099907 1.7590001 -1.9595014e+38
0.32833335 -0.51833338 1.7500001 nan
0.33166668 -0.51833338 1.7500001 nan
0.038500004 -0.56650001 1.9250001 nan
0.042166669 -0.56650001 1.9250001 nan
0.04559524 -0.56355721 1.9150001 nan
0.049242862 -0.56355721 1.9150001 -2.4215013e+38
0.05289048 -0.56355721 1.9150001 -2.2217441e+38
0.056538098 -0.56355721 1.9150001 -2.0237121e+38
0.059840005 -0.56032002 1.904 -2.1965138e+38
0.063133337 -0.55737716 1.8940001 -2.3692088e+38
0.066000953 -0.55119717 1.8730001 -2.3559155e+38
0.069197148 -0.54825431 1.863 -2.3559674e+38
0.072355241 -0.54531145 1.853 -2.3425193e+38
0.075475246 -0.54236859 1.8430001 -2.3424678e+38
0.078557149 -0.53942573 1.8330001 -2.3557605e+38
0.08164572 -0.5367772 1.8240001 -2.3557605e+38
0.085120007 -0.5367772 1.8240001 -2.342468e+38
0.088108577 -0.53383434 1.8140001 -2.3292273e+38
0.091059051 -0.53089148 1.8040001 -2.3291747e+38
0.094023816 -0.52824289 1.7950001 -2.3290709e+38
0.096954294 -0.52559429 1.7860001 -2.3024344e+38
0.1003562 -0.52559429 1.7860001 -2.2889344e+38
0.1037581 -0.52559429 1.7860001 -2.2623499e+38
0.10662001 -0.52294576 1.7770001 -2.2356091e+38
0.10944763 -0.52029717 1.7680001 -2.2222643e+38
0.11281525 -0.52029717 1.7680001 -2.208972e+38
0.11559144 -0.51764858 1.7590001 -2.1822834e+38
0.11894191 -0.51764858 1.7590001 -2.1688865e+38
0.12229239 -0.51764858 1.7590001 -2.1555934e+38
0.12500001 -0.51500005 1.7500001 -2.1422492e+38
0.12767334 -0.51235145 1.7410001 -2.1023722e+38
0.13098954 -0.51235145 1.7410001 -2.0624953e+38
0.13361144 -0.50970286 1.7320001 -2.0492548e+38
0.13691048 -0.50970286 1.7320001 -2.0360146e+38
0.13948096 -0.50705433 1.723 -2.035859e+38
0.14276287 -0.50705433 1.723 -2.0225152e+38
0.14604478 -0.50705433 1.723 -2.0491e+38
0.14932668 -0.50705433 1.723 -2.0756328e+38
0.15260859 -0.50705433 1.723 -2.089029e+38
0.15589048 -0.50705433 1.723 -2.102321e+38
0.15917239 -0.50705433 1.723 -2.1022687e+38
0.16245429 -0.50705433 1.723 -2.1154569e+38
0.1657362 -0.50705433 1.723 -2.1154046e+38
0.1690181 -0.50705433 1.723 -2.1286448e+38
0.17230001 -0.50705433 1.723 -2.0887677e+38
0.17558192 -0.50705433 1.723 -2.0620795e+38
0.17886382 -0.50705433 1.723 -2.0488913e+38
0.18214573 -0.50705433 1.723 -2.0223589e+38
0.18542764 -0.50705433 1.723 -2.0223591e+38
0.18783334 -0.50470001 1.715 -2.0356509e+38
0.19110002 -0.50470001 1.715 -2.022514e+38
0.19334668 -0.50205147 1.7060001 -2.0227215e+38
0.19659621 -0.50205147 1.7060001 -2.0226175e+38
0.19890858 -0.49969718 1.6980001 -2.0226179e+38
0.20214286 -0.49969718 1.6980001 -2.0359103e+38
0.20537716 -0.49969718 1.6980001 -2.0492026e+38
0.20762858 -0.49734288 1.6900001 -2.0756831e+38
0.21084763 -0.49734288 1.6900001 -2.0890273e+38
0.21406668 -0.49734288 1.6900001 -2.1156117e+38
0.21728572 -0.49734288 1.6900001 -2.1421967e+38
0.22050478 -0.49734288 1.6900001 -2.1289565e+38
0.22372383 -0.49734288 1.6900001 -2.128905e+38
0.22694287 -0.49734288 1.6900001 -2.1289052e+38
0.23016192 -0.49734288 1.6900001 -2.1421456e+38
0.23338097 -0.49734288 1.6900001 -2.1554896e+38
0.23660001 -0.49734288 1.6900001 -2.1555415e+38
0.24095429 -0.49969718 1.6980001 -2.1555932e+38
0.24418859 -0.49969718 1.6980001 -2.1423011e+38
0.24625716 -0.49734288 1.6900001 -2.1422492e+38
0.24947621 -0.49734288 1.6900001 -2.1423017e+38
0.25269526 -0.49734288 1.6900001 -2.1423543e+38
0.2559143 -0.49734288 1.6900001 -2.1291145e+38
0.25913334 -0.49734288 1.6900001 -2.129167e+38
0.2635943 -0.49969718 1.6980001 -2.1424593e+38
0.26557145 -0.49734288 1.6900001 -2.1558033e+38
0.27006286 -0.49969718 1.6980001 -2.1824921e+38
0.27329716 -0.49969718 1.6980001 -2.2223692e+38
0.27653146 -0.49969718 1.6980001 -2.2756953e+38
0.27976573 -0.49969718 1.6980001 -2.3288654e+38
0.28300002 -0.49969718 1.6980001 -2.3955866e+38
0.28623432 -0.49969718 1.6980001 -2.4358789e+38
0.2908324 -0.50205147 1.7060001 -2.4760662e+38
0.29563335 -0.50470001 1.715 -2.4493766e+38
0.29890001 -0.50470001 1.715 -2.4357205e+38
0.30674765 -0.51235145 1.7410001 -2.4088757e+38
0.31326956 -0.51764858 1.7590001 -2.3822376e+38
0.31824002 -0.52029717 1.7680001 -2.3288591e+38
0.32160765 -0.52029717 1.7680001 -2.2756397e+38
0.32497525 -0.52029717 1.7680001 -2.0753223e+38
0.32834288 -0.52029717 1.7680001 -1.8903382e+38
0.33171049 -0.52029717 1.7680001 nan
0.33337241 -0.51764858 1.7590001 nan
0.33327717 -0.51235145 1.7410001 nan
0.042166669 -0.56283337 1.9250001 nan
0.04559524 -0.55990958 1.9150001 nan
0.049242862 -0.55990958 1.9150001 -2.7556233e+38
0.05289048 -0.55990958 1.9150001 -2.3397591e+38
0.056538098 -0.55990958 1.9150001 -1.9165401e+38
0.060185719 -0.55990958 1.9150001 -2.1434487e+38
0.063133337 -0.55376959 1.8940001 -2.3560209e+38
0.066000953 -0.54762954 1.8730001 -2.3560205e+38
0.069197148 -0.54470575 1.863 -2.3426244e+38
0.072355241 -0.54178196 1.853 -2.3424686e+38
0.075475246 -0.53885812 1.8430001 -2.3424684e+38
0.078557149 -0.53593433 1.8330001 -2.3557088e+38
0.08164572 -0.5333029 1.8240001 -2.3690526e+38
0.085120007 -0.5333029 1.8240001 -2.3691043e+38
0.088108577 -0.53037906 1.8140001 -2.3558635e+38
0.091059051 -0.52745527 1.8040001 -2.3425191e+38
0.094023816 -0.52482384 1.7950001 -2.3291747e+38
0.096954294 -0.52219242 1.7860001 -2.3024861e+38
0.1003562 -0.52219242 1.7860001 -2.2757458e+38
0.10323524 -0.51956099 1.7770001 -2.2624537e+38
0.10662001 -0.51956099 1.7770001 -2.235713e+38
0.10944763 -0.51692957 1.7680001 -2.2222645e+38
0.11224096 -0.51429814 1.7590001 -2.1956278e+38
0.11559144 -0.51429814 1.7590001 -2.1822317e+38
0.11894191 -0.51429814 1.7590001 -2.1688867e+38
0.12166668 -0.51166672 1.7500001 -2.1555419e+38
0.12500001 -0.51166672 1.7500001 -2.1422494e+38
