# .PCD v0.7 - Point Cloud Data file format
VERSION 0.7
FIELDS x y z rgb
SIZE 4 4 4 4
TYPE F F F F
COUNT 1 1 1 1
WIDTH 1098
HEIGHT 1
VIEWPOINT 0 0 0 1 0 0 0
POINTS 1098
DATA ascii
4.2805724 -0.14477986 2.3899026 nan
4.2325559 -0.15158975 2.3764169 nan
4.2325368 -0.15929449 2.3764169 nan
4.2325177 -0.16699922 2.3764169 nan
4.2324991 -0.17470396 2.3764169 nan
4.23248 -0.18240869 2.3764169 nan
4.1854644 -0.18870008 2.3632121 nan
4.2324424 -0.19781816 2.3764169 nan
4.2324233 -0.20552292 2.3764169 nan
4.1854086 -0.21154574 2.3632121 nan
4.2323856 -0.22093239 2.3764169 nan
4.2323666 -0.22863713 2.3764169 nan
4.232348 -0.23634186 2.3764169 -3.1265026e+38
4.2323289 -0.24404663 2.3764169 -1.9558453e+38
4.2323098 -0.25175136 2.3764169 -2.2754811e+38
4.2802858 -0.26172236 2.3899026 -2.5948112e+38
4.2802668 -0.26951852 2.3899026 -2.6614842e+38
4.2322536 -0.27486557 2.3764169 -2.7168407e+38
4.2322345 -0.2825703 2.3764169 -3.3578884e+38
4.2322154 -0.29027507 2.3764169 nan
4.2321968 -0.2979798 2.3764169 nan
4.2321777 -0.30568454 2.3764169 nan
4.2321587 -0.31338927 2.3764169 nan
4.2321401 -0.32109398 2.3764169 nan
4.232121 -0.32879874 2.3764169 nan
4.2330093 0.033324003 2.3687122 nan
4.2329903 0.025619261 2.3687122 nan
4.2329712 0.017914519 2.3687122 nan
4.2329526 0.010209791 2.3687122 nan
4.2329335 0.0025050491 2.3687122 nan
4.2329144 -0.0051996931 2.3687122 nan
4.2328959 -0.012904432 2.3687122 nan
4.2328768 -0.020609166 2.3687122 nan
4.2328582 -0.028313909 2.3687122 nan
4.2808404 -0.035633504 2.3821063 nan
4.2808208 -0.043429673 2.3821063 nan
4.2328014 -0.051428128 2.3687122 nan
4.3296475 -0.11413534 2.3957798 -3.262343e+38
4.3296285 -0.12202484 2.3957798 nan
4.3296089 -0.12991434 2.3957798 nan
4.2805915 -0.13698369 2.3821063 nan
4.2805724 -0.14477986 2.3821063 nan
4.2805533 -0.15257603 2.3821063 nan
4.2325368 -0.15929449 2.3687122 nan
4.2325177 -0.16699922 2.3687122 nan
4.2324991 -0.17470396 2.3687122 nan
4.23248 -0.18240869 2.3687122 nan
4.232461 -0.19011344 2.3687122 nan
4.2324424 -0.19781816 2.3687122 nan
4.2324233 -0.20552292 2.3687122 nan
4.1854086 -0.21154574 2.355597 nan
4.2803812 -0.22274151 2.3821063 nan
4.2323666 -0.22863713 2.3687122 nan
4.232348 -0.23634186 2.3687122 -2.9015178e+38
4.2323289 -0.24404663 2.3687122 -2.1286456e+38
4.2323098 -0.25175136 2.3687122 -2.395323e+38
4.2322912 -0.2594561 2.3687122 -2.6616888e+38
4.2322721 -0.26716083 2.3687122 -2.7150666e+38
4.2322536 -0.27486557 2.3687122 -2.7686582e+38
4.2322345 -0.2825703 2.3687122 -2.996607e+38
4.2322154 -0.29027507 2.3687122 -3.2246541e+38
4.2321968 -0.2979798 2.3687122 nan
4.2321777 -0.30568454 2.3687122 nan
4.2321587 -0.31338927 2.3687122 nan
4.2321401 -0.32109398 2.3687122 nan
4.3790202 -0.37019816 2.4097323 nan
4.2800179 -0.37086874 2.3821063 nan
4.2330093 0.033324003 2.3610075 nan
4.2329903 0.025619261 2.3610075 nan
4.2329712 0.017914519 2.3610075 nan
4.2329526 0.010209791 2.3610075 nan
4.2329335 0.0025050491 2.3610075 nan
4.2329144 -0.0051996931 2.3610075 nan
4.2328959 -0.012904432 2.3610075 nan
4.2328768 -0.020609166 2.3610075 nan
4.2328582 -0.028313909 2.3610075 nan
4.2328391 -0.036018647 2.3610075 nan
4.23282 -0.04372339 2.3610075 nan
4.2328014 -0.051428128 2.3610075 nan
4.3296475 -0.11413534 2.3878903 -3.2093802e+38
4.3296285 -0.12202484 2.3878903 nan
4.3296089 -0.12991434 2.3878903 nan
4.2805915 -0.13698369 2.3743103 nan
4.2805724 -0.14477986 2.3743103 nan
4.2325559 -0.15158975 2.3610075 nan
4.2325368 -0.15929449 2.3610075 nan
4.2325177 -0.16699922 2.3610075 nan
4.2324991 -0.17470396 2.3610075 nan
4.23248 -0.18240869 2.3610075 nan
4.232461 -0.19011344 2.3610075 nan
4.2324424 -0.19781816 2.3610075 nan
4.2324233 -0.20552292 2.3610075 nan
4.2804003 -0.21494538 2.3743103 nan
4.2803812 -0.22274151 2.3743103 nan
4.2803621 -0.23053771 2.3743103 -3.0621218e+38
4.232348 -0.23634186 2.3610075 -2.6874907e+38
4.2323289 -0.24404663 2.3610075 -2.3021198e+38
4.2323098 -0.25175136 2.3610075 -2.5153691e+38
4.2322912 -0.2594561 2.3610075 -2.728306e+38
4.2322721 -0.26716083 2.3610075 -2.7816838e+38
4.2322536 -0.27486557 2.3610075 -2.8216673e+38
4.2322345 -0.2825703 2.3610075 -2.6484553e+38
4.2322154 -0.29027507 2.3610075 -2.4643395e+38
4.2321968 -0.2979798 2.3610075 -3.0505529e+38
4.2321777 -0.30568454 2.3610075 nan
4.2321587 -0.31338927 2.3610075 nan
4.2321401 -0.32109398 2.3610075 nan
4.232121 -0.32879874 2.3610075 nan
4.2321024 -0.33650348 2.3610075 nan
4.2800756 -0.34748021 2.3743103 nan
4.3790398 -0.36221343 2.4017475 nan
4.3790202 -0.37019816 2.4017475 nan
4.2800179 -0.37086874 2.3743103 nan
4.2799988 -0.37866488 2.3743103 nan
4.2319889 -0.38273194 2.3610075 nan
4.2319698 -0.39043668 2.3610075 nan
4.2319512 -0.39814138 2.3610075 nan
4.2330093 0.033324003 2.3533025 nan
4.2329903 0.025619261 2.3533025 nan
4.2329712 0.017914519 2.3533025 nan
4.2329526 0.010209791 2.3533025 nan
4.2329335 0.0025050491 2.3533025 nan
4.2329144 -0.0051996931 2.3533025 nan
4.2328959 -0.012904432 2.3533025 nan
4.2328768 -0.020609166 2.3533025 nan
4.2328582 -0.028313909 2.3533025 nan
4.2328391 -0.036018647 2.3533025 nan
4.23282 -0.04372339 2.3533025 nan
4.2328014 -0.051428128 2.3533025 nan
4.2806296 -0.12139135 2.3665142 -3.2897586e+38
4.2806106 -0.12918752 2.3665142 nan
4.2805915 -0.13698369 2.3665142 nan
4.2805724 -0.14477986 2.3665142 nan
4.2805533 -0.15257603 2.3665142 nan
4.2325368 -0.15929449 2.3533025 nan
4.2325177 -0.16699922 2.3533025 nan
4.2324991 -0.17470396 2.3533025 nan
4.23248 -0.18240869 2.3533025 nan
4.232461 -0.19011344 2.3533025 nan
4.2324424 -0.19781816 2.3533025 nan
4.2804193 -0.20714918 2.3665142 nan
4.2804003 -0.21494538 2.3665142 nan
4.2803812 -0.22274151 2.3665142 -3.1549615e+38
4.2803621 -0.23053771 2.3665142 -2.5947082e+38
4.232348 -0.23634186 2.3533025 -2.5282423e+38
4.2323289 -0.24404663 2.3533025 -2.4618866e+38
4.2323098 -0.25175136 2.3533025 -2.5951747e+38
4.2322912 -0.2594561 2.3533025 -2.7151175e+38
4.2322721 -0.26716083 2.3533025 -2.7419106e+38
4.2322536 -0.27486557 2.3533025 -2.782098e+38
4.2322345 -0.2825703 2.3533025 -2.608726e+38
4.2322154 -0.29027507 2.3533025 -2.4356716e+38
4.2321968 -0.2979798 2.3533025 -2.6100855e+38
4.2321777 -0.30568454 2.3533025 -2.797846e+38
4.2321587 -0.31338927 2.3533025 nan
4.2321401 -0.32109398 2.3533025 nan
4.2801137 -0.3318879 2.3665142 nan
4.2800946 -0.33968404 2.3665142 nan
4.2800756 -0.34748021 2.3665142 nan
4.2800565 -0.35527638 2.3665142 nan
4.3290286 -0.36659938 2.3800006 nan
4.2800179 -0.37086874 2.3665142 nan
4.2799988 -0.37866488 2.3665142 nan
4.2319889 -0.38273194 2.3533025 nan
4.2319698 -0.39043668 2.3533025 nan
4.2319512 -0.39814138 2.3533025 nan
4.2319322 -0.40584612 2.3533025 nan
4.2319131 -0.41355085 2.3533025 nan
4.2330279 0.041028738 2.3455977 nan
4.2330093 0.033324003 2.3455977 nan
4.2329903 0.025619261 2.3455977 nan
4.2329712 0.017914519 2.3455977 nan
4.2329526 0.010209791 2.3455977 nan
4.2329335 0.0025050491 2.3455977 nan
4.2329144 -0.0051996931 2.3455977 nan
4.2328959 -0.012904432 2.3455977 nan
4.2328768 -0.020609166 2.3455977 nan
4.2328582 -0.028313909 2.3455977 nan
4.2328391 -0.036018647 2.3455977 nan
4.23282 -0.04372339 2.3455977 -3.0761972e+38
4.2806106 -0.12918752 2.3587179 -3.2761537e+38
4.2805915 -0.13698369 2.3587179 nan
4.2805724 -0.14477986 2.3587179 nan
4.2325559 -0.15158975 2.3455977 nan
4.2325368 -0.15929449 2.3455977 nan
4.2325177 -0.16699922 2.3455977 nan
4.2324991 -0.17470396 2.3455977 nan
4.23248 -0.18240869 2.3455977 nan
4.232461 -0.19011344 2.3455977 nan
4.2324424 -0.19781816 2.3455977 nan
4.2804193 -0.20714918 2.3587179 nan
4.2804003 -0.21494538 2.3587179 nan
4.2803812 -0.22274151 2.3587179 -2.7666768e+38
4.2803621 -0.23053771 2.3587179 -2.1158212e+38
4.232348 -0.23634186 2.3455977 -2.3687889e+38
4.2323289 -0.24404663 2.3455977 -2.6216027e+38
4.2323098 -0.25175136 2.3455977 -2.6617401e+38
4.2322912 -0.2594561 2.3455977 -2.7018251e+38
4.2322721 -0.26716083 2.3455977 -2.7153774e+38
4.2322536 -0.27486557 2.3455977 -2.7285133e+38
4.2322345 -0.2825703 2.3455977 -2.5685901e+38
4.2322154 -0.29027507 2.3455977 -2.3955834e+38
4.2321968 -0.2979798 2.3455977 -2.1694595e+38
4.2321777 -0.30568454 2.3455977 -1.9456277e+38
4.2321587 -0.31338927 2.3455977 -2.8386587e+38
4.2321401 -0.32109398 2.3455977 nan
4.232121 -0.32879874 2.3455977 nan
4.2321024 -0.33650348 2.3455977 nan
4.2800756 -0.34748021 2.3587179 nan
4.2800565 -0.35527638 2.3587179 nan
4.2800374 -0.36307257 2.3587179 nan
4.2800179 -0.37086874 2.3587179 nan
4.2799988 -0.37866488 2.3587179 nan
4.2799797 -0.38646105 2.3587179 nan
4.2319698 -0.39043668 2.3455977 nan
4.2319512 -0.39814138 2.3455977 nan
4.2319322 -0.40584612 2.3455977 nan
4.2319131 -0.41355085 2.3455977 nan
4.2810311 0.042328171 2.3509216 nan
4.2330093 0.033324003 2.337893 nan
4.2329903 0.025619261 2.337893 nan
4.2329712 0.017914519 2.337893 nan
4.2329526 0.010209791 2.337893 nan
4.2329335 0.0025050491 2.337893 nan
4.2329144 -0.0051996931 2.337893 nan
4.2328959 -0.012904432 2.337893 nan
4.2328768 -0.020609166 2.337893 nan
4.2328582 -0.028313909 2.337893 -3.3434439e+38
4.2328391 -0.036018647 2.337893 -3.1287899e+38
4.23282 -0.04372339 2.337893 -2.9147098e+38
4.2806296 -0.12139135 2.3509216 -2.488472e+38
4.2806106 -0.12918752 2.3509216 -2.8757195e+38
4.2805915 -0.13698369 2.3509216 -3.2630698e+38
4.2805724 -0.14477986 2.3509216 nan
4.2325559 -0.15158975 2.337893 nan
4.2325368 -0.15929449 2.337893 nan
4.2325177 -0.16699922 2.337893 nan
4.2324991 -0.17470396 2.337893 nan
4.23248 -0.18240869 2.337893 nan
4.232461 -0.19011344 2.337893 nan
4.2324424 -0.19781816 2.337893 nan
4.2804193 -0.20714918 2.3509216 -3.368104e+38
4.2804003 -0.21494538 2.3509216 -2.8357857e+38
4.2803812 -0.22274151 2.3509216 -2.5946512e+38
4.2803621 -0.23053771 2.3509216 -2.3414772e+38
4.232348 -0.23634186 2.337893 -2.4751292e+38
4.2323289 -0.24404663 2.337893 -2.6217596e+38
4.2323098 -0.25175136 2.337893 -2.6484478e+38
4.2322912 -0.2594561 2.337893 -2.6885326e+38
4.2322721 -0.26716083 2.337893 -2.6884807e+38
4.2322536 -0.27486557 2.337893 -2.7016691e+38
4.2322345 -0.2825703 2.337893 -2.6217077e+38
4.2322154 -0.29027507 2.337893 -2.5548275e+38
4.1852031 -0.29531312 2.3251359 -2.3955763e+38
4.1851845 -0.30292833 2.3251359 -2.2494742e+38
4.1851659 -0.31054354 2.3251359 -2.5439383e+38
4.2321401 -0.32109398 2.337893 -2.838607e+38
4.232121 -0.32879874 2.337893 nan
4.2321024 -0.33650348 2.337893 nan
4.2800756 -0.34748021 2.3509216 nan
4.2800565 -0.35527638 2.3509216 nan
4.2800374 -0.36307257 2.3509216 nan
4.2800179 -0.37086874 2.3509216 nan
4.2799988 -0.37866488 2.3509216 nan
4.2799797 -0.38646105 2.3509216 nan
4.2319698 -0.39043668 2.337893 nan
4.2319512 -0.39814138 2.337893 nan
4.2319322 -0.40584612 2.337893 nan
4.2319131 -0.41355085 2.337893 nan
4.2810311 0.042328171 2.3431253 nan
4.2330093 0.033324003 2.3301883 nan
4.2329903 0.025619261 2.3301883 nan
4.2329712 0.017914519 2.3301883 nan
4.2329526 0.010209791 2.3301883 nan
4.2329335 0.0025050491 2.3301883 nan
4.2329144 -0.0051996931 2.3301883 nan
4.2328959 -0.012904432 2.3301883 -2.9832538e+38
4.2328768 -0.020609166 2.3301883 -2.6878117e+38
4.2328582 -0.028313909 2.3301883 -2.3834888e+38
4.2328391 -0.036018647 2.3301883 -2.5685917e+38
4.23282 -0.04372339 2.3301883 -2.7420142e+38
4.2326121 -0.12847552 2.3301883 -2.475131e+38
4.2325935 -0.13618027 2.3301883 -2.6894207e+38
4.2325745 -0.143885 2.3301883 -3.0485238e+38
4.2325559 -0.15158975 2.3301883 nan
4.2325368 -0.15929449 2.3301883 nan
4.2325177 -0.16699922 2.3301883 nan
4.2324991 -0.17470396 2.3301883 nan
4.23248 -0.18240869 2.3301883 nan
4.280458 -0.19155687 2.3431253 nan
4.2804389 -0.19935304 2.3431253 nan
4.2804193 -0.20714918 2.3431253 -2.9261329e+38
4.2804003 -0.21494538 2.3431253 -2.2490551e+38
4.2803812 -0.22274151 2.3431253 -2.4081449e+38
4.2803621 -0.23053771 2.3431253 -2.5679654e+38
4.232348 -0.23634186 2.3301883 -2.594967e+38
4.2323289 -0.24404663 2.3301883 -2.6083633e+38
4.1853151 -0.24962181 2.3175206 -2.635e+38
4.2322912 -0.2594561 2.3301883 -2.6617403e+38
4.2322721 -0.26716083 2.3301883 -2.6749807e+38
4.2322536 -0.27486557 2.3301883 -2.6749807e+38
4.2322345 -0.2825703 2.3301883 -2.6882208e+38
4.2322154 -0.29027507 2.3301883 -2.7014078e+38
4.1852031 -0.29531312 2.3175206 -2.6350487e+38
4.1851845 -0.30292833 2.3175206 -2.5551429e+38
4.1851659 -0.31054354 2.3175206 -2.2489566e+38
4.1851473 -0.31815875 2.3175206 -1.9459944e+38
4.1851282 -0.32577395 2.3175206 -3.0393446e+38
4.2321024 -0.33650348 2.3301883 nan
4.2320833 -0.34420821 2.3301883 nan
4.2800565 -0.35527638 2.3431253 nan
4.2800374 -0.36307257 2.3431253 nan
4.2800179 -0.37086874 2.3431253 nan
4.2799988 -0.37866488 2.3431253 nan
4.2799797 -0.38646105 2.3431253 nan
4.2319698 -0.39043668 2.3301883 nan
4.2319512 -0.39814138 2.3301883 nan
4.2319322 -0.40584612 2.3301883 nan
4.2810311 0.042328171 2.3353293 nan
4.2810121 0.034532003 2.3353293 nan
4.2329903 0.025619261 2.3224835 nan
4.2329712 0.017914519 2.3224835 nan
4.2329526 0.010209791 2.3224835 nan
4.2329335 0.0025050491 2.3224835 -3.357145e+38
4.2329144 -0.0051996931 2.3224835 -3.0488208e+38
4.2328959 -0.012904432 2.3224835 -2.7547323e+38
4.2328768 -0.020609166 2.3224835 -2.6750855e+38
4.2328582 -0.028313909 2.3224835 -2.5955909e+38
4.2328391 -0.036018647 2.3224835 -2.6887401e+38
4.23282 -0.04372339 2.3224835 -2.7823067e+38
4.2328014 -0.051428128 2.3224835 -2.8085809e+38
4.2326121 -0.12847552 2.3224835 -2.5685895e+38
4.1855955 -0.13539357 2.3099055 -2.6622093e+38
4.2325745 -0.143885 2.3224835 -2.9685055e+38
4.2325559 -0.15158975 2.3224835 -3.2745908e+38
4.2325368 -0.15929449 2.3224835 -3.3145187e+38
4.2325177 -0.16699922 2.3224835 -3.3413126e+38
4.2324991 -0.17470396 2.3224835 nan
4.23248 -0.18240869 2.3224835 nan
4.280458 -0.19155687 2.3353293 -3.3944292e+38
4.2804389 -0.19935304 2.3353293 -3.234919e+38
4.2804193 -0.20714918 2.3353293 -2.8474148e+38
4.2324047 -0.21322766 2.3224835 -2.4744519e+38
4.2803812 -0.22274151 2.3353293 -2.528088e+38
4.2803621 -0.23053771 2.3353293 -2.5683293e+38
4.1853523 -0.23439139 2.3099055 -2.5949147e+38
4.2323289 -0.24404663 2.3224835 -2.6083114e+38
4.2323098 -0.25175136 2.3224835 -2.6349483e+38
4.2322912 -0.2594561 2.3224835 -2.6616367e+38
4.2322721 -0.26716083 2.3224835 -2.6615846e+38
4.2322536 -0.27486557 2.3224835 -2.6616363e+38
4.2322345 -0.2825703 2.3224835 -2.6749284e+38
4.2322154 -0.29027507 2.3224835 -2.6750326e+38
4.1852031 -0.29531312 2.3099055 -2.6483965e+38
4.1851845 -0.30292833 2.3099055 -2.6218101e+38
4.1851659 -0.31054354 2.3099055 -2.4220605e+38
4.2321401 -0.32109398 2.3224835 -2.2223755e+38
4.232121 -0.32879874 2.3224835 -2.7305044e+38
4.2321024 -0.33650348 2.3224835 -3.2514485e+38
4.2800756 -0.34748021 2.3353293 -3.2908072e+38
4.2800565 -0.35527638 2.3353293 -3.3318778e+38
4.2800374 -0.36307257 2.3353293 nan
4.2800179 -0.37086874 2.3353293 nan
4.2799988 -0.37866488 2.3353293 nan
4.2799797 -0.38646105 2.3353293 nan
4.2319698 -0.39043668 2.3224835 nan
4.2319512 -0.39814138 2.3224835 nan
4.2319322 -0.40584612 2.3224835 nan
4.3300538 0.051544182 2.3405533 nan
4.2810311 0.042328171 2.3275332 nan
4.2330093 0.033324003 2.3147788 -3.0353845e+38
4.2329903 0.025619261 2.3147788 -3.0600976e+38
4.2329712 0.017914519 2.3147788 -3.0745805e+38
4.2329526 0.010209791 2.3147788 -2.56568e+38
4.2329335 0.0025050491 2.3147788 -2.0500841e+38
4.2329144 -0.0051996931 2.3147788 -2.2886693e+38
4.2328959 -0.012904432 2.3147788 -2.5154705e+38
4.2328768 -0.020609166 2.3147788 -2.6621545e+38
4.2328582 -0.028313909 2.3147788 -2.8083185e+38
4.2808404 -0.035633504 2.3275332 -2.8217154e+38
4.23282 -0.04372339 2.3147788 -2.8217162e+38
4.2808018 -0.051225841 2.3275332 -2.7949246e+38
4.1856141 -0.12777835 2.3022904 -2.6750322e+38
4.1855955 -0.13539357 2.3022904 -2.6353643e+38
4.1855764 -0.1430088 2.3022904 -2.8886459e+38
4.2325559 -0.15158975 2.3147788 -3.1412001e+38
4.2325368 -0.15929449 2.3147788 -3.1274415e+38
4.2325177 -0.16699922 2.3147788 -3.1148769e+38
4.2324991 -0.17470396 2.3147788 -3.2341967e+38
4.23248 -0.18240869 2.3147788 -3.3542942e+38
4.232461 -0.19011344 2.3147788 -3.114669e+38
4.2324424 -0.19781816 2.3147788 -2.8618015e+38
4.2804193 -0.20714918 2.3275332 -2.7807991e+38
4.2324047 -0.21322766 2.3147788 -2.7009407e+38
4.2323856 -0.22093239 2.3147788 -2.6347384e+38
4.2323666 -0.22863713 2.3147788 -2.5682254e+38
4.232348 -0.23634186 2.3147788 -2.5948104e+38
4.2323289 -0.24404663 2.3147788 -2.6082069e+38
4.2323098 -0.25175136 2.3147788 -2.634844e+38
4.2322912 -0.2594561 2.3147788 -2.6614284e+38
4.2322721 -0.26716083 2.3147788 -2.6613763e+38
4.2322536 -0.27486557 2.3147788 -2.6481878e+38
4.2322345 -0.2825703 2.3147788 -2.6481876e+38
4.2322154 -0.29027507 2.3147788 -2.6483438e+38
4.1852031 -0.29531312 2.3022904 -2.6616882e+38
4.1851845 -0.30292833 2.3022904 -2.6749279e+38
4.1851659 -0.31054354 2.3022904 -2.5817256e+38
4.1851473 -0.31815875 2.3022904 -2.488477e+38
4.232121 -0.32879874 2.3147788 -2.4353651e+38
4.2321024 -0.33650348 2.3147788 -2.3705658e+38
4.2320833 -0.34420821 2.3147788 -2.3963205e+38
4.2800565 -0.35527638 2.3275332 -2.4110678e+38
4.2800374 -0.36307257 2.3275332 -2.6355841e+38
4.2800179 -0.37086874 2.3275332 -2.8635264e+38
4.2799988 -0.37866488 2.3275332 -3.0896513e+38
4.2799797 -0.38646105 2.3275332 -3.3173374e+38
4.2319698 -0.39043668 2.3147788 nan
4.2319512 -0.39814138 2.3147788 nan
4.2319322 -0.40584612 2.3147788 nan
4.2319131 -0.41355085 2.3147788 nan
4.3300734 0.059433676 2.3326635 nan
4.3300538 0.051544182 2.3326635 nan
4.2810311 0.042328171 2.319737 nan
4.2330093 0.033324003 2.3070741 -2.3662883e+38
4.2329903 0.025619261 2.3070741 -2.6470354e+38
4.2329712 0.017914519 2.3070741 -2.9393094e+38
4.2329526 0.010209791 2.3070741 -2.673671e+38
4.2329335 0.0025050491 2.3070741 -2.4080889e+38
4.2329144 -0.0051996931 2.3070741 -2.5019176e+38
4.2328959 -0.012904432 2.3070741 -2.5955868e+38
4.2328768 -0.020609166 2.3070741 -2.6752886e+38
4.2328582 -0.028313909 2.3070741 -2.7549408e+38
4.2808404 -0.035633504 2.319737 -2.7683392e+38
4.23282 -0.04372339 2.3070741 -2.794872e+38
4.2808018 -0.051225841 2.319737 -2.7948201e+38
4.2807827 -0.059022009 2.319737 -2.7947674e+38
4.2326312 -0.12077078 2.3070741 -2.714909e+38
4.2326121 -0.12847552 2.3070741 -2.7014095e+38
4.1855955 -0.13539357 2.2946749 -2.7009943e+38
4.1855764 -0.1430088 2.2946749 -2.9015727e+38
4.2325559 -0.15158975 2.3070741 -3.1013228e+38
4.2325368 -0.15929449 2.3070741 -3.2346115e+38
4.2325177 -0.16699922 2.3070741 -3.3680537e+38
4.2324991 -0.17470396 2.3070741 nan
4.23248 -0.18240869 2.3070741 nan
4.232461 -0.19011344 2.3070741 -3.1147218e+38
4.2324424 -0.19781816 2.3070741 -2.7686528e+38
4.2324233 -0.20552292 2.3070741 -2.7278389e+38
4.2324047 -0.21322766 2.3070741 -2.6878572e+38
4.2323856 -0.22093239 2.3070741 -2.6213426e+38
4.1853714 -0.22677615 2.2946749 -2.5681216e+38
4.232348 -0.23634186 2.3070741 -2.5681733e+38
4.2323289 -0.24404663 2.3070741 -2.58157e+38
4.2323098 -0.25175136 2.3070741 -2.608155e+38
4.2322912 -0.2594561 2.3070741 -2.6347394e+38
4.2322721 -0.26716083 2.3070741 -2.6214988e+38
4.2322536 -0.27486557 2.3070741 -2.6083104e+38
4.2322345 -0.2825703 2.3070741 -2.6083623e+38
4.2322154 -0.29027507 2.3070741 -2.6217586e+38
4.2321968 -0.2979798 2.3070741 -2.6483434e+38
4.1851845 -0.30292833 2.2946749 -2.6749805e+38
4.1851659 -0.31054354 2.2946749 -2.6216043e+38
4.1851473 -0.31815875 2.2946749 -2.5814676e+38
4.232121 -0.32879874 2.3070741 -2.555298e+38
4.2321024 -0.33650348 2.3070741 -2.5289216e+38
4.2320833 -0.34420821 2.3070741 -2.5693178e+38
4.2320642 -0.35191298 2.3070741 -2.6229054e+38
4.2320457 -0.35961771 2.3070741 -2.675766e+38
4.2800179 -0.37086874 2.319737 -2.7287262e+38
4.2799988 -0.37866488 2.319737 -2.8226015e+38
4.2799797 -0.38646105 2.319737 -2.9028836e+38
4.2799606 -0.39425722 2.319737 -3.1572633e+38
4.2319512 -0.39814138 2.3070741 nan
4.2319322 -0.40584612 2.3070741 nan
4.2319131 -0.41355085 2.3070741 nan
4.2318945 -0.42125562 2.3070741 nan
4.2318754 -0.42896035 2.3070741 nan
4.3301315 0.083102189 2.324774 nan
4.330112 0.07521268 2.324774 nan
4.3300929 0.067323186 2.324774 nan
4.3300734 0.059433676 2.324774 nan
4.3300538 0.051544182 2.324774 nan
4.2810311 0.042328171 2.3119407 -3.340736e+38
4.2810121 0.034532003 2.3119407 -1.7033421e+38
4.2329903 0.025619261 2.2993693 -2.2491016e+38
4.2329712 0.017914519 2.2993693 -2.7941376e+38
4.2329526 0.010209791 2.2993693 -2.7815211e+38
4.2329335 0.0025050491 2.2993693 -2.7680749e+38
4.2329144 -0.0051996931 2.2993693 -2.7286672e+38
4.2328959 -0.012904432 2.2993693 -2.675394e+38
4.2328768 -0.020609166 2.2993693 -2.6885305e+38
4.2808595 -0.027837336 2.3119407 -2.68848e+38
4.2808404 -0.035633504 2.3119407 -2.7283583e+38
4.2808208 -0.043429673 2.3119407 -2.7549427e+38
4.2808018 -0.051225841 2.3119407 -2.7814232e+38
4.2807827 -0.059022009 2.3119407 -2.8080592e+38
4.2807636 -0.066818178 2.3119407 -2.7682337e+38
4.2326503 -0.11306604 2.2993693 -2.7283048e+38
4.2326312 -0.12077078 2.2993693 -2.728149e+38
4.2326121 -0.12847552 2.2993693 -2.7412336e+38
4.2325935 -0.13618027 2.2993693 -2.7548396e+38
4.2325745 -0.143885 2.2993693 -2.9019396e+38
4.2325559 -0.15158975 2.2993693 -3.04852e+38
4.2325368 -0.15929449 2.2993693 -3.3415233e+38
4.2325177 -0.16699922 2.2993693 nan
4.2324991 -0.17470396 2.2993693 nan
4.23248 -0.18240869 2.2993693 nan
4.232461 -0.19011344 2.2993693 -3.1275987e+38
4.2324424 -0.19781816 2.2993693 -2.6616902e+38
4.2324233 -0.20552292 2.2993693 -2.6739923e+38
4.2324047 -0.21322766 2.2993693 -2.6742521e+38
4.2323856 -0.22093239 2.2993693 -2.6211869e+38
4.1853714 -0.22677615 2.2870598 -2.5547772e+38
4.232348 -0.23634186 2.2993693 -2.554777e+38
4.2323289 -0.24404663 2.2993693 -2.541589e+38
4.2803049 -0.25392619 2.3119407 -2.5681218e+38
4.2802858 -0.26172236 2.3119407 -2.5947583e+38
4.2802668 -0.26951852 2.3119407 -2.5814658e+38
4.2322536 -0.27486557 2.2993693 -2.5549853e+38
4.2322345 -0.2825703 2.2993693 -2.5816739e+38
4.2322154 -0.29027507 2.2993693 -2.5950183e+38
4.2321968 -0.2979798 2.2993693 -2.6348434e+38
4.1851845 -0.30292833 2.2870598 -2.6615324e+38
4.1851659 -0.31054354 2.2870598 -2.6615328e+38
4.1851473 -0.31815875 2.2870598 -2.6616369e+38
4.232121 -0.32879874 2.2993693 -2.675345e+38
4.2321024 -0.33650348 2.2993693 -2.6887413e+38
4.2320833 -0.34420821 2.2993693 -2.7556704e+38
4.2320642 -0.35191298 2.2993693 -2.8221328e+38
4.2320457 -0.35961771 2.2993693 -2.7158475e+38
4.2800179 -0.37086874 2.3119407 -2.5958022e+38
4.2799988 -0.37866488 2.3119407 -2.5425301e+38
4.2799797 -0.38646105 2.3119407 -2.4897792e+38
4.2799606 -0.39425722 2.3119407 -2.5163146e+38
4.2319512 -0.39814138 2.2993693 -2.5455002e+38
4.2319322 -0.40584612 2.2993693 -3.332294e+38
4.2319131 -0.41355085 2.2993693 nan
4.2318945 -0.42125562 2.2993693 nan
4.2318754 -0.42896035 2.2993693 nan
4.3301506 0.090991683 2.3168845 nan
4.3301315 0.083102189 2.3168845 nan
4.330112 0.07521268 2.3168845 nan
4.3300929 0.067323186 2.3168845 nan
4.3300734 0.059433676 2.3168845 nan
4.3300538 0.051544182 2.3168845 nan
4.2810311 0.042328171 2.3041444 nan
4.2810121 0.034532003 2.3041444 -2.7119521e+38
4.280993 0.026735835 2.3041444 -2.7004716e+38
4.2329712 0.017914519 2.2916646 -2.6749793e+38
4.2329526 0.010209791 2.2916646 -2.7018772e+38
4.2329335 0.0025050491 2.2916646 -2.7286173e+38
4.2329144 -0.0051996931 2.2916646 -2.7020325e+38
4.2328959 -0.012904432 2.2916646 -2.6886881e+38
4.2328768 -0.020609166 2.2916646 -2.6752399e+38
4.2328582 -0.028313909 2.2916646 -2.6618961e+38
4.2808404 -0.035633504 2.3041444 -2.6884291e+38
4.2808208 -0.043429673 2.3041444 -2.7150133e+38
4.2808018 -0.051225841 2.3041444 -2.7282532e+38
4.2807827 -0.059022009 2.3041444 -2.7548897e+38
4.2807636 -0.066818178 2.3041444 -2.7283569e+38
4.2807446 -0.074614346 2.3041444 -2.7018244e+38
4.2806492 -0.11359518 2.3041444 -2.7149084e+38
4.2806296 -0.12139135 2.3041444 -2.7281486e+38
4.2326121 -0.12847552 2.2916646 -2.7547327e+38
4.2325935 -0.13618027 2.2916646 -2.7815814e+38
4.2325745 -0.143885 2.2916646 -2.8883393e+38
4.2325559 -0.15158975 2.2916646 -2.9955097e+38
4.2325368 -0.15929449 2.2916646 -3.3150968e+38
4.2325177 -0.16699922 2.2916646 nan
4.2804961 -0.17596453 2.3041444 nan
4.23248 -0.18240869 2.2916646 nan
4.232461 -0.19011344 2.2916646 -3.1545986e+38
4.2324424 -0.19781816 2.2916646 -2.7544234e+38
4.2324233 -0.20552292 2.2916646 -2.687386e+38
4.2324047 -0.21322766 2.2916646 -2.620978e+38
4.2323856 -0.22093239 2.2916646 -2.5679658e+38
4.1853714 -0.22677615 2.2794447 -2.5281926e+38
4.232348 -0.23634186 2.2916646 -2.5149519e+38
4.2323289 -0.24404663 2.2916646 -2.515004e+38
4.2803049 -0.25392619 2.3041444 -2.5415366e+38
4.2802858 -0.26172236 2.3041444 -2.5680693e+38
4.2322721 -0.26716083 2.2916646 -2.5548808e+38
4.2322536 -0.27486557 2.2916646 -2.541589e+38
4.2802281 -0.28511086 2.3041444 -2.5549853e+38
4.2322154 -0.29027507 2.2916646 -2.5683818e+38
4.2321968 -0.2979798 2.2916646 -2.5949147e+38
4.2321777 -0.30568454 2.2916646 -2.6215515e+38
4.1851659 -0.31054354 2.2794447 -2.6216558e+38
4.2321401 -0.32109398 2.2916646 -2.6351566e+38
4.232121 -0.32879874 2.2916646 -2.6352612e+38
4.2321024 -0.33650348 2.2916646 -2.6487616e+38
4.2320833 -0.34420821 2.2916646 -2.7021907e+38
4.2320642 -0.35191298 2.2916646 -2.7686511e+38
4.2800374 -0.36307257 2.3041444 -2.7154291e+38
4.2800179 -0.37086874 2.3041444 -2.6752953e+38
4.2799988 -0.37866488 2.3041444 -2.6621095e+38
4.2799797 -0.38646105 2.3041444 -2.6486582e+38
4.2799606 -0.39425722 2.3041444 -2.6355182e+38
4.2319512 -0.39814138 2.2916646 -2.6220787e+38
4.2319322 -0.40584612 2.2916646 -2.8238077e+38
4.2319131 -0.41355085 2.2916646 -3.0258966e+38
4.2318945 -0.42125562 2.2916646 nan
4.3301506 0.090991683 2.308995 nan
4.3301315 0.083102189 2.308995 nan
4.330112 0.07521268 2.308995 nan
4.3300929 0.067323186 2.308995 nan
4.3300734 0.059433676 2.308995 nan
4.3300538 0.051544182 2.308995 nan
4.2810311 0.042328171 2.2963483 nan
4.2810121 0.034532003 2.2963483 nan
4.2329903 0.025619261 2.2839599 -3.1393243e+38
4.2809739 0.018939666 2.2963483 -2.5551408e+38
4.2329526 0.010209791 2.2839599 -2.6222793e+38
4.2329335 0.0025050491 2.2839599 -2.6753961e+38
4.2329144 -0.0051996931 2.2839599 -2.6886362e+38
4.2328959 -0.012904432 2.2839599 -2.6885324e+38
4.2328768 -0.020609166 2.2839599 -2.661792e+38
4.2328582 -0.028313909 2.2839599 -2.6352077e+38
4.2328391 -0.036018647 2.2839599 -2.6617405e+38
4.23282 -0.04372339 2.2839599 -2.6750324e+38
4.2808018 -0.051225841 2.2963483 -2.6883241e+38
4.2807827 -0.059022009 2.2963483 -2.688376e+38
4.2807636 -0.066818178 2.2963483 -2.6884279e+38
4.2807446 -0.074614346 2.2963483 -2.6884279e+38
4.2807255 -0.082410514 2.2963483 -2.688376e+38
4.2806492 -0.11359518 2.2963483 -2.7148038e+38
4.2806296 -0.12139135 2.2963483 -2.7148557e+38
4.2326121 -0.12847552 2.2839599 -2.7546808e+38
4.2325935 -0.13618027 2.2839599 -2.7946633e+38
4.2325745 -0.143885 2.2839599 -2.8609708e+38
4.2325559 -0.15158975 2.2839599 -2.9285789e+38
4.2805343 -0.1603722 2.2963483 -3.2891365e+38
4.2325177 -0.16699922 2.2839599 nan
4.2804961 -0.17596453 2.2963483 nan
4.23248 -0.18240869 2.2839599 nan
4.232461 -0.19011344 2.2839599 -3.1944219e+38
4.2324424 -0.19781816 2.2839599 -2.8342791e+38
4.2324233 -0.20552292 2.2839599 -2.7000534e+38
4.2324047 -0.21322766 2.2839599 -2.5542563e+38
4.2323856 -0.22093239 2.2839599 -2.5279861e+38
4.1393757 -0.22495481 2.2599568 -2.4882645e+38
4.1853523 -0.23439139 2.2718294 -2.4884198e+38
4.2323289 -0.24404663 2.2839599 -2.4883679e+38
4.2803049 -0.25392619 2.2963483 -2.5149003e+38
4.2802858 -0.26172236 2.2963483 -2.5282445e+38
4.2802668 -0.26951852 2.2963483 -2.5282965e+38
4.2802477 -0.27731469 2.2963483 -2.5150044e+38
4.2802281 -0.28511086 2.2963483 -2.5282969e+38
4.2802091 -0.29290703 2.2963483 -2.5284009e+38
4.28019 -0.3007032 2.2963483 -2.554934e+38
4.2321777 -0.30568454 2.2839599 -2.5816228e+38
4.2321587 -0.31338927 2.2839599 -2.5949155e+38
4.2321401 -0.32109398 2.2839599 -2.595072e+38
4.232121 -0.32879874 2.2839599 -2.595125e+38
4.2321024 -0.33650348 2.2839599 -2.5954371e+38
4.2320833 -0.34420821 2.2839599 -2.6488665e+38
4.2320642 -0.35191298 2.2839599 -2.7019831e+38
4.2800374 -0.36307257 2.2963483 -2.7284634e+38
4.2800179 -0.37086874 2.2963483 -2.7418611e+38
4.2799988 -0.37866488 2.2963483 -2.7818434e+38
4.2799797 -0.38646105 2.2963483 -2.8083225e+38
4.2799606 -0.39425722 2.2963483 -2.7550479e+38
4.2799416 -0.40205342 2.2963483 -2.6882259e+38
4.2799225 -0.40984955 2.2963483 -2.3150064e+38
4.2799034 -0.41764572 2.2963483 -1.9324429e+38
4.2798843 -0.42544189 2.2963483 -2.9581341e+38
4.3301506 0.090991683 2.3011055 nan
4.3301315 0.083102189 2.3011055 nan
4.330112 0.07521268 2.3011055 nan
4.3300929 0.067323186 2.3011055 nan
4.3300734 0.059433676 2.3011055 nan
4.3300538 0.051544182 2.3011055 nan
4.2330279 0.041028738 2.2762551 nan
4.2330093 0.033324003 2.2762551 nan
4.2329903 0.025619261 2.2762551 -3.1142453e+38
4.2809739 0.018939666 2.2885523 -2.5815696e+38
4.2329526 0.010209791 2.2762551 -2.6353117e+38
4.2329335 0.0025050491 2.2762551 -2.6885845e+38
4.2329144 -0.0051996931 2.2762551 -2.675188e+38
4.2328959 -0.012904432 2.2762551 -2.6750843e+38
4.2328768 -0.020609166 2.2762551 -2.6484478e+38
4.2328582 -0.028313909 2.2762551 -2.6351038e+38
4.2328391 -0.036018647 2.2762551 -2.6483961e+38
4.23282 -0.04372339 2.2762551 -2.6616878e+38
4.2808018 -0.051225841 2.2885523 -2.6616872e+38
4.2807827 -0.059022009 2.2885523 -2.6617912e+38
4.2807636 -0.066818178 2.2885523 -2.6750835e+38
4.2807446 -0.074614346 2.2885523 -2.6750314e+38
4.2807255 -0.082410514 2.2885523 -2.6883235e+38
4.2807064 -0.090206683 2.2885523 -2.6883752e+38
4.232688 -0.097656563 2.2762551 -2.7017192e+38
4.2806683 -0.10579902 2.2885523 -2.7150111e+38
4.2806492 -0.11359518 2.2885523 -2.7149068e+38
4.2806296 -0.12139135 2.2885523 -2.7281995e+38
4.2806106 -0.12918752 2.2885523 -2.7547845e+38
4.2805915 -0.13698369 2.2885523 -2.7813165e+38
4.2805724 -0.14477986 2.2885523 -2.7280946e+38
4.2325559 -0.15158975 2.2762551 -2.675089e+38
4.2805343 -0.1603722 2.2885523 -3.0623382e+38
4.2325177 -0.16699922 2.2762551 nan
4.2804961 -0.17596453 2.2885523 nan
4.23248 -0.18240869 2.2762551 nan
4.232461 -0.19011344 2.2762551 -3.2348164e+38
4.2324424 -0.19781816 2.2762551 -2.874362e+38
4.2324233 -0.20552292 2.2762551 -2.8073242e+38
4.2324047 -0.21322766 2.2762551 -2.7401921e+38
4.2323856 -0.22093239 2.2762551 -2.6479809e+38
4.1853714 -0.22677615 2.264214 -2.568019e+38
4.232348 -0.23634186 2.2762551 -2.5549338e+38
4.280324 -0.24613002 2.2885523 -2.5548297e+38
4.2803049 -0.25392619 2.2885523 -2.541537e+38
4.2802858 -0.26172236 2.2885523 -2.5282447e+38
4.2802668 -0.26951852 2.2885523 -2.5149525e+38
4.2802477 -0.27731469 2.2885523 -2.5016604e+38
4.2802281 -0.28511086 2.2885523 -2.5017123e+38
4.2802091 -0.29290703 2.2885523 -2.5017644e+38
4.28019 -0.3007032 2.2885523 -2.5150569e+38
4.2321777 -0.30568454 2.2762551 -2.5284015e+38
4.2321587 -0.31338927 2.2762551 -2.5417461e+38
4.2321401 -0.32109398 2.2762551 -2.5551435e+38
4.232121 -0.32879874 2.2762551 -2.5818329e+38
4.2321024 -0.33650348 2.2762551 -2.5953856e+38
4.2320833 -0.34420821 2.2762551 -2.6220227e+38
4.2320642 -0.35191298 2.2762551 -2.6620034e+38
4.2800374 -0.36307257 2.2885523 -2.6752957e+38
4.2800179 -0.37086874 2.2885523 -2.7020885e+38
4.2799988 -0.37866488 2.2885523 -2.7286737e+38
4.2799797 -0.38646105 2.2885523 -2.7553623e+38
4.2799606 -0.39425722 2.2885523 -2.7418625e+38
4.2799416 -0.40205342 2.2885523 -2.7416522e+38
4.2799225 -0.40984955 2.2885523 -2.5284017e+38
4.2799034 -0.41764572 2.2885523 -2.3150553e+38
4.3301506 0.090991683 2.293216 nan
4.3301315 0.083102189 2.293216 nan
4.330112 0.07521268 2.293216 nan
4.3300929 0.067323186 2.293216 nan
4.3300734 0.059433676 2.293216 nan
4.2810507 0.050124332 2.280756 nan
4.2330279 0.041028738 2.2685504 nan
4.2330093 0.033324003 2.2685504 nan
4.2329903 0.025619261 2.2685504 -3.0866235e+38
4.2809739 0.018939666 2.280756 -2.59507e+38
4.2809548 0.011143498 2.280756 -2.6487079e+38
4.2329335 0.0025050491 2.2685504 -2.7017208e+38
4.2329144 -0.0051996931 2.2685504 -2.675032e+38
4.2808976 -0.012245003 2.280756 -2.6483953e+38
4.2328768 -0.020609166 2.2685504 -2.6483434e+38
4.2328582 -0.028313909 2.2685504 -2.6349992e+38
4.2328391 -0.036018647 2.2685504 -2.6349992e+38
4.2808208 -0.043429673 2.280756 -2.6349988e+38
4.2808018 -0.051225841 2.280756 -2.6349467e+38
4.2807827 -0.059022009 2.280756 -2.6350505e+38
4.2807636 -0.066818178 2.280756 -2.6483947e+38
4.2807446 -0.074614346 2.280756 -2.661687e+38
4.2807255 -0.082410514 2.280756 -2.6749795e+38
4.2807064 -0.090206683 2.280756 -2.6883754e+38
4.2806873 -0.098002851 2.280756 -2.7017713e+38
4.2806683 -0.10579902 2.280756 -2.701719e+38
4.2806492 -0.11359518 2.280756 -2.7281995e+38
4.2806296 -0.12139135 2.280756 -2.741492e+38
4.2806106 -0.12918752 2.280756 -2.7548362e+38
4.2805915 -0.13698369 2.280756 -2.7680246e+38
4.2805724 -0.14477986 2.280756 -2.5949136e+38
4.2805533 -0.15257603 2.280756 -2.4226379e+38
4.2805343 -0.1603722 2.280756 -2.8357938e+38
4.2805152 -0.16816837 2.280756 -3.2356544e+38
4.2804961 -0.17596453 2.280756 nan
4.280477 -0.1837607 2.280756 nan
4.232461 -0.19011344 2.2685504 -3.2750587e+38
4.2324424 -0.19781816 2.2685504 -2.9153345e+38
4.2804193 -0.20714918 2.280756 -2.9147096e+38
4.2324047 -0.21322766 2.2685504 -2.9146062e+38
4.2323856 -0.22093239 2.2685504 -2.7823069e+38
4.2323666 -0.22863713 2.2685504 -2.6352598e+38
4.232348 -0.23634186 2.2685504 -2.6218107e+38
4.329319 -0.24825686 2.293216 -2.6082067e+38
4.2803049 -0.25392619 2.280756 -2.5681739e+38
4.2802858 -0.26172236 2.280756 -2.528245e+38
4.2322721 -0.26716083 2.2685504 -2.5149007e+38
4.2322536 -0.27486557 2.2685504 -2.4883679e+38
4.2802281 -0.28511086 2.280756 -2.4883679e+38
4.2802091 -0.29290703 2.280756 -2.4750758e+38
4.2321968 -0.2979798 2.2685504 -2.475076e+38
4.2321777 -0.30568454 2.2685504 -2.4751803e+38
4.2321587 -0.31338927 2.2685504 -2.5017653e+38
4.2321401 -0.32109398 2.2685504 -2.5151622e+38
4.232121 -0.32879874 2.2685504 -2.5550398e+38
4.2321024 -0.33650348 2.2685504 -2.5951252e+38
4.2320833 -0.34420821 2.2685504 -2.6084183e+38
4.2320642 -0.35191298 2.2685504 -2.608574e+38
4.2800374 -0.36307257 2.280756 -2.6352624e+38
4.2800179 -0.37086874 2.280756 -2.6487628e+38
4.2799988 -0.37866488 2.280756 -2.6753999e+38
4.2799797 -0.38646105 2.280756 -2.7020885e+38
4.2799606 -0.39425722 2.280756 -2.7418619e+38
4.2799416 -0.40205342 2.280756 -2.7817373e+38
4.2319322 -0.40584612 2.2685504 -2.7419112e+38
4.2319131 -0.41355085 2.2685504 -2.7014648e+38
4.281127 0.081309013 2.2729597 nan
4.330112 0.07521268 2.2853265 nan
4.3300929 0.067323186 2.2853265 nan
4.2810698 0.057920523 2.2729597 nan
4.2810507 0.050124332 2.2729597 nan
4.2330279 0.041028738 2.2608457 nan
4.2330093 0.033324003 2.2608457 -3.0757266e+38
4.2329903 0.025619261 2.2608457 -2.874779e+38
4.2809739 0.018939666 2.2729597 -2.6748762e+38
4.2329526 0.010209791 2.2608457 -2.6883249e+38
4.2329335 0.0025050491 2.2608457 -2.7015648e+38
4.2329144 -0.0051996931 2.2608457 -2.6749277e+38
4.2328959 -0.012904432 2.2608457 -2.6481872e+38
4.2328768 -0.020609166 2.2608457 -2.6348947e+38
4.2328582 -0.028313909 2.2608457 -2.6348426e+38
4.2328391 -0.036018647 2.2608457 -2.621602e+38
4.23282 -0.04372339 2.2608457 -2.6216022e+38
4.2808018 -0.051225841 2.2729597 -2.6216542e+38
4.2807827 -0.059022009 2.2729597 -2.6349982e+38
4.2807636 -0.066818178 2.2729597 -2.6350499e+38
4.2807446 -0.074614346 2.2729597 -2.6483426e+38
4.2807255 -0.082410514 2.2729597 -2.6616872e+38
4.2807064 -0.090206683 2.2729597 -2.6884273e+38
4.2806873 -0.098002851 2.2729597 -2.7149597e+38
4.2806683 -0.10579902 2.2729597 -2.7415443e+38
4.2806492 -0.11359518 2.2729597 -2.7547845e+38
4.2806296 -0.12139135 2.2729597 -2.7680765e+38
4.2806106 -0.12918752 2.2729597 -2.7681802e+38
4.2805915 -0.13698369 2.2729597 -2.7548887e+38
4.2805724 -0.14477986 2.2729597 -2.6483436e+38
4.2805533 -0.15257603 2.2729597 -2.55504e+38
4.2805343 -0.1603722 2.2729597 -2.7021396e+38
4.2805152 -0.16816837 2.2729597 -2.8625344e+38
4.2804961 -0.17596453 2.2729597 -3.1559038e+38
4.280477 -0.1837607 2.2729597 nan
4.232461 -0.19011344 2.2608457 -3.2220991e+38
4.2324424 -0.19781816 2.2608457 -3.0091646e+38
4.2324233 -0.20552292 2.2608457 -3.0754199e+38
4.2324047 -0.21322766 2.2608457 -3.1415146e+38
4.2323856 -0.22093239 2.2608457 -2.8886983e+38
4.2323666 -0.22863713 2.2608457 -2.6487087e+38
4.232348 -0.23634186 2.2608457 -2.6349473e+38
4.329319 -0.24825686 2.2853265 -2.6348434e+38
4.2803049 -0.25392619 2.2729597 -2.5815185e+38
4.2802858 -0.26172236 2.2729597 -2.5281934e+38
4.2802668 -0.26951852 2.2729597 -2.5016604e+38
4.2322536 -0.27486557 2.2608457 -2.4750756e+38
4.2802281 -0.28511086 2.2729597 -2.4617831e+38
4.2802091 -0.29290703 2.2729597 -2.4484391e+38
4.2321968 -0.2979798 2.2608457 -2.4617833e+38
4.2321777 -0.30568454 2.2608457 -2.4618876e+38
4.2321587 -0.31338927 2.2608457 -2.4751803e+38
4.2321401 -0.32109398 2.2608457 -2.5017655e+38
4.232121 -0.32879874 2.2608457 -2.5284545e+38
4.2321024 -0.33650348 2.2608457 -2.5551956e+38
4.2320833 -0.34420821 2.2608457 -2.5684368e+38
4.2800565 -0.35527638 2.2729597 -2.5818331e+38
4.2800374 -0.36307257 2.2729597 -2.5953331e+38
4.2800179 -0.37086874 2.2729597 -2.5955931e+38
4.2799988 -0.37866488 2.2729597 -2.6354701e+38
4.3289704 -0.39026788 2.2853265 -2.6755032e+38
4.2799606 -0.39425722 2.2729597 -2.7019843e+38
4.2799416 -0.40205342 2.2729597 -2.7420171e+38
4.2799225 -0.40984955 2.2729597 -2.7420173e+38
4.281127 0.081309013 2.2651634 nan
4.2811079 0.07351286 2.2651634 nan
4.2810888 0.065716676 2.2651634 nan
4.2810698 0.057920523 2.2651634 nan
4.2810507 0.050124332 2.2651634 nan
4.2330279 0.041028738 2.2531407 -3.1277035e+38
4.2330093 0.033324003 2.2531407 -2.5696324e+38
4.2329903 0.025619261 2.2531407 -2.6619484e+38
4.2809739 0.018939666 2.2651634 -2.7549421e+38
4.2809548 0.011143498 2.2651634 -2.7282015e+38
4.2329335 0.0025050491 2.2531407 -2.6883243e+38
4.2329144 -0.0051996931 2.2531407 -2.6749277e+38
4.2328959 -0.012904432 2.2531407 -2.6482391e+38
4.2328768 -0.020609166 2.2531407 -2.6347909e+38
4.2328582 -0.028313909 2.2531407 -2.6215505e+38
4.2328391 -0.036018647 2.2531407 -2.6214467e+38
4.23282 -0.04372339 2.2531407 -2.6083102e+38
4.2808018 -0.051225841 2.2651634 -2.6216546e+38
4.2807827 -0.059022009 2.2651634 -2.6216546e+38
4.2807636 -0.066818178 2.2651634 -2.6349467e+38
4.2327447 -0.074542344 2.2531407 -2.6349988e+38
4.2807255 -0.082410514 2.2651634 -2.6615835e+38
4.2807064 -0.090206683 2.2651634 -2.6749795e+38
4.232688 -0.097656563 2.2531407 -2.7280965e+38
4.2806683 -0.10579902 2.2651634 -2.7813175e+38
4.2806492 -0.11359518 2.2651634 -2.7946619e+38
4.2806296 -0.12139135 2.2651634 -2.7947658e+38
4.2806106 -0.12918752 2.2651634 -2.768337e+38
4.2805915 -0.13698369 2.2651634 -2.741649e+38
4.2805724 -0.14477986 2.2651634 -2.7150129e+38
4.2805533 -0.15257603 2.2651634 -2.6749807e+38
4.2805343 -0.1603722 2.2651634 -2.5817794e+38
4.2805152 -0.16816837 2.2651634 -2.4896731e+38
4.2804961 -0.17596453 2.2651634 -2.8893294e+38
4.23248 -0.18240869 2.2531407 -3.2752193e+38
4.232461 -0.19011344 2.2531407 -3.1817044e+38
4.2324424 -0.19781816 2.2531407 -3.0894398e+38
4.2324233 -0.20552292 2.2531407 -3.2230398e+38
4.2324047 -0.21322766 2.2531407 -3.3552332e+38
4.2323856 -0.22093239 2.2531407 -3.0087486e+38
4.1853714 -0.22677615 2.2413683 -2.6622099e+38
4.232348 -0.23634186 2.2531407 -2.6610627e+38
4.280324 -0.24613002 2.2651634 -2.6480306e+38
4.2803049 -0.25392619 2.2651634 -2.5815698e+38
4.2322912 -0.2594561 2.2531407 -2.5150561e+38
4.2322721 -0.26716083 2.2531407 -2.4884713e+38
4.2322536 -0.27486557 2.2531407 -2.4484907e+38
4.2802281 -0.28511086 2.2651634 -2.4351465e+38
4.2802091 -0.29290703 2.2651634 -2.4218542e+38
4.2321968 -0.2979798 2.2531407 -2.4351467e+38
4.2321777 -0.30568454 2.2531407 -2.4484911e+38
4.2321587 -0.31338927 2.2531407 -2.4617838e+38
4.2321401 -0.32109398 2.2531407 -2.4751286e+38
4.232121 -0.32879874 2.2531407 -2.5017657e+38
4.2321024 -0.33650348 2.2531407 -2.5151105e+38
4.2320833 -0.34420821 2.2531407 -2.5416437e+38
4.2800565 -0.35527638 2.2651634 -2.5551439e+38
4.2800374 -0.36307257 2.2651634 -2.5552479e+38
4.2800179 -0.37086874 2.2651634 -2.5421116e+38
4.2799988 -0.37866488 2.2651634 -2.5952812e+38
4.2799797 -0.38646105 2.2651634 -2.6353661e+38
4.2799606 -0.39425722 2.2651634 -2.6751914e+38
4.2319512 -0.39814138 2.2531407 -2.7018802e+38
4.2319322 -0.40584612 2.2531407 -2.7418094e+38
4.2811079 0.07351286 2.2573674 nan
4.2810888 0.065716676 2.2573674 nan
4.2810698 0.057920523 2.2573674 nan
4.2810507 0.050124332 2.2573674 -3.0624921e+38
4.2330279 0.041028738 2.245436 -2.9019905e+38
4.2330093 0.033324003 2.245436 -2.7423791e+38
4.2329903 0.025619261 2.245436 -2.7420672e+38
4.2809739 0.018939666 2.2573674 -2.742014e+38
4.2329526 0.010209791 2.245436 -2.7018242e+38
4.2329335 0.0025050491 2.245436 -2.6751356e+38
4.2329144 -0.0051996931 2.245436 -2.6617393e+38
4.2808976 -0.012245003 2.2573674 -2.648343e+38
4.2328768 -0.020609166 2.245436 -2.6217582e+38
4.2328582 -0.028313909 2.245436 -2.6084142e+38
4.2328391 -0.036018647 2.245436 -2.5952258e+38
4.23282 -0.04372339 2.245436 -2.5951741e+38
4.2328014 -0.051428128 2.245436 -2.6083627e+38
4.2327824 -0.059132867 2.245436 -2.6214992e+38
4.2327633 -0.066837609 2.245436 -2.6216031e+38
4.2327447 -0.074542344 2.245436 -2.6216031e+38
4.2327256 -0.082247086 2.245436 -2.621655e+38
4.232707 -0.089951828 2.245436 -2.634999e+38
4.232688 -0.097656563 2.245436 -2.6748756e+38
4.2806683 -0.10579902 2.2573674 -2.7280969e+38
4.2806492 -0.11359518 2.2573674 -2.7282009e+38
4.2806296 -0.12139135 2.2573674 -2.7283571e+38
4.2806106 -0.12918752 2.2573674 -2.7018247e+38
4.2805915 -0.13698369 2.2573674 -2.6752401e+38
4.2805724 -0.14477986 2.2573674 -2.6618959e+38
4.2805533 -0.15257603 2.2573674 -2.6353103e+38
4.2325368 -0.15929449 2.245436 -2.6218091e+38
4.2325177 -0.16699922 2.245436 -2.6087302e+38
4.2324991 -0.17470396 2.245436 -2.9156524e+38
4.23248 -0.18240869 2.245436 -3.2351346e+38
4.232461 -0.19011344 2.245436 -3.1958808e+38
4.2324424 -0.19781816 2.245436 -3.1565782e+38
4.2324233 -0.20552292 2.245436 -3.3031598e+38
4.2324047 -0.21322766 2.245436 nan
4.2323856 -0.22093239 2.245436 -3.0488895e+38
4.1853714 -0.22677615 2.2337532 -2.6492823e+38
4.232348 -0.23634186 2.245436 -2.6482876e+38
4.2323289 -0.24404663 2.245436 -2.6615292e+38
4.2323098 -0.25175136 2.245436 -2.6082574e+38
4.2322912 -0.2594561 2.245436 -2.5549843e+38
4.2322721 -0.26716083 2.245436 -2.5150551e+38
4.2322536 -0.27486557 2.245436 -2.4749188e+38
4.2322345 -0.2825703 2.245436 -2.4617306e+38
4.2322154 -0.29027507 2.245436 -2.4483866e+38
4.2321968 -0.2979798 2.245436 -2.4484387e+38
4.2321777 -0.30568454 2.245436 -2.4484389e+38
4.2321587 -0.31338927 2.245436 -2.4484909e+38
4.2321401 -0.32109398 2.245436 -2.4617838e+38
4.232121 -0.32879874 2.245436 -2.4751286e+38
4.2321024 -0.33650348 2.245436 -2.4884213e+38
4.2320833 -0.34420821 2.245436 -2.5017659e+38
4.2800565 -0.35527638 2.2573674 -2.5284547e+38
4.2800374 -0.36307257 2.2573674 -2.5285587e+38
4.2800179 -0.37086874 2.2573674 -2.5287149e+38
4.2799988 -0.37866488 2.2573674 -2.5686441e+38
4.2799797 -0.38646105 2.2573674 -2.6087809e+38
4.2319698 -0.39043668 2.245436 -2.6485543e+38
4.2319512 -0.39814138 2.245436 -2.6884318e+38
4.2331038 0.0718477 2.2377312 nan
4.2810888 0.065716676 2.2495713 nan
4.2810698 0.057920523 2.2495713 nan
4.2810507 0.050124332 2.2495713 -2.4366088e+38
4.2330279 0.041028738 2.2377312 -2.6752951e+38
4.2330093 0.033324003 2.2377312 -2.901523e+38
4.2329903 0.025619261 2.2377312 -2.8085286e+38
4.2809739 0.018939666 2.2495713 -2.7153256e+38
4.2329526 0.010209791 2.2377312 -2.6885841e+38
4.2329335 0.0025050491 2.2377312 -2.6486553e+38
4.2329144 -0.0051996931 2.2377312 -2.6486034e+38
4.2328959 -0.012904432 2.2377312 -2.6353109e+38
4.2328768 -0.020609166 2.2377312 -2.6087783e+38
4.2328582 -0.028313909 2.2377312 -2.5821937e+38
4.1858382 -0.036395773 2.2261379 -2.5823493e+38
4.1858191 -0.044010986 2.2261379 -2.582038e+38
4.1858006 -0.051626202 2.2261379 -2.6083631e+38
4.185782 -0.059241418 2.2261379 -2.6216035e+38
4.1857634 -0.066856638 2.2261379 -2.6082593e+38
4.2327447 -0.074542344 2.2377312 -2.5949666e+38
4.2327256 -0.082247086 2.2377312 -2.5949664e+38
4.232707 -0.089951828 2.2377312 -2.5950181e+38
4.232688 -0.097656563 2.2377312 -2.6348426e+38
4.2326689 -0.10536131 2.2377312 -2.6615835e+38
4.2326503 -0.11306604 2.2377312 -2.661688e+38
4.2326312 -0.12077078 2.2377312 -2.6617922e+38
4.2326121 -0.12847552 2.2377312 -2.63526e+38
4.2325935 -0.13618027 2.2377312 -2.6086757e+38
4.2325745 -0.143885 2.2377312 -2.6086759e+38
4.2325559 -0.15158975 2.2377312 -2.5954335e+38
4.2325368 -0.15929449 2.2377312 -2.6614775e+38
4.2325177 -0.16699922 2.2377312 -2.7151192e+38
4.2324991 -0.17470396 2.2377312 -2.9558912e+38
4.23248 -0.18240869 2.2377312 -3.1958301e+38
4.232461 -0.19011344 2.2377312 -3.2101637e+38
4.2324424 -0.19781816 2.2377312 -3.2103205e+38
4.1854272 -0.20393053 2.2261379 -3.370296e+38
4.1854086 -0.21154574 2.2261379 nan
4.2323856 -0.22093239 2.2377312 -3.0748474e+38
4.1853714 -0.22677615 2.2261379 -2.6221247e+38
4.232348 -0.23634186 2.2377312 -2.6479241e+38
4.2323289 -0.24404663 2.2377312 -2.6613732e+38
4.2323098 -0.25175136 2.2377312 -2.6215495e+38
4.2322912 -0.2594561 2.2377312 -2.5816723e+38
4.2322721 -0.26716083 2.2377312 -2.5417433e+38
4.2322536 -0.27486557 2.2377312 -2.5018147e+38
4.2322345 -0.2825703 2.2377312 -2.4885227e+38
4.2322154 -0.29027507 2.2377312 -2.4750748e+38
4.2321968 -0.2979798 2.2377312 -2.4617308e+38
4.2321777 -0.30568454 2.2377312 -2.4351465e+38
4.2321587 -0.31338927 2.2377312 -2.4351467e+38
4.2321401 -0.32109398 2.2377312 -2.4351988e+38
4.2801137 -0.3318879 2.2495713 -2.4485432e+38
4.2800946 -0.33968404 2.2495713 -2.4484913e+38
4.2800756 -0.34748021 2.2495713 -2.4750241e+38
4.2800565 -0.35527638 2.2495713 -2.5017129e+38
4.2800374 -0.36307257 2.2495713 -2.5017655e+38
4.2800179 -0.37086874 2.2495713 -2.5019218e+38
4.2799988 -0.37866488 2.2495713 -2.5418514e+38
4.2799797 -0.38646105 2.2495713 -2.5686439e+38
4.2319698 -0.39043668 2.2377312 -2.6218134e+38
4.2319512 -0.39814138 2.2377312 -2.6617945e+38
4.2331038 0.0718477 2.2300265 nan
4.2330847 0.06414295 2.2300265 nan
4.2810698 0.057920523 2.241775 -3.1151337e+38
4.2810507 0.050124332 2.241775 -2.4761703e+38
4.2330279 0.041028738 2.2300265 -2.6489184e+38
4.2330093 0.033324003 2.2300265 -2.8215617e+38
4.280993 0.026735835 2.241775 -2.7683919e+38
4.2809739 0.018939666 2.241775 -2.7018776e+38
4.2809548 0.011143498 2.241775 -2.6619478e+38
4.2329335 0.0025050491 2.2300265 -2.622175e+38
4.2329144 -0.0051996931 2.2300265 -2.622175e+38
4.2328959 -0.012904432 2.2300265 -2.6088829e+38
4.2328768 -0.020609166 2.2300265 -2.5956426e+38
4.2328582 -0.028313909 2.2300265 -2.5824539e+38
4.1858382 -0.036395773 2.2185225 -2.5823497e+38
4.1858191 -0.044010986 2.2185225 -2.5954345e+38
4.1858006 -0.051626202 2.2185225 -2.608571e+38
4.185782 -0.059241418 2.2185225 -2.6349998e+38
4.2327633 -0.066837609 2.2300265 -2.6082075e+38
4.2327447 -0.074542344 2.2300265 -2.5815187e+38
4.2327256 -0.082247086 2.2300265 -2.5815181e+38
4.232707 -0.089951828 2.2300265 -2.5949138e+38
4.232688 -0.097656563 2.2300265 -2.6081538e+38
4.2326689 -0.10536131 2.2300265 -2.6216029e+38
4.2326503 -0.11306604 2.2300265 -2.6216556e+38
4.2326312 -0.12077078 2.2300265 -2.621812e+38
4.2326121 -0.12847552 2.2300265 -2.6084162e+38
4.2325935 -0.13618027 2.2300265 -2.5953323e+38
4.2325745 -0.143885 2.2300265 -2.8355283e+38
4.2325559 -0.15158975 2.2300265 -3.0744231e+38
4.2325368 -0.15929449 2.2300265 -2.8743608e+38
4.2325177 -0.16699922 2.2300265 -2.6742026e+38
4.2324991 -0.17470396 2.2300265 -2.9689742e+38
4.23248 -0.18240869 2.2300265 -3.2624485e+38
4.232461 -0.19011344 2.2300265 -3.3832789e+38
4.2324424 -0.19781816 2.2300265 nan
4.1854272 -0.20393053 2.2185225 -3.2767306e+38
4.1854086 -0.21154574 2.2185225 -3.0510161e+38
4.2323856 -0.22093239 2.2300265 -2.7291404e+38
4.2323666 -0.22863713 2.2300265 -2.4088233e+38
4.232348 -0.23634186 2.2300265 -2.4750726e+38
4.2323289 -0.24404663 2.2300265 -2.5417427e+38
4.2323098 -0.25175136 2.2300265 -2.6217049e+38
4.2322912 -0.2594561 2.2300265 -2.7014064e+38
4.2322721 -0.26716083 2.2300265 -2.6352044e+38
4.2322536 -0.27486557 2.2300265 -2.5685356e+38
4.2322345 -0.2825703 2.2300265 -2.5416397e+38
4.2322154 -0.29027507 2.2300265 -2.5282437e+38
