# .PCD v0.7 - Point Cloud Data file format
VERSION 0.7
FIELDS x y z rgb
SIZE 4 4 4 4
TYPE F F F F
COUNT 1 1 1 1
WIDTH 1016
HEIGHT 1
VIEWPOINT 0 0 0 1 0 0 0
POINTS 1016
DATA ascii
0.42050573 -0.086940005 1.863 -1.9158661e+38
0.42405432 -0.086940005 1.863 -1.9689317e+38
0.42989811 -0.087406673 1.8730001 -2.022153e+38
0.43346575 -0.087406673 1.8730001 -2.0884596e+38
0.43470004 -0.086940005 1.863 -2.1282336e+38
0.43589622 -0.086473338 1.853 -2.1820287e+38
0.43942574 -0.086473338 1.853 -2.1160372e+38
0.43817431 -0.085540004 1.8330001 -2.0633886e+38
0.43949717 -0.085120007 1.8240001 -2.130474e+38
0.43811432 -0.084186673 1.8040001 -2.2104886e+38
0.43934765 -0.083766669 1.7950001 -2.3036913e+38
0.44054669 -0.083346672 1.7860001 -2.3968417e+38
0.44171146 -0.082926676 1.7770001 -2.4368228e+38
0.44284195 -0.082506672 1.7680001 -2.4901479e+38
0.44393814 -0.082086675 1.7590001 -2.5301286e+38
0.4472886 -0.082086675 1.7590001 -2.5835056e+38
0.44833335 -0.081666671 1.7500001 -2.5969536e+38
0.45166668 -0.081666671 1.7500001 -2.6104025e+38
0.45266002 -0.081246674 1.7410001 -2.663728e+38
0.45597622 -0.081246674 1.7410001 -2.7170531e+38
0.45691812 -0.08082667 1.7320001 -2.7303975e+38
0.46021718 -0.08082667 1.7320001 -2.7570342e+38
0.46351624 -0.08082667 1.7320001 -2.7835668e+38
0.46681526 -0.08082667 1.7320001 -2.810099e+38
0.46767145 -0.080406673 1.723 -2.8233909e+38
0.47095338 -0.080406673 1.723 -2.836579e+38
0.47423527 -0.080406673 1.723 -2.8099421e+38
0.47751719 -0.080406673 1.723 -2.7964936e+38
0.48079908 -0.080406673 1.723 -2.7566162e+38
0.48408097 -0.080406673 1.723 -2.7166874e+38
0.52346385 -0.080406673 1.723 -2.4231634e+38
0.52674574 -0.080406673 1.723 -2.3830783e+38
0.53002763 -0.080406673 1.723 -2.3563379e+38
0.53330958 -0.080406673 1.723 -2.356182e+38
0.53659147 -0.080406673 1.723 -2.3693183e+38
0.54269338 -0.08082667 1.7320001 -2.3559217e+38
0.54315525 -0.080406673 1.723 -2.3425256e+38
0.54929149 -0.08082667 1.7320001 -2.3424735e+38
0.55259049 -0.08082667 1.7320001 -2.3425258e+38
0.55877811 -0.081246674 1.7410001 -2.3691108e+38
0.56209433 -0.081246674 1.7410001 -2.3956955e+38
0.56833339 -0.081666671 1.7500001 -2.4360399e+38
0.57166672 -0.081666671 1.7500001 -2.4631966e+38
0.57500005 -0.081666671 1.7500001 -2.5031264e+38
0.57833338 -0.081666671 1.7500001 -2.5430024e+38
0.58465815 -0.082086675 1.7590001 -2.1825522e+38
0.58800858 -0.082086675 1.7590001 -1.8232043e+38
0.59135908 -0.082086675 1.7590001 -3.292116e+38
0.59470958 -0.082086675 1.7590001 nan
0.60112005 -0.082506672 1.7680001 nan
0.60448766 -0.082506672 1.7680001 nan
0.33004192 -0.086659051 1.9360001 -2.7318016e+38
0.33183336 -0.086166672 1.9250001 -2.7181964e+38
0.33375716 -0.085719056 1.9150001 -2.704592e+38
0.33740479 -0.085719056 1.9150001 -2.6910395e+38
0.33909336 -0.08522667 1.904 -2.6639866e+38
0.34272003 -0.08522667 1.904 -2.6504337e+38
0.34452763 -0.084779054 1.8940001 -2.6235885e+38
0.34611335 -0.084286675 1.8830001 -2.5836587e+38
0.34970003 -0.084286675 1.8830001 -2.5303326e+38
0.35141051 -0.083839051 1.8730001 -2.5035913e+38
0.35497811 -0.083839051 1.8730001 -2.4634544e+38
0.35854575 -0.083839051 1.8730001 -2.449954e+38
0.36211336 -0.083839051 1.8730001 -2.4363496e+38
0.36568096 -0.083839051 1.8730001 -2.3829203e+38
0.3692486 -0.083839051 1.8730001 -2.3295946e+38
0.37281621 -0.083839051 1.8730001 -2.2763208e+38
0.37638384 -0.083839051 1.8730001 -2.2229953e+38
0.37995145 -0.083839051 1.8730001 -2.1830142e+38
0.38351908 -0.083839051 1.8730001 -2.1429287e+38
0.38708669 -0.083839051 1.8730001 -2.0763105e+38
0.39065433 -0.083839051 1.8730001 -1.9964523e+38
0.39422193 -0.083839051 1.8730001 -1.9697633e+38
0.39566574 -0.083391435 1.863 -1.9297307e+38
0.3992143 -0.083391435 1.863 -1.9162829e+38
0.40276289 -0.083391435 1.863 -1.9028865e+38
0.40631145 -0.083391435 1.863 -1.8762499e+38
0.40986001 -0.083391435 1.863 -1.8363207e+38
0.41562766 -0.083839051 1.8730001 -1.8496126e+38
0.41919526 -0.083839051 1.8730001 -1.8495087e+38
0.42276287 -0.083839051 1.8730001 -1.9291588e+38
0.42633051 -0.083839051 1.8730001 -1.9956199e+38
0.42989811 -0.083839051 1.8730001 -2.0621333e+38
0.43346575 -0.083839051 1.8730001 -2.1150438e+38
0.43470004 -0.083391435 1.863 -2.154558e+38
0.43589622 -0.082943812 1.853 -2.1951127e+38
0.43942574 -0.082943812 1.853 -2.1424656e+38
0.44056478 -0.082496196 1.8430001 -2.0770455e+38
0.43949717 -0.08164572 1.8240001 -2.1573734e+38
0.44054288 -0.081198104 1.8140001 -2.2371269e+38
0.43934765 -0.080347627 1.7950001 -2.3302247e+38
0.44054669 -0.079944767 1.7860001 -2.4101865e+38
0.44171146 -0.079541907 1.7770001 -2.4634078e+38
0.44284195 -0.079139054 1.7680001 -2.5167329e+38
0.44393814 -0.078736193 1.7590001 -2.5566618e+38
0.44500002 -0.078333341 1.7500001 -2.5967985e+38
0.44833335 -0.078333341 1.7500001 -2.6101948e+38
0.45166668 -0.078333341 1.7500001 -2.623695e+38
0.45266002 -0.07793048 1.7410001 -2.6637278e+38
0.45597622 -0.07793048 1.7410001 -2.6904683e+38
0.45691812 -0.077527627 1.7320001 -2.7172089e+38
0.46021718 -0.077527627 1.7320001 -2.7437417e+38
0.46351624 -0.077527627 1.7320001 -2.7836187e+38
0.46438956 -0.077124767 1.723 -2.8102027e+38
0.46767145 -0.077124767 1.723 -2.850131e+38
0.47095338 -0.077124767 1.723 -2.8765073e+38
0.47423527 -0.077124767 1.723 -2.8631108e+38
0.47751719 -0.077124767 1.723 -2.83637e+38
0.48079908 -0.077124767 1.723 -2.7965447e+38
0.48408097 -0.077124767 1.723 -2.7431679e+38
0.48736289 -0.077124767 1.723 -2.7163235e+38
0.49064478 -0.077124767 1.723 -2.676343e+38
0.50049049 -0.077124767 1.723 -2.596537e+38
0.51690006 -0.077124767 1.723 -2.4765928e+38
0.52346385 -0.077124767 1.723 -2.3698381e+38
0.52674574 -0.077124767 1.723 -2.3562856e+38
0.53002763 -0.077124767 1.723 -2.3296491e+38
0.53330958 -0.077124767 1.723 -2.3427854e+38
0.53939432 -0.077527627 1.7320001 -2.3426814e+38
0.54269338 -0.077527627 1.7320001 -2.3425254e+38
0.54599243 -0.077527627 1.7320001 -2.329181e+38
0.54929149 -0.077527627 1.7320001 -2.3290772e+38
0.55259049 -0.077527627 1.7320001 -2.3158889e+38
0.55877811 -0.07793048 1.7410001 -2.3690585e+38
0.56209433 -0.07793048 1.7410001 -2.4091955e+38
0.56833339 -0.078333341 1.7500001 -2.4627806e+38
0.57166672 -0.078333341 1.7500001 -2.5162625e+38
0.57500005 -0.078333341 1.7500001 -2.5563485e+38
0.58130765 -0.078736193 1.7590001 -2.5823582e+38
0.58465815 -0.078736193 1.7590001 -2.2084053e+38
0.58800858 -0.078736193 1.7590001 -1.8253319e+38
0.59135908 -0.078736193 1.7590001 -3.3877601e+38
0.59470958 -0.078736193 1.7590001 nan
0.60112005 -0.079139054 1.7680001 nan
0.60756481 -0.079541907 1.7770001 nan
0.33004192 -0.082971431 1.9360001 -2.8781731e+38
0.33183336 -0.082500003 1.9250001 -2.8113979e+38
0.33375716 -0.082071431 1.9150001 -2.7446765e+38
0.33740479 -0.082071431 1.9150001 -2.7309682e+38
0.33909336 -0.081600003 1.904 -2.7039675e+38
0.34272003 -0.081600003 1.904 -2.6769665e+38
0.34452763 -0.081171431 1.8940001 -2.6367771e+38
0.34611335 -0.080700003 1.8830001 -2.596951e+38
0.34970003 -0.080700003 1.8830001 -2.5569695e+38
0.35328668 -0.080700003 1.8830001 -2.5169359e+38
0.35687336 -0.080700003 1.8830001 -2.4767988e+38
0.36046001 -0.080700003 1.8830001 -2.4367656e+38
0.36211336 -0.08027143 1.8730001 -2.4099729e+38
0.36568096 -0.08027143 1.8730001 -2.3698359e+38
0.3692486 -0.08027143 1.8730001 -2.3297503e+38
0.37281621 -0.08027143 1.8730001 -2.2763723e+38
0.37638384 -0.08027143 1.8730001 -2.2362354e+38
0.37995145 -0.08027143 1.8730001 -2.1829619e+38
0.38351908 -0.08027143 1.8730001 -2.1428765e+38
0.38708669 -0.08027143 1.8730001 -2.0630182e+38
0.39065433 -0.08027143 1.8730001 -1.9965047e+38
0.39422193 -0.08027143 1.8730001 -1.9564719e+38
0.39778954 -0.08027143 1.8730001 -1.9164392e+38
0.40135717 -0.08027143 1.8730001 -1.902991e+38
0.40492478 -0.08027143 1.8730001 -1.902835e+38
0.40849242 -0.08027143 1.8730001 -1.862958e+38
0.41206002 -0.08027143 1.8730001 -1.8363211e+38
0.41562766 -0.08027143 1.8730001 -1.8496649e+38
0.41919526 -0.08027143 1.8730001 -1.8761975e+38
0.42276287 -0.08027143 1.8730001 -1.942607e+38
0.42633051 -0.08027143 1.8730001 -1.9957238e+38
0.42989811 -0.08027143 1.8730001 -2.0621329e+38
0.43346575 -0.08027143 1.8730001 -2.115199e+38
0.43470004 -0.079842865 1.863 -2.1548689e+38
0.4382486 -0.079842865 1.863 -2.1951123e+38
0.43942574 -0.079414293 1.853 -2.1295364e+38
0.44056478 -0.078985721 1.8430001 -2.0777738e+38
0.43949717 -0.078171432 1.8240001 -2.1707726e+38
0.43811432 -0.077314287 1.8040001 -2.2770577e+38
0.43934765 -0.076928578 1.7950001 -2.3436217e+38
0.44054669 -0.076542862 1.7860001 -2.4235833e+38
0.44171146 -0.076157145 1.7770001 -2.463512e+38
0.44284195 -0.075771436 1.7680001 -2.5167854e+38
0.44393814 -0.07538572 1.7590001 -2.5568701e+38
0.4472886 -0.07538572 1.7590001 -2.5969549e+38
0.44833335 -0.075000003 1.7500001 -2.6102993e+38
0.45166668 -0.075000003 1.7500001 -2.6237471e+38
0.45266002 -0.074614294 1.7410001 -2.6504872e+38
0.45597622 -0.074614294 1.7410001 -2.6772278e+38
0.45691812 -0.074228577 1.7320001 -2.7038643e+38
0.46021718 -0.074228577 1.7320001 -2.7304492e+38
0.46351624 -0.074228577 1.7320001 -2.757034e+38
0.46438956 -0.073842861 1.723 -2.7969621e+38
0.46767145 -0.073842861 1.723 -2.8234422e+38
0.47095338 -0.073842861 1.723 -2.8497668e+38
0.47423527 -0.073842861 1.723 -2.836422e+38
0.47751719 -0.073842861 1.723 -2.8229218e+38
0.48079908 -0.073842861 1.723 -2.7830965e+38
0.48408097 -0.073842861 1.723 -2.7298233e+38
0.50049049 -0.073842861 1.723 -2.5966409e+38
0.52674574 -0.073842861 1.723 -2.342941e+38
0.53002763 -0.073842861 1.723 -2.3162526e+38
0.53330958 -0.073842861 1.723 -2.3028563e+38
0.53939432 -0.074228577 1.7320001 -2.3027003e+38
0.54269338 -0.074228577 1.7320001 -2.2760636e+38
0.54599243 -0.074228577 1.7320001 -2.2627194e+38
0.54929149 -0.074228577 1.7320001 -2.2626673e+38
0.55259049 -0.074228577 1.7320001 -2.2627196e+38
0.55877811 -0.074614294 1.7410001 -2.2893563e+38
0.56209433 -0.074614294 1.7410001 -2.3293899e+38
0.56833339 -0.075000003 1.7500001 -2.3962156e+38
0.57166672 -0.075000003 1.7500001 -2.463094e+38
0.57500005 -0.075000003 1.7500001 -2.4499072e+38
0.58130765 -0.07538572 1.7590001 -2.4501605e+38
0.58465815 -0.07538572 1.7590001 -2.142251e+38
0.58800858 -0.07538572 1.7590001 -1.8226826e+38
0.59135908 -0.07538572 1.7590001 nan
0.59470958 -0.07538572 1.7590001 nan
0.60112005 -0.075771436 1.7680001 nan
0.60756481 -0.076157145 1.7770001 nan
0.33183336 -0.078833342 1.9250001 -2.9044439e+38
0.33375716 -0.078423813 1.9150001 -2.7844495e+38
0.33740479 -0.078423813 1.9150001 -2.7707932e+38
0.33909336 -0.077973336 1.904 -2.7437407e+38
0.34272003 -0.077973336 1.904 -2.7033438e+38
0.34452763 -0.077563815 1.8940001 -2.6502773e+38
0.34611335 -0.077113338 1.8830001 -2.6104514e+38
0.34970003 -0.077113338 1.8830001 -2.5703139e+38
0.35328668 -0.077113338 1.8830001 -2.5302803e+38
0.35687336 -0.077113338 1.8830001 -2.4768507e+38
0.35854575 -0.076703817 1.8730001 -2.4368692e+38
0.36211336 -0.076703817 1.8730001 -2.3833882e+38
0.36568096 -0.076703817 1.8730001 -2.3566472e+38
0.3692486 -0.076703817 1.8730001 -2.31651e+38
0.37281621 -0.076703817 1.8730001 -2.2763725e+38
0.37638384 -0.076703817 1.8730001 -2.2362876e+38
0.37995145 -0.076703817 1.8730001 -2.1963065e+38
0.38351908 -0.076703817 1.8730001 -2.1428771e+38
0.38708669 -0.076703817 1.8730001 -2.0629673e+38
0.39065433 -0.076703817 1.8730001 -1.9831096e+38
0.39422193 -0.076703817 1.8730001 -1.9431287e+38
0.39778954 -0.076703817 1.8730001 -1.8898553e+38
0.40135717 -0.076703817 1.8730001 -1.8896993e+38
0.40492478 -0.076703817 1.8730001 -1.8896466e+38
0.40849242 -0.076703817 1.8730001 -1.8630095e+38
0.41206002 -0.076703817 1.8730001 -1.8231323e+38
0.41562766 -0.076703817 1.8730001 -1.8630087e+38
0.41919526 -0.076703817 1.8730001 -1.9028334e+38
0.42276287 -0.076703817 1.8730001 -1.9560025e+38
0.42633051 -0.076703817 1.8730001 -1.9957757e+38
0.42989811 -0.076703817 1.8730001 -2.0621335e+38
0.43346575 -0.076703817 1.8730001 -2.1150955e+38
0.43470004 -0.076294288 1.863 -2.1546614e+38
0.4382486 -0.076294288 1.863 -2.1818186e+38
0.43942574 -0.075884767 1.853 -2.1293259e+38
0.44056478 -0.075475246 1.8430001 -2.0771479e+38
0.44166574 -0.075065717 1.8330001 -2.1974062e+38
0.43811432 -0.073878102 1.8040001 -2.3036929e+38
0.43934765 -0.073509529 1.7950001 -2.3701547e+38
0.44054669 -0.073140956 1.7860001 -2.4235839e+38
0.44171146 -0.072772384 1.7770001 -2.4768572e+38
0.44509622 -0.072772384 1.7770001 -2.5169418e+38
0.44620955 -0.072403811 1.7680001 -2.5569744e+38
0.4472886 -0.072035246 1.7590001 -2.5836628e+38
0.44833335 -0.071666673 1.7500001 -2.6102995e+38
0.45166668 -0.071666673 1.7500001 -2.6237473e+38
0.45266002 -0.0712981 1.7410001 -2.6504876e+38
0.45361906 -0.070929527 1.7320001 -2.6638838e+38
0.45691812 -0.070929527 1.7320001 -2.6904683e+38
0.45782575 -0.070560955 1.723 -2.7038647e+38
0.46110764 -0.070560955 1.723 -2.7436898e+38
0.46438956 -0.070560955 1.723 -2.7836179e+38
0.46767145 -0.070560955 1.723 -2.810098e+38
0.47095338 -0.070560955 1.723 -2.8233897e+38
0.47423527 -0.070560955 1.723 -2.8232333e+38
0.47751719 -0.070560955 1.723 -2.8097853e+38
0.48079908 -0.070560955 1.723 -2.7698046e+38
0.48408097 -0.070560955 1.723 -2.7165314e+38
0.48736289 -0.070560955 1.723 -2.6897907e+38
0.49064478 -0.070560955 1.723 -2.6631544e+38
0.50049049 -0.070560955 1.723 -2.6101409e+38
0.52346385 -0.070560955 1.723 -2.3829738e+38
0.52674574 -0.070560955 1.723 -2.3429925e+38
0.53002763 -0.070560955 1.723 -2.3029597e+38
0.53609526 -0.070929527 1.7320001 -2.2762713e+38
0.53939432 -0.070929527 1.7320001 -2.2495827e+38
0.54269338 -0.070929527 1.7320001 -2.2228424e+38
0.54599243 -0.070929527 1.7320001 -2.1962578e+38
0.55214578 -0.0712981 1.7410001 -2.196154e+38
0.55546194 -0.0712981 1.7410001 -2.1962584e+38
0.56166673 -0.071666673 1.7500001 -2.2227917e+38
0.56500006 -0.071666673 1.7500001 -2.2363442e+38
0.56833339 -0.071666673 1.7500001 -2.3162542e+38
0.57166672 -0.071666673 1.7500001 -2.3963716e+38
0.57795715 -0.072035246 1.7590001 -2.3565988e+38
0.58130765 -0.072035246 1.7590001 -2.315992e+38
0.58465815 -0.072035246 1.7590001 -2.0744435e+38
0.58800858 -0.072035246 1.7590001 -1.8254889e+38
0.59438479 -0.072403811 1.7680001 nan
0.59470958 -0.072035246 1.7590001 nan
0.60112005 -0.072403811 1.7680001 nan
0.61064196 -0.073140956 1.7860001 nan
0.33183336 -0.075166672 1.9250001 -2.8911516e+38
0.33375716 -0.074776195 1.9150001 -2.7976899e+38
0.33546668 -0.074346669 1.904 -2.7841893e+38
0.33909336 -0.074346669 1.904 -2.7569812e+38
0.34272003 -0.074346669 1.904 -2.7169999e+38
0.34452763 -0.073956199 1.8940001 -2.677018e+38
0.34611335 -0.073526673 1.8830001 -2.6237439e+38
0.34970003 -0.073526673 1.8830001 -2.5835545e+38
0.35328668 -0.073526673 1.8830001 -2.5434687e+38
0.35687336 -0.073526673 1.8830001 -2.5032276e+38
0.35854575 -0.073136196 1.8730001 -2.4499536e+38
0.36211336 -0.073136196 1.8730001 -2.4098168e+38
0.36568096 -0.073136196 1.8730001 -2.3830758e+38
0.3692486 -0.073136196 1.8730001 -2.3430426e+38
0.37281621 -0.073136196 1.8730001 -2.3029054e+38
0.37638384 -0.073136196 1.8730001 -2.2495283e+38
0.37995145 -0.073136196 1.8730001 -2.196203e+38
0.38351908 -0.073136196 1.8730001 -2.1560664e+38
0.38708669 -0.073136196 1.8730001 -2.0762604e+38
0.39065433 -0.073136196 1.8730001 -1.9963507e+38
0.39422193 -0.073136196 1.8730001 -1.9564218e+38
0.39778954 -0.073136196 1.8730001 -1.9164407e+38
0.40135717 -0.073136196 1.8730001 -1.9030439e+38
0.40276289 -0.072745718 1.863 -1.8896987e+38
0.40631145 -0.072745718 1.863 -1.8764052e+38
0.40986001 -0.072745718 1.863 -1.8498203e+38
0.41562766 -0.073136196 1.8730001 -1.8895926e+38
0.41919526 -0.073136196 1.8730001 -1.9293654e+38
0.42276287 -0.073136196 1.8730001 -1.9559498e+38
0.42633051 -0.073136196 1.8730001 -1.9957755e+38
0.42989811 -0.073136196 1.8730001 -2.0222051e+38
0.43346575 -0.073136196 1.8730001 -2.0486864e+38
0.43470004 -0.072745718 1.863 -2.048583e+38
0.4382486 -0.072745718 1.863 -2.062031e+38
0.43942574 -0.072355241 1.853 -2.1026346e+38
0.44056478 -0.071964763 1.8430001 -2.143243e+38
0.43949717 -0.071222864 1.8240001 -2.2104879e+38
0.43811432 -0.070441909 1.8040001 -2.2903475e+38
0.43714479 -0.069739051 1.7860001 -2.3570184e+38
0.44054669 -0.069739051 1.7860001 -2.4236883e+38
0.44171146 -0.069387622 1.7770001 -2.4637215e+38
0.44284195 -0.069036193 1.7680001 -2.5038578e+38
0.44393814 -0.068684764 1.7590001 -2.5437344e+38
0.4472886 -0.068684764 1.7590001 -2.5969035e+38
0.44833335 -0.068333335 1.7500001 -2.6103514e+38
0.45166668 -0.068333335 1.7500001 -2.6237475e+38
0.45266002 -0.067981906 1.7410001 -2.6372475e+38
0.45361906 -0.067630477 1.7320001 -2.6506436e+38
0.45691812 -0.067630477 1.7320001 -2.6639359e+38
0.45782575 -0.067279056 1.723 -2.677332e+38
0.46110764 -0.067279056 1.723 -2.7172089e+38
0.46438956 -0.067279056 1.723 -2.7704295e+38
0.46767145 -0.067279056 1.723 -2.7970654e+38
0.47095338 -0.067279056 1.723 -2.8238051e+38
0.47423527 -0.067279056 1.723 -2.8100966e+38
0.47751719 -0.067279056 1.723 -2.796597e+38
0.48079908 -0.067279056 1.723 -2.7565646e+38
0.48408097 -0.067279056 1.723 -2.7165316e+38
0.51690006 -0.067279056 1.723 -2.4765402e+38
0.52018195 -0.067279056 1.723 -2.4364547e+38
0.52346385 -0.067279056 1.723 -2.3963176e+38
0.52674574 -0.067279056 1.723 -2.3562842e+38
0.53002763 -0.067279056 1.723 -2.3161997e+38
0.53609526 -0.067630477 1.7320001 -2.2896151e+38
0.53939432 -0.067630477 1.7320001 -2.2629786e+38
0.54269338 -0.067630477 1.7320001 -2.2229458e+38
0.54599243 -0.067630477 1.7320001 -2.1963095e+38
0.55214578 -0.067981906 1.7410001 -2.2096018e+38
0.55546194 -0.067981906 1.7410001 -2.2228951e+38
0.55877811 -0.067981906 1.7410001 -2.2362922e+38
0.56500006 -0.068333335 1.7500001 -2.2497924e+38
0.56833339 -0.068333335 1.7500001 -2.329754e+38
0.57166672 -0.068333335 1.7500001 -2.4230064e+38
0.57500005 -0.068333335 1.7500001 -2.3297516e+38
0.58130765 -0.068684764 1.7590001 -2.2364983e+38
0.58465815 -0.068684764 1.7590001 -2.3416427e+38
0.58800858 -0.068684764 1.7590001 -2.4483592e+38
0.59438479 -0.069036193 1.7680001 nan
0.59775239 -0.069036193 1.7680001 nan
0.60418004 -0.069387622 1.7770001 nan
0.61064196 -0.069739051 1.7860001 nan
0.33004192 -0.071908578 1.9360001 -2.9573027e+38
0.33183336 -0.071500003 1.9250001 -2.8912037e+38
0.33375716 -0.071128577 1.9150001 -2.8112422e+38
0.33740479 -0.071128577 1.9150001 -2.7978978e+38
0.33909336 -0.070720002 1.904 -2.7707412e+38
0.34272003 -0.070720002 1.904 -2.7306561e+38
0.34452763 -0.070348576 1.8940001 -2.6905182e+38
0.34813526 -0.070348576 1.8940001 -2.6371402e+38
0.34970003 -0.069940008 1.8830001 -2.5836066e+38
0.35328668 -0.069940008 1.8830001 -2.5567095e+38
0.35497811 -0.069568574 1.8730001 -2.5165203e+38
0.35854575 -0.069568574 1.8730001 -2.4763828e+38
0.36211336 -0.069568574 1.8730001 -2.4362977e+38
0.36568096 -0.069568574 1.8730001 -2.4095048e+38
0.3692486 -0.069568574 1.8730001 -2.3694716e+38
0.37281621 -0.069568574 1.8730001 -2.3160942e+38
0.37638384 -0.069568574 1.8730001 -2.2627687e+38
0.37995145 -0.069568574 1.8730001 -2.2094434e+38
0.38351908 -0.069568574 1.8730001 -2.1561181e+38
0.38708669 -0.069568574 1.8730001 -2.0895525e+38
0.39065433 -0.069568574 1.8730001 -2.0096947e+38
0.39211717 -0.069197148 1.863 -1.9697138e+38
0.39778954 -0.069568574 1.8730001 -1.9297325e+38
0.3992143 -0.069197148 1.863 -1.9163877e+38
0.40276289 -0.069197148 1.863 -1.8896985e+38
0.40631145 -0.069197148 1.863 -1.8896977e+38
0.40986001 -0.069197148 1.863 -1.8763527e+38
0.41340861 -0.069197148 1.863 -1.916177e+38
0.41919526 -0.069568574 1.8730001 -1.9427094e+38
0.42276287 -0.069568574 1.8730001 -1.9691899e+38
0.42633051 -0.069568574 1.8730001 -1.9957226e+38
0.42989811 -0.069568574 1.8730001 -1.9822747e+38
0.43346575 -0.069568574 1.8730001 -1.9689307e+38
0.43470004 -0.069197148 1.863 -1.9554831e+38
0.4382486 -0.069197148 1.863 -1.9292646e+38
0.43942574 -0.068825722 1.853 -2.0758977e+38
0.44056478 -0.068454288 1.8430001 -2.2098634e+38
0.44166574 -0.068082862 1.8330001 -2.2375429e+38
0.43811432 -0.067005716 1.8040001 -2.2640242e+38
0.43714479 -0.066337146 1.7860001 -2.3438823e+38
0.44054669 -0.066337146 1.7860001 -2.4237924e+38
0.44171146 -0.066002861 1.7770001 -2.4637735e+38
0.44284195 -0.065668575 1.7680001 -2.4904617e+38
0.44393814 -0.06533429 1.7590001 -2.5436827e+38
0.44500002 -0.065000005 1.7500001 -2.5970074e+38
0.44833335 -0.065000005 1.7500001 -2.6104552e+38
0.45166668 -0.065000005 1.7500001 -2.6238514e+38
0.45266002 -0.06466572 1.7410001 -2.6240071e+38
0.45361906 -0.064331435 1.7320001 -2.6240589e+38
0.45691812 -0.064331435 1.7320001 -2.6373511e+38
0.45782575 -0.063997149 1.723 -2.6374033e+38
0.46110764 -0.063997149 1.723 -2.6906243e+38
0.46438956 -0.063997149 1.723 -2.7438967e+38
0.46767145 -0.063997149 1.723 -2.7839289e+38
0.47095338 -0.063997149 1.723 -2.810357e+38
0.47423527 -0.063997149 1.723 -2.7968047e+38
0.48079908 -0.063997149 1.723 -2.7433243e+38
0.48408097 -0.063997149 1.723 -2.7032913e+38
0.48736289 -0.063997149 1.723 -2.6766546e+38
0.50049049 -0.063997149 1.723 -2.6367254e+38
0.50705433 -0.063997149 1.723 -2.5968482e+38
0.51361811 -0.063997149 1.723 -2.5168345e+38
0.51690006 -0.063997149 1.723 -2.4766451e+38
0.52018195 -0.063997149 1.723 -2.4365076e+38
0.52346385 -0.063997149 1.723 -2.3963703e+38
0.52674574 -0.063997149 1.723 -2.3563369e+38
0.53002763 -0.063997149 1.723 -2.3163041e+38
0.53609526 -0.064331435 1.7320001 -2.302908e+38
0.53659147 -0.063997149 1.723 -2.2762711e+38
0.54269338 -0.064331435 1.7320001 -2.2362902e+38
0.54599243 -0.064331435 1.7320001 -2.1831215e+38
0.55214578 -0.06466572 1.7410001 -2.2229987e+38
0.55546194 -0.06466572 1.7410001 -2.2495841e+38
0.55877811 -0.06466572 1.7410001 -2.2496888e+38
0.56500006 -0.065000005 1.7500001 -2.2498973e+38
0.56833339 -0.065000005 1.7500001 -2.3431517e+38
0.57166672 -0.065000005 1.7500001 -2.4361458e+38
0.57500005 -0.065000005 1.7500001 -2.3028076e+38
0.58130765 -0.06533429 1.7590001 -2.1556587e+38
0.58465815 -0.06533429 1.7590001 -2.6204739e+38
0.58800858 -0.06533429 1.7590001 -3.0772009e+38
0.59438479 -0.065668575 1.7680001 nan
0.59775239 -0.065668575 1.7680001 nan
0.60418004 -0.066002861 1.7770001 nan
0.61064196 -0.066337146 1.7860001 nan
0.33183336 -0.067833334 1.9250001 -2.8246387e+38
0.33375716 -0.067480959 1.9150001 -2.9575096e+38
0.33740479 -0.067480959 1.9150001 -2.8776001e+38
0.33909336 -0.067093335 1.904 -2.784138e+38
0.34272003 -0.067093335 1.904 -2.7440526e+38
0.34452763 -0.06674096 1.8940001 -2.7039148e+38
0.34611335 -0.066353336 1.8830001 -2.6637248e+38
0.34970003 -0.066353336 1.8830001 -2.6100875e+38
0.35141051 -0.066000953 1.8730001 -2.5832945e+38
0.35497811 -0.066000953 1.8730001 -2.5563456e+38
0.35854575 -0.066000953 1.8730001 -2.5029159e+38
0.36211336 -0.066000953 1.8730001 -2.4627786e+38
0.36568096 -0.066000953 1.8730001 -2.4094529e+38
0.3692486 -0.066000953 1.8730001 -2.369316e+38
0.37281621 -0.066000953 1.8730001 -2.3293867e+38
0.37638384 -0.066000953 1.8730001 -2.2760612e+38
0.37995145 -0.066000953 1.8730001 -2.2227357e+38
0.38351908 -0.066000953 1.8730001 -2.1827027e+38
0.38708669 -0.066000953 1.8730001 -2.1294291e+38
0.39065433 -0.066000953 1.8730001 -2.0894482e+38
0.39211717 -0.065648578 1.863 -2.036175e+38
0.39566574 -0.065648578 1.863 -1.9828495e+38
0.3992143 -0.065648578 1.863 -1.9562122e+38
0.40276289 -0.065648578 1.863 -1.9295232e+38
0.40631145 -0.065648578 1.863 -1.9162303e+38
0.40986001 -0.065648578 1.863 -1.9028853e+38
0.41340861 -0.065648578 1.863 -1.9028324e+38
0.41919526 -0.066000953 1.8730001 -1.8895401e+38
0.42276287 -0.066000953 1.8730001 -1.9426571e+38
0.42633051 -0.066000953 1.8730001 -1.9957218e+38
0.42989811 -0.066000953 1.8730001 -2.0089094e+38
0.43346575 -0.066000953 1.8730001 -2.0221499e+38
0.43703336 -0.066000953 1.8730001 -2.0486307e+38
0.4382486 -0.065648578 1.863 -2.0754803e+38
0.43942574 -0.065296195 1.853 -2.1027971e+38
0.44295526 -0.065296195 1.853 -2.1301649e+38
0.44166574 -0.06459143 1.8330001 -2.1574288e+38
0.44054288 -0.063921906 1.8140001 -2.1975646e+38
0.43714479 -0.062935241 1.7860001 -2.3040578e+38
0.43832669 -0.062618099 1.7770001 -2.4239483e+38
0.43947431 -0.062300958 1.7680001 -2.4638254e+38
0.44284195 -0.062300958 1.7680001 -2.5037541e+38
0.44393814 -0.061983813 1.7590001 -2.5437865e+38
0.44500002 -0.061666671 1.7500001 -2.5970593e+38
0.44833335 -0.061666671 1.7500001 -2.6104552e+38
0.45166668 -0.061666671 1.7500001 -2.6238514e+38
0.45266002 -0.061349526 1.7410001 -2.6372992e+38
0.45361906 -0.061032385 1.7320001 -2.6506434e+38
0.45691812 -0.061032385 1.7320001 -2.6506432e+38
0.45782575 -0.060715243 1.723 -2.6639357e+38
0.46110764 -0.060715243 1.723 -2.7039166e+38
0.46438956 -0.060715243 1.723 -2.7439486e+38
0.46767145 -0.060715243 1.723 -2.7705325e+38
0.47095338 -0.060715243 1.723 -2.8103053e+38
0.47423527 -0.060715243 1.723 -2.796909e+38
0.48079908 -0.060715243 1.723 -2.7699608e+38
0.48408097 -0.060715243 1.723 -2.7431164e+38
0.48736289 -0.060715243 1.723 -2.7165833e+38
0.50049049 -0.060715243 1.723 -2.6634136e+38
0.50377244 -0.060715243 1.723 -2.6500696e+38
0.50705433 -0.060715243 1.723 -2.5968486e+38
0.51033622 -0.060715243 1.723 -2.5567642e+38
0.51361811 -0.060715243 1.723 -2.5167838e+38
0.51690006 -0.060715243 1.723 -2.4765944e+38
0.52018195 -0.060715243 1.723 -2.4498009e+38
0.52346385 -0.060715243 1.723 -2.436248e+38
0.52674574 -0.060715243 1.723 -2.3962144e+38
0.53002763 -0.060715243 1.723 -2.3561816e+38
0.53330958 -0.060715243 1.723 -2.3162007e+38
0.53659147 -0.060715243 1.723 -2.2895638e+38
0.54269338 -0.061032385 1.7320001 -2.2496344e+38
0.54599243 -0.061032385 1.7320001 -2.2097584e+38
0.55214578 -0.061349526 1.7410001 -2.2229474e+38
0.55546194 -0.061349526 1.7410001 -2.223e+38
0.55877811 -0.061349526 1.7410001 -2.2629813e+38
0.56500006 -0.061666671 1.7500001 -2.3030672e+38
0.56833339 -0.061666671 1.7500001 -2.3829781e+38
0.57166672 -0.061666671 1.7500001 -2.4629409e+38
0.57500005 -0.061666671 1.7500001 -2.2090907e+38
0.58130765 -0.061983813 1.7590001 -1.9680136e+38
0.58465815 -0.061983813 1.7590001 -2.8764069e+38
0.59101719 -0.062300958 1.7680001 nan
0.59438479 -0.062300958 1.7680001 nan
0.60079527 -0.062618099 1.7770001 nan
0.60724002 -0.062935241 1.7860001 nan
0.33010954 -0.063833341 1.9150001 -2.7585424e+38
0.33375716 -0.063833341 1.9150001 -3.104037e+38
0.33740479 -0.063833341 1.9150001 -2.9575617e+38
0.34105241 -0.063833341 1.9150001 -2.7976377e+38
0.34272003 -0.063466668 1.904 -2.7575522e+38
0.34634668 -0.063466668 1.904 -2.7173626e+38
0.34813526 -0.063133337 1.8940001 -2.6772247e+38
0.35174289 -0.063133337 1.8940001 -2.6369317e+38
0.35328668 -0.062766671 1.8830001 -2.6100869e+38
0.35497811 -0.062433336 1.8730001 -2.5829821e+38
0.35854575 -0.062433336 1.8730001 -2.5294487e+38
0.36211336 -0.062433336 1.8730001 -2.4760711e+38
0.36568096 -0.062433336 1.8730001 -2.4226935e+38
0.3692486 -0.062433336 1.8730001 -2.3694199e+38
0.37281621 -0.062433336 1.8730001 -2.3294388e+38
0.37638384 -0.062433336 1.8730001 -2.2893535e+38
0.37995145 -0.062433336 1.8730001 -2.2492683e+38
0.38351908 -0.062433336 1.8730001 -2.1960467e+38
0.38708669 -0.062433336 1.8730001 -2.1826497e+38
0.39065433 -0.062433336 1.8730001 -2.1559092e+38
0.39211717 -0.062100004 1.863 -2.0892916e+38
0.39566574 -0.062100004 1.863 -2.0227777e+38
0.3992143 -0.062100004 1.863 -1.996037e+38
0.40276289 -0.062100004 1.863 -1.9561597e+38
0.40631145 -0.062100004 1.863 -1.942867e+38
0.40986001 -0.062100004 1.863 -1.9294182e+38
0.41562766 -0.062433336 1.8730001 -1.8894888e+38
0.41919526 -0.062433336 1.8730001 -1.836371e+38
0.42276287 -0.062433336 1.8730001 -1.9161243e+38
0.42633051 -0.062433336 1.8730001 -1.982481e+38
0.42989811 -0.062433336 1.8730001 -2.0222015e+38
0.43346575 -0.062433336 1.8730001 -2.0619739e+38
0.43703336 -0.062433336 1.8730001 -2.1413635e+38
0.4382486 -0.062100004 1.863 -2.2215909e+38
0.43942574 -0.061766669 1.853 -2.1428824e+38
0.44295526 -0.061766669 1.853 -2.0505153e+38
0.44407526 -0.061433338 1.8430001 -2.0910189e+38
0.43811432 -0.060133338 1.8040001 -2.1178105e+38
0.43494195 -0.059233338 1.7770001 -2.2773694e+38
0.43832669 -0.059233338 1.7770001 -2.4237922e+38
0.43947431 -0.058933336 1.7680001 -2.4637211e+38
0.44058764 -0.058633339 1.7590001 -2.5038057e+38
0.44393814 -0.058633339 1.7590001 -2.5571305e+38
0.44500002 -0.058333337 1.7500001 -2.597111e+38
0.44833335 -0.058333337 1.7500001 -2.610507e+38
0.45166668 -0.058333337 1.7500001 -2.6239031e+38
0.45266002 -0.058033336 1.7410001 -2.6506434e+38
0.45361906 -0.057733338 1.7320001 -2.6638838e+38
0.45691812 -0.057733338 1.7320001 -2.677176e+38
0.46021718 -0.057733338 1.7320001 -2.6904683e+38
0.46110764 -0.057433337 1.723 -2.717105e+38
0.46438956 -0.057433337 1.723 -2.7306044e+38
0.46767145 -0.057433337 1.723 -2.7705847e+38
0.47095338 -0.057433337 1.723 -2.797065e+38
0.47423527 -0.057433337 1.723 -2.7969609e+38
0.48079908 -0.057433337 1.723 -2.7833054e+38
0.48408097 -0.057433337 1.723 -2.7699088e+38
0.48736289 -0.057433337 1.723 -2.7566683e+38
0.49064478 -0.057433337 1.723 -2.7299797e+38
0.50049049 -0.057433337 1.723 -2.6902063e+38
0.50377244 -0.057433337 1.723 -2.6501737e+38
0.50705433 -0.057433337 1.723 -2.6103485e+38
0.51033622 -0.057433337 1.723 -2.5569198e+38
0.51361811 -0.057433337 1.723 -2.5168874e+38
0.51690006 -0.057433337 1.723 -2.476698e+38
0.52018195 -0.057433337 1.723 -2.4764374e+38
0.52346385 -0.057433337 1.723 -2.4628328e+38
0.52674574 -0.057433337 1.723 -2.4227474e+38
0.53002763 -0.057433337 1.723 -2.3827144e+38
0.53330958 -0.057433337 1.723 -2.3427854e+38
0.53659147 -0.057433337 1.723 -2.289564e+38
0.54269338 -0.057733338 1.7320001 -2.2628754e+38
0.54882956 -0.058033336 1.7410001 -2.2362393e+38
0.55214578 -0.058033336 1.7410001 -2.2227919e+38
0.55546194 -0.058033336 1.7410001 -2.1963637e+38
0.56166673 -0.058333337 1.7500001 -2.276222e+38
0.56500006 -0.058333337 1.7500001 -2.3561844e+38
0.56833339 -0.058333337 1.7500001 -2.4227507e+38
0.57166672 -0.058333337 1.7500001 -2.4758139e+38
0.57795715 -0.058633339 1.7590001 -2.1291743e+38
0.58130765 -0.058633339 1.7590001 -1.7845166e+38
0.58465815 -0.058633339 1.7590001 -3.1465668e+38
0.59101719 -0.058933336 1.7680001 nan
0.60043621 -0.059533339 1.7860001 nan
0.33183336 -0.060500003 1.9250001 -2.7049076e+38
0.33375716 -0.060185719 1.9150001 -3.1044534e+38
0.33740479 -0.060185719 1.9150001 -2.9709059e+38
0.34105241 -0.060185719 1.9150001 -2.8242223e+38
0.34272003 -0.059840005 1.904 -2.7842402e+38
0.34634668 -0.059840005 1.904 -2.7439989e+38
0.34997335 -0.059840005 1.904 -2.7039651e+38
0.35360003 -0.059840005 1.904 -2.6636722e+38
0.35535049 -0.059525717 1.8940001 -2.6231715e+38
0.35497811 -0.058865719 1.8730001 -2.5961188e+38
0.35854575 -0.058865719 1.8730001 -2.542741e+38
0.36211336 -0.058865719 1.8730001 -2.4892597e+38
0.36568096 -0.058865719 1.8730001 -2.4227456e+38
0.3692486 -0.058865719 1.8730001 -2.3694201e+38
0.37082574 -0.058551431 1.863 -2.3427311e+38
0.37638384 -0.058865719 1.8730001 -2.302594e+38
0.37995145 -0.058865719 1.8730001 -2.2626644e+38
0.38351908 -0.058865719 1.8730001 -2.2093387e+38
0.38708669 -0.058865719 1.8730001 -2.1826493e+38
0.39065433 -0.058865719 1.8730001 -2.1425644e+38
0.39211717 -0.058551431 1.863 -2.0761026e+38
0.39566574 -0.058551431 1.863 -2.0228292e+38
0.3992143 -0.058551431 1.863 -1.9961404e+38
0.40276289 -0.058551431 1.863 -1.9827441e+38
0.40631145 -0.058551431 1.863 -1.9693477e+38
0.40986001 -0.058551431 1.863 -1.9691916e+38
0.41562766 -0.058865719 1.8730001 -1.9560544e+38
0.41919526 -0.058865719 1.8730001 -1.9427614e+38
0.42276287 -0.058865719 1.8730001 -1.9692932e+38
0.42633051 -0.058865719 1.8730001 -2.0092211e+38
0.42989811 -0.058865719 1.8730001 -2.0489414e+38
0.43346575 -0.058865719 1.8730001 -2.1020054e+38
0.43703336 -0.058865719 1.8730001 -2.1414136e+38
0.4382486 -0.058551431 1.863 -2.1810387e+38
0.43942574 -0.058237147 1.853 -2.1028506e+38
0.44295526 -0.058237147 1.853 -2.0240867e+38
0.44407526 -0.057922862 1.8430001 -2.0911223e+38
0.43811432 -0.056697145 1.8040001 -2.1577391e+38
0.43494195 -0.055848576 1.7770001 -2.2907653e+38
0.43832669 -0.055848576 1.7770001 -2.4238439e+38
0.43723717 -0.055282861 1.7590001 -2.4638765e+38
0.44058764 -0.055282861 1.7590001 -2.5172533e+38
0.44393814 -0.055282861 1.7590001 -2.5571821e+38
0.44500002 -0.055000003 1.7500001 -2.610455e+38
0.44833335 -0.055000003 1.7500001 -2.6370913e+38
0.45166668 -0.055000003 1.7500001 -2.6504876e+38
0.45266002 -0.054717146 1.7410001 -2.6771241e+38
0.45361906 -0.054434288 1.7320001 -2.7036048e+38
0.45691812 -0.054434288 1.7320001 -2.717001e+38
0.45782575 -0.054151431 1.723 -2.7302932e+38
0.46110764 -0.054151431 1.723 -2.7437932e+38
0.46438956 -0.054151431 1.723 -2.7572928e+38
0.46767145 -0.054151431 1.723 -2.7838769e+38
0.47095338 -0.054151431 1.723 -2.8104613e+38
0.47423527 -0.054151431 1.723 -2.8236493e+38
0.48079908 -0.054151431 1.723 -2.8233382e+38
0.48408097 -0.054151431 1.723 -2.809838e+38
0.48736289 -0.054151431 1.723 -2.7832013e+38
0.49064478 -0.054151431 1.723 -2.7432204e+38
0.4939267 -0.054151431 1.723 -2.7432722e+38
0.50049049 -0.054151431 1.723 -2.6901028e+38
0.50377244 -0.054151431 1.723 -2.6501219e+38
0.50705433 -0.054151431 1.723 -2.5970043e+38
0.51033622 -0.054151431 1.723 -2.5569198e+38
0.51361811 -0.054151431 1.723 -2.5168351e+38
0.51690006 -0.054151431 1.723 -2.490042e+38
0.52018195 -0.054151431 1.723 -2.4763855e+38
0.52346385 -0.054151431 1.723 -2.462781e+38
0.52674574 -0.054151431 1.723 -2.4226959e+38
0.53002763 -0.054151431 1.723 -2.382559e+38
0.53330958 -0.054151431 1.723 -2.3294412e+38
0.53659147 -0.054151431 1.723 -2.2895644e+38
0.54269338 -0.054434288 1.7320001 -2.27622e+38
0.54599243 -0.054434288 1.7320001 -2.2628762e+38
0.55214578 -0.054717146 1.7410001 -2.2628247e+38
0.55546194 -0.054717146 1.7410001 -2.2495851e+38
0.56166673 -0.055000003 1.7500001 -2.3029106e+38
0.56500006 -0.055000003 1.7500001 -2.3695803e+38
0.56833339 -0.055000003 1.7500001 -2.4230097e+38
0.57166672 -0.055000003 1.7500001 -2.4763295e+38
0.57795715 -0.055282861 1.7590001 -2.1421482e+38
0.58130765 -0.055282861 1.7590001 -1.8083999e+38
0.58465815 -0.055282861 1.7590001 -3.2651114e+38
0.59101719 -0.055565719 1.7680001 nan
0.33375716 -0.056538098 1.9150001 -3.1041938e+38
0.33740479 -0.056538098 1.9150001 -2.9839901e+38
0.34105241 -0.056538098 1.9150001 -2.8510146e+38
0.34470001 -0.056538098 1.9150001 -2.811085e+38
0.34634668 -0.056213338 1.904 -2.7576041e+38
0.34997335 -0.056213338 1.904 -2.7309155e+38
0.35360003 -0.056213338 1.904 -2.6901542e+38
0.3572267 -0.056213338 1.904 -2.6493928e+38
0.35687336 -0.055593338 1.8830001 -2.5961707e+38
0.35854575 -0.055298097 1.8730001 -2.542845e+38
0.36211336 -0.055298097 1.8730001 -2.4894155e+38
0.36568096 -0.055298097 1.8730001 -2.43609e+38
0.3692486 -0.055298097 1.8730001 -2.369472e+38
0.37281621 -0.055298097 1.8730001 -2.342783e+38
0.37638384 -0.055298097 1.8730001 -2.3160419e+38
0.37995145 -0.055298097 1.8730001 -2.2760604e+38
0.38351908 -0.055298097 1.8730001 -2.2227349e+38
0.38708669 -0.055298097 1.8730001 -2.1828053e+38
0.39065433 -0.055298097 1.8730001 -2.1294281e+38
0.39211717 -0.055002861 1.863 -2.0762588e+38
0.39566574 -0.055002861 1.863 -2.0095891e+38
0.3992143 -0.055002861 1.863 -2.0094848e+38
0.40276289 -0.055002861 1.863 -1.9960887e+38
0.40631145 -0.055002861 1.863 -2.009225e+38
0.40986001 -0.055002861 1.863 -2.0092244e+38
0.41562766 -0.055298097 1.8730001 -2.022672e+38
0.41919526 -0.055298097 1.8730001 -2.0358077e+38
0.42276287 -0.055298097 1.8730001 -2.0357033e+38
0.42633051 -0.055298097 1.8730001 -2.0224623e+38
0.42989811 -0.055298097 1.8730001 -2.0755272e+38
0.43346575 -0.055298097 1.8730001 -2.1284355e+38
0.43703336 -0.055298097 1.8730001 -2.1278631e+38
0.4382486 -0.055002861 1.863 -2.1283375e+38
0.44179717 -0.055002861 1.863 -2.0632851e+38
0.44295526 -0.054707624 1.853 -1.9978127e+38
0.4464848 -0.054707624 1.853 -2.1049324e+38
0.43811432 -0.053260956 1.8040001 -2.1977705e+38
0.43273908 -0.052198097 1.7680001 -2.3040047e+38
0.43610668 -0.052198097 1.7680001 -2.4106031e+38
0.43723717 -0.051932383 1.7590001 -2.4638767e+38
0.44058764 -0.051932383 1.7590001 -2.517202e+38
0.44393814 -0.051932383 1.7590001 -2.5704232e+38
0.44500002 -0.05166667 1.7500001 -2.623696e+38
0.44833335 -0.05166667 1.7500001 -2.6503842e+38
0.45166668 -0.05166667 1.7500001 -2.6770726e+38
0.45266002 -0.051400956 1.7410001 -2.7170012e+38
0.45361906 -0.051135242 1.7320001 -2.7436379e+38
0.45691812 -0.051135242 1.7320001 -2.7569301e+38
0.45782575 -0.050869528 1.723 -2.757034e+38
0.46110764 -0.050869528 1.723 -2.770534e+38
0.46438956 -0.050869528 1.723 -2.7705855e+38
0.46767145 -0.050869528 1.723 -2.7972217e+38
0.47095338 -0.050869528 1.723 -2.8237538e+38
0.47423527 -0.050869528 1.723 -2.8635783e+38
0.48079908 -0.050869528 1.723 -2.876611e+38
0.48408097 -0.050869528 1.723 -2.8498706e+38
0.48736289 -0.050869528 1.723 -2.809838e+38
0.49064478 -0.050869528 1.723 -2.7566168e+38
0.50049049 -0.050869528 1.723 -2.689999e+38
0.50377244 -0.050869528 1.723 -2.6368814e+38
0.50705433 -0.050869528 1.723 -2.597108e+38
0.51033622 -0.050869528 1.723 -2.543575e+38
0.51361811 -0.050869528 1.723 -2.5167306e+38
0.51690006 -0.050869528 1.723 -2.4899376e+38
0.52018195 -0.050869528 1.723 -2.4762812e+38
0.52346385 -0.050869528 1.723 -2.4494366e+38
0.52674574 -0.050869528 1.723 -2.4093517e+38
0.53002763 -0.050869528 1.723 -2.3693704e+38
0.53330958 -0.050869528 1.723 -2.3294932e+38
0.53659147 -0.050869528 1.723 -2.289564e+38
0.53987336 -0.050869528 1.723 -2.2895638e+38
0.54599243 -0.051135242 1.7320001 -2.2895123e+38
0.55214578 -0.051400956 1.7410001 -2.3026492e+38
0.55546194 -0.051400956 1.7410001 -2.3028575e+38
0.56166673 -0.05166667 1.7500001 -2.3428909e+38
0.56500006 -0.05166667 1.7500001 -2.3698915e+38
0.56833339 -0.05166667 1.7500001 -2.4232689e+38
0.57460672 -0.051932383 1.7590001 -2.4624677e+38
0.57795715 -0.051932383 1.7590001 -2.141477e+38
0.58130765 -0.051932383 1.7590001 -1.8249674e+38
0.58166671 -0.05166667 1.7500001 -3.4012057e+38
0.58800858 -0.051932383 1.7590001 nan
0.33740479 -0.05289048 1.9150001 -2.9576647e+38
0.34105241 -0.05289048 1.9150001 -2.837878e+38
0.34470001 -0.05289048 1.9150001 -2.797845e+38
0.34834763 -0.05289048 1.9150001 -2.7443652e+38
0.34997335 -0.052586671 1.904 -2.717418e+38
0.35360003 -0.052586671 1.904 -2.7032919e+38
0.3572267 -0.052586671 1.904 -2.6497043e+38
0.35497811 -0.05173048 1.8730001 -2.5962748e+38
0.35854575 -0.05173048 1.8730001 -2.5429491e+38
0.36211336 -0.05173048 1.8730001 -2.4894157e+38
0.36568096 -0.05173048 1.8730001 -2.4361419e+38
0.3692486 -0.05173048 1.8730001 -2.3960568e+38
0.37281621 -0.05173048 1.8730001 -2.342783e+38
0.37638384 -0.05173048 1.8730001 -2.3028015e+38
0.37995145 -0.05173048 1.8730001 -2.2628198e+38
0.38351908 -0.05173048 1.8730001 -2.2227349e+38
0.38708669 -0.05173048 1.8730001 -2.1828055e+38
0.39065433 -0.05173048 1.8730001 -2.1427208e+38
0.39422193 -0.05173048 1.8730001 -2.0894993e+38
0.39778954 -0.05173048 1.8730001 -2.0494663e+38
0.3992143 -0.051454291 1.863 -2.0361215e+38
0.40276289 -0.051454291 1.863 -2.0227254e+38
0.40631145 -0.051454291 1.863 -2.0359138e+38
0.40986001 -0.051454291 1.863 -2.0491535e+38
0.41562766 -0.05173048 1.8730001 -2.0358607e+38
0.41919526 -0.05173048 1.8730001 -2.022516e+38
0.42276287 -0.05173048 1.8730001 -2.0091712e+38
0.42633051 -0.05173048 1.8730001 -1.9825865e+38
0.42989811 -0.05173048 1.8730001 -2.0357033e+38
0.43346575 -0.05173048 1.8730001 -2.0887675e+38
0.43703336 -0.05173048 1.8730001 -2.1413643e+38
0.44060099 -0.05173048 1.8730001 -2.1810397e+38
0.44179717 -0.051454291 1.863 -2.0898693e+38
0.44534573 -0.051454291 1.863 -2.0115195e+38
0.44889432 -0.051454291 1.863 -2.1179636e+38
0.43811432 -0.049824767 1.8040001 -2.2243019e+38
0.43714479 -0.049327623 1.7860001 -2.3307438e+38
0.43832669 -0.049079049 1.7770001 -2.4239988e+38
0.43723717 -0.048581909 1.7590001 -2.4905134e+38
0.44058764 -0.048581909 1.7590001 -2.5438389e+38
0.44393814 -0.048581909 1.7590001 -2.5970605e+38
0.44500002 -0.048333336 1.7500001 -2.6369372e+38
0.44833335 -0.048333336 1.7500001 -2.6770213e+38
0.45166668 -0.048333336 1.7500001 -2.7037095e+38
0.45032004 -0.047836192 1.7320001 -2.7171052e+38
0.45361906 -0.047836192 1.7320001 -2.7437938e+38
0.45454383 -0.047587622 1.723 -2.743794e+38
0.45782575 -0.047587622 1.723 -2.7570863e+38
0.46110764 -0.047587622 1.723 -2.7705342e+38
0.46438956 -0.047587622 1.723 -2.7838784e+38
0.46767145 -0.047587622 1.723 -2.8104627e+38
0.47095338 -0.047587622 1.723 -2.8369945e+38
0.47423527 -0.047587622 1.723 -2.8502341e+38
0.47751719 -0.047587622 1.723 -2.8767667e+38
0.48079908 -0.047587622 1.723 -2.8500262e+38
0.48408097 -0.047587622 1.723 -2.823338e+38
0.48736289 -0.047587622 1.723 -2.7833054e+38
0.49064478 -0.047587622 1.723 -2.7566168e+38
0.4939267 -0.047587622 1.723 -2.730032e+38
0.4972086 -0.047587622 1.723 -2.7166357e+38
0.50049049 -0.047587622 1.723 -2.6767586e+38
0.50377244 -0.047587622 1.723 -2.6368812e+38
0.50705433 -0.047587622 1.723 -2.596848e+38
0.51033622 -0.047587622 1.723 -2.5566592e+38
0.51361811 -0.047587622 1.723 -2.5166779e+38
0.51690006 -0.047587622 1.723 -2.4899372e+38
0.52018195 -0.047587622 1.723 -2.4630405e+38
0.52346385 -0.047587622 1.723 -2.4493845e+38
0.52674574 -0.047587622 1.723 -2.4227997e+38
0.53002763 -0.047587622 1.723 -2.4092992e+38
0.53330958 -0.047587622 1.723 -2.3694217e+38
0.53659147 -0.047587622 1.723 -2.3294406e+38
0.53987336 -0.047587622 1.723 -2.3161999e+38
0.54599243 -0.047836192 1.7320001 -2.3028561e+38
0.55214578 -0.048084766 1.7410001 -2.3028043e+38
0.55546194 -0.048084766 1.7410001 -2.302909e+38
0.56166673 -0.048333336 1.7500001 -2.3299098e+38
0.56500006 -0.048333336 1.7500001 -2.3703064e+38
0.56833339 -0.048333336 1.7500001 -2.3435146e+38
0.57460672 -0.048581909 1.7590001 -2.3036891e+38
0.57500005 -0.048333336 1.7500001 -2.2354615e+38
0.57833338 -0.048333336 1.7500001 -2.1552535e+38
0.58166671 -0.048333336 1.7500001 nan
0.34105241 -0.049242862 1.9150001 -2.82469e+38
0.34470001 -0.049242862 1.9150001 -2.7847087e+38
0.34834763 -0.049242862 1.9150001 -2.7312283e+38
0.35199526 -0.049242862 1.9150001 -2.7177287e+38
0.35564288 -0.049242862 1.9150001 -2.7035513e+38
0.3572267 -0.048960004 1.904 -2.6499126e+38
0.36085334 -0.048960004 1.904 -2.5832427e+38
0.36046001 -0.048420005 1.8830001 -2.5432093e+38
0.36211336 -0.048162859 1.8730001 -2.4896757e+38
0.36568096 -0.048162859 1.8730001 -2.4495904e+38
0.3692486 -0.048162859 1.8730001 -2.4094529e+38
0.37281621 -0.048162859 1.8730001 -2.3561272e+38
0.37638384 -0.048162859 1.8730001 -2.2895611e+38
0.37995145 -0.048162859 1.8730001 -2.2495797e+38
0.38351908 -0.048162859 1.8730001 -2.2095466e+38
0.38708669 -0.048162859 1.8730001 -2.1828578e+38
0.39065433 -0.048162859 1.8730001 -2.142825e+38
0.39422193 -0.048162859 1.8730001 -2.1161362e+38
0.39778954 -0.048162859 1.8730001 -2.0894472e+38
0.40135717 -0.048162859 1.8730001 -2.0627582e+38
0.40276289 -0.047905717 1.863 -2.0360696e+38
0.40849242 -0.048162859 1.8730001 -2.062602e+38
0.41206002 -0.048162859 1.8730001 -2.0757898e+38
0.41562766 -0.048162859 1.8730001 -2.0491529e+38
0.41919526 -0.048162859 1.8730001 -2.0092757e+38
0.42276287 -0.048162859 1.8730001 -1.9825867e+38
0.42633051 -0.048162859 1.8730001 -1.9427096e+38
0.42989811 -0.048162859 1.8730001 -1.9958266e+38
0.43346575 -0.048162859 1.8730001 -2.048787e+38
0.43703336 -0.048162859 1.8730001 -2.1412608e+38
0.44060099 -0.048162859 1.8730001 -2.2349366e+38
0.4441686 -0.048162859 1.8730001 -2.1301627e+38
0.44773623 -0.048162859 1.8730001 -2.0110009e+38
0.45130384 -0.048162859 1.8730001 -2.1309965e+38
0.43592861 -0.046157148 1.7950001 -2.2508347e+38
0.43494195 -0.045694288 1.7770001 -2.3440365e+38
0.43832669 -0.045694288 1.7770001 -2.4372911e+38
0.43723717 -0.045231432 1.7590001 -2.5038057e+38
0.44058764 -0.045231432 1.7590001 -2.5703713e+38
0.44393814 -0.045231432 1.7590001 -2.6103524e+38
0.44500002 -0.045000002 1.7500001 -2.6504369e+38
0.44833335 -0.045000002 1.7500001 -2.6904695e+38
0.45166668 -0.045000002 1.7500001 -2.7303462e+38
0.45032004 -0.044537146 1.7320001 -2.7303979e+38
0.45361906 -0.044537146 1.7320001 -2.7306577e+38
0.45454383 -0.044305716 1.723 -2.7440021e+38
0.45782575 -0.044305716 1.723 -2.7573461e+38
0.46110764 -0.044305716 1.723 -2.7706901e+38
0.46438956 -0.044305716 1.723 -2.783982e+38
0.46767145 -0.044305716 1.723 -2.8105142e+38
0.47095338 -0.044305716 1.723 -2.8370463e+38
0.47423527 -0.044305716 1.723 -2.8502341e+38
0.47751719 -0.044305716 1.723 -2.8501302e+38
0.48079908 -0.044305716 1.723 -2.823338e+38
0.48408097 -0.044305716 1.723 -2.7967015e+38
0.48736289 -0.044305716 1.723 -2.770065e+38
0.49064478 -0.044305716 1.723 -2.7434281e+38
0.4939267 -0.044305716 1.723 -2.7168953e+38
0.4972086 -0.044305716 1.723 -2.6901546e+38
0.50049049 -0.044305716 1.723 -2.6634659e+38
0.50377244 -0.044305716 1.723 -2.6367771e+38
0.50705433 -0.044305716 1.723 -2.5967958e+38
0.51033622 -0.044305716 1.723 -2.5567109e+38
0.51361811 -0.044305716 1.723 -2.5167296e+38
0.51690006 -0.044305716 1.723 -2.4766449e+38
0.52018195 -0.044305716 1.723 -2.4631445e+38
0.52346385 -0.044305716 1.723 -2.4498001e+38
0.52674574 -0.044305716 1.723 -2.4496962e+38
0.53002763 -0.044305716 1.723 -2.4360916e+38
0.53330958 -0.044305716 1.723 -2.4093505e+38
0.53659147 -0.044305716 1.723 -2.3693694e+38
0.53987336 -0.044305716 1.723 -2.3428365e+38
0.54599243 -0.044537146 1.7320001 -2.3161483e+38
0.55214578 -0.044768576 1.7410001 -2.3027526e+38
0.55546194 -0.044768576 1.7410001 -2.2898244e+38
0.56166673 -0.045000002 1.7500001 -2.3300655e+38
0.56790572 -0.045231432 1.7590001 -2.3699939e+38
0.57125622 -0.045231432 1.7590001 -2.2633958e+38
0.57460672 -0.045231432 1.7590001 -2.1430907e+38
0.57795715 -0.045231432 1.7590001 -2.3147487e+38
0.57833338 -0.045000002 1.7500001 -2.4916117e+38
0.58166671 -0.045000002 1.7500001 nan
0.33740479 -0.04559524 1.9150001 -2.9579256e+38
0.34105241 -0.04559524 1.9150001 -3.0509707e+38
0.34272003 -0.045333337 1.904 -2.9176836e+38
0.34634668 -0.045333337 1.904 -2.7844491e+38
0.35199526 -0.04559524 1.9150001 -2.7440526e+38
0.35564288 -0.04559524 1.9150001 -2.7033955e+38
0.3572267 -0.045333337 1.904 -2.6501729e+38
0.36085334 -0.045333337 1.904 -2.6100875e+38
0.36046001 -0.044833336 1.8830001 -2.556606e+38
0.36211336 -0.044595242 1.8730001 -2.5163647e+38
0.36568096 -0.044595242 1.8730001 -2.4629867e+38
0.3692486 -0.044595242 1.8730001 -2.4227973e+38
0.37281621 -0.044595242 1.8730001 -2.3695233e+38
0.37638384 -0.044595242 1.8730001 -2.3294382e+38
0.37995145 -0.044595242 1.8730001 -2.2762163e+38
0.38351908 -0.044595242 1.8730001 -2.2228912e+38
0.38708669 -0.044595242 1.8730001 -2.2094947e+38
0.39065433 -0.044595242 1.8730001 -2.1827023e+38
0.39422193 -0.044595242 1.8730001 -2.1560654e+38
0.39778954 -0.044595242 1.8730001 -2.1426165e+38
0.40135717 -0.044595242 1.8730001 -2.1159792e+38
0.40492478 -0.044595242 1.8730001 -2.0892904e+38
0.40849242 -0.044595242 1.8730001 -2.0626016e+38
0.41206002 -0.044595242 1.8730001 -2.0358611e+38
0.41562766 -0.044595242 1.8730001 -1.9960357e+38
0.41919526 -0.044595242 1.8730001 -1.9561585e+38
0.42276287 -0.044595242 1.8730001 -1.9427618e+38
0.42633051 -0.044595242 1.8730001 -1.9161251e+38
0.42989811 -0.044595242 1.8730001 -1.9825343e+38
0.43346575 -0.044595242 1.8730001 -2.0356507e+38
0.43703336 -0.044595242 1.8730001 -2.1283324e+38
0.44060099 -0.044595242 1.8730001 -2.208197e+38
0.4441686 -0.044595242 1.8730001 -2.142937e+38
0.44773623 -0.044595242 1.8730001 -2.0637035e+38
0.45636383 -0.045095243 1.8940001 -2.1706137e+38
0.43374288 -0.042523813 1.7860001 -2.2773156e+38
0.43494195 -0.042309526 1.7770001 -2.3706212e+38
0.43832669 -0.042309526 1.7770001 -2.4639278e+38
0.43723717 -0.041880954 1.7590001 -2.5171497e+38
0.44058764 -0.041880954 1.7590001 -2.5836634e+38
0.44393814 -0.041880954 1.7590001 -2.6238e+38
0.44500002 -0.041666668 1.7500001 -2.6773328e+38
0.44833335 -0.041666668 1.7500001 -2.7037099e+38
0.44934383 -0.041452385 1.7410001 -2.7302945e+38
0.45032004 -0.041238099 1.7320001 -2.7305541e+38
0.45361906 -0.041238099 1.7320001 -2.74421e+38
0.45454383 -0.041023813 1.723 -2.7574504e+38
0.45782575 -0.041023813 1.723 -2.7707944e+38
0.46110764 -0.041023813 1.723 -2.7840863e+38
0.46438956 -0.041023813 1.723 -2.797326e+38
0.46767145 -0.041023813 1.723 -2.8105657e+38
0.47095338 -0.041023813 1.723 -2.8370461e+38
0.47423527 -0.041023813 1.723 -2.8369416e+38
