# .PCD v0.7 - Point Cloud Data file format
VERSION 0.7
FIELDS x y z rgb
SIZE 4 4 4 4
TYPE F F F F
COUNT 1 1 1 1
WIDTH 1052
HEIGHT 1
VIEWPOINT 0 0 0 1 0 0 0
POINTS 1052
DATA ascii
1.9484421 -0.63484305 1.0942187 -2.9435409e+38
1.9484255 -0.63819349 1.0942187 -2.9169044e+38
1.9484088 -0.64154392 1.0942187 -2.8770269e+38
1.9483923 -0.64489436 1.0942187 -2.810409e+38
1.9483756 -0.64824474 1.0942187 -2.7569281e+38
1.948359 -0.65159523 1.0942187 -2.6905701e+38
1.9483423 -0.65494567 1.0942187 -2.6375568e+38
1.9483258 -0.65829605 1.0942187 -2.6236412e+38
1.9483091 -0.66164654 1.0942187 -2.5967443e+38
1.9482925 -0.66499698 1.0942187 -2.5830878e+38
1.9572608 -0.67140061 1.0934731 -2.5828263e+38
1.9572442 -0.67476815 1.0934731 -2.2096539e+38
1.9572273 -0.67813569 1.0934731 -1.8497825e+38
1.9572107 -0.68150336 1.0934731 -2.7164872e+38
1.957194 -0.6848709 1.0934731 nan
1.9571773 -0.68823844 1.0934731 nan
1.9571606 -0.69160604 1.0934731 nan
1.9571438 -0.69497365 1.0934731 nan
2.1481836 -0.48598215 1.0740007 -2.7285222e+38
2.148165 -0.48971164 1.0740007 -2.1974571e+38
2.1371582 -0.49107128 1.0749331 -2.3983503e+38
2.1371398 -0.49477983 1.0749331 -2.5844418e+38
2.1371214 -0.49848834 1.0749331 -2.6242665e+38
2.1261148 -0.4997642 1.0758654 -2.6638836e+38
2.1151087 -0.50099814 1.0767978 -2.7036046e+38
2.1150904 -0.50466478 1.0767978 -2.7300849e+38
2.1050835 -0.50606275 1.0776454 -2.7034483e+38
2.1050653 -0.50971037 1.0776454 -2.6767592e+38
2.1050472 -0.51335794 1.0776454 -2.6367262e+38
2.1050291 -0.5170055 1.0776454 -2.5966926e+38
2.0940235 -0.51807374 1.0785778 -2.5831916e+38
2.1049929 -0.52430063 1.0776454 -2.5562426e+38
2.0839994 -0.52294403 1.0794255 -2.5029167e+38
2.0839813 -0.5265516 1.0794255 -2.4494346e+38
2.0839634 -0.53015918 1.0794255 -2.4094008e+38
2.0839455 -0.53376675 1.0794255 -2.369315e+38
2.0839276 -0.53737432 1.0794255 -2.3160411e+38
2.0839097 -0.54098189 1.0794255 -2.2626632e+38
2.0838919 -0.54458946 1.0794255 -2.2226813e+38
2.083874 -0.54819703 1.0794255 -2.1693037e+38
2.0838561 -0.5518046 1.0794255 -2.1558031e+38
2.0838382 -0.55541217 1.0794255 -2.1424068e+38
2.0938075 -0.56159317 1.0785778 -2.1423027e+38
2.0937896 -0.56521982 1.0785778 -2.1422506e+38
2.1047575 -0.57171911 1.0776454 -2.1688348e+38
2.1047394 -0.57536668 1.0776454 -2.1822317e+38
2.1147082 -0.58166385 1.0767978 -2.1690439e+38
2.1146901 -0.58533055 1.0767978 -2.1425112e+38
2.1146719 -0.58899713 1.0767978 -1.9294192e+38
2.1146536 -0.59266376 1.0767978 -1.7163882e+38
2.1146355 -0.59633034 1.0767978 -2.2375998e+38
2.1146171 -0.59999698 1.0767978 -2.7585395e+38
2.1046126 -0.6008997 1.0776454 -2.7055747e+38
2.0626521 -0.59285891 1.0812054 -2.6371935e+38
2.0326755 -0.58802056 1.0837483 -2.6626891e+38
2.0136845 -0.58617103 1.0853587 -2.6767098e+38
1.9936953 -0.58396512 1.087054 -2.6906265e+38
1.9846908 -0.58482808 1.0878168 -2.7043346e+38
1.9666994 -0.58306634 1.0893426 -2.7710562e+38
1.9576955 -0.58384359 1.0901054 -2.8377251e+38
1.9576787 -0.58721113 1.0901054 -2.9042902e+38
1.957662 -0.59057868 1.0901054 -2.9574591e+38
1.9576453 -0.59394634 1.0901054 -2.9972836e+38
1.9576286 -0.59731388 1.0901054 -3.0371602e+38
1.9576119 -0.60068142 1.0901054 -3.0371083e+38
1.9486084 -0.60133868 1.0908682 -3.0370564e+38
1.9485918 -0.60468912 1.0908682 -3.0370564e+38
1.9485751 -0.60803956 1.0908682 -3.0370042e+38
1.9485586 -0.61138999 1.0908682 -3.0237116e+38
1.9485419 -0.61474043 1.0908682 -3.0105229e+38
1.9485253 -0.61809087 1.0908682 -2.9707499e+38
1.9485086 -0.6214413 1.0908682 -2.9308727e+38
1.9484921 -0.62479174 1.0908682 -2.9710087e+38
1.9484754 -0.62814218 1.0908682 -3.0106256e+38
1.9484588 -0.63149261 1.0908682 -2.9703851e+38
1.9484421 -0.63484305 1.0908682 -2.9303522e+38
1.9484255 -0.63819349 1.0908682 -2.8904233e+38
1.9484088 -0.64154392 1.0908682 -2.850286e+38
1.9483923 -0.64489436 1.0908682 -2.783668e+38
1.9483756 -0.64824474 1.0908682 -2.7171541e+38
1.948359 -0.65159523 1.0908682 -2.6641399e+38
1.9483423 -0.65494567 1.0908682 -2.6103995e+38
1.9483258 -0.65829605 1.0908682 -2.5964837e+38
1.9572942 -0.6646654 1.0901054 -2.5829831e+38
1.9572775 -0.668033 1.0901054 -2.5694306e+38
1.9572608 -0.67140061 1.0901054 -2.555825e+38
1.9572442 -0.67476815 1.0901054 -2.1961006e+38
1.9572273 -0.67813569 1.0901054 -1.8372673e+38
1.9572107 -0.68150336 1.0901054 -2.7556351e+38
1.957194 -0.6848709 1.0901054 nan
1.9571773 -0.68823844 1.0901054 nan
1.9661449 -0.69476217 1.0893426 nan
1.9571438 -0.69497365 1.0901054 nan
2.1591721 -0.48831007 1.0693178 -3.0357528e+38
2.148165 -0.48971164 1.0702711 -2.0100693e+38
2.1481464 -0.4934411 1.0702711 -2.3313715e+38
2.148128 -0.4971706 1.0702711 -2.6379241e+38
2.1371214 -0.49848834 1.0712245 -2.6642482e+38
2.1261148 -0.4997642 1.0721778 -2.6773843e+38
2.1151087 -0.50099814 1.0731311 -2.7037087e+38
2.1150904 -0.50466478 1.0731311 -2.7167929e+38
2.1050835 -0.50606275 1.0739979 -2.690156e+38
2.1050653 -0.50971037 1.0739979 -2.6634668e+38
2.1050472 -0.51335794 1.0739979 -2.623537e+38
2.1050291 -0.5170055 1.0739979 -2.5968997e+38
2.0940235 -0.51807374 1.0749512 -2.5698468e+38
2.0940056 -0.52170038 1.0749512 -2.5562422e+38
2.0839994 -0.52294403 1.0758178 -2.5028644e+38
2.0839813 -0.5265516 1.0758178 -2.4627265e+38
2.0839634 -0.53015918 1.0758178 -2.4094002e+38
2.0839455 -0.53376675 1.0758178 -2.3693148e+38
2.0839276 -0.53737432 1.0758178 -2.3159889e+38
2.0839097 -0.54098189 1.0758178 -2.2626111e+38
2.0838919 -0.54458946 1.0758178 -2.2093369e+38
2.083874 -0.54819703 1.0758178 -2.1559595e+38
2.0938435 -0.55433995 1.0749512 -2.1159263e+38
2.0938256 -0.55796659 1.0749512 -2.0892375e+38
2.0938075 -0.56159317 1.0749512 -2.0890811e+38
2.1047757 -0.56807148 1.0739979 -2.1023212e+38
2.1047575 -0.57171911 1.0739979 -2.115665e+38
2.1047394 -0.57536668 1.0739979 -2.1423549e+38
2.1147082 -0.58166385 1.0731311 -2.1158754e+38
2.1146901 -0.58533055 1.0731311 -2.0894979e+38
2.1146719 -0.58899713 1.0731311 -1.9152957e+38
2.1146536 -0.59266376 1.0731311 -1.7414175e+38
2.1146355 -0.59633034 1.0731311 -2.7979059e+38
2.1146171 -0.59999698 1.0731311 nan
2.1046126 -0.6008997 1.0739979 nan
2.0726383 -0.59564185 1.0767711 -3.1149351e+38
2.0326755 -0.58802056 1.0802379 -2.7291495e+38
2.0136845 -0.58617103 1.0818845 -2.3315257e+38
2.0036814 -0.58680516 1.0827512 -2.5179311e+38
1.9936782 -0.58740127 1.0836178 -2.7046465e+38
1.9846739 -0.58824706 1.0843978 -2.7578678e+38
1.9666826 -0.58645105 1.0859578 -2.8245886e+38
1.9576787 -0.58721113 1.0867379 -2.8909977e+38
1.957662 -0.59057868 1.0867379 -2.9574589e+38
1.9576453 -0.59394634 1.0867379 -2.9972317e+38
1.9576286 -0.59731388 1.0867379 -3.0370562e+38
1.9576119 -0.60068142 1.0867379 -3.0371075e+38
1.9486084 -0.60133868 1.0875179 -3.0502961e+38
1.9485918 -0.60468912 1.0875179 -3.0504002e+38
1.9485751 -0.60803956 1.0875179 -3.0503482e+38
1.9485586 -0.61138999 1.0875179 -3.0238673e+38
1.9485419 -0.61474043 1.0875179 -2.9974905e+38
1.9485253 -0.61809087 1.0875179 -2.9575617e+38
1.9485086 -0.6214413 1.0875179 -2.9311848e+38
1.9484921 -0.62479174 1.0875179 -2.9443731e+38
1.9484754 -0.62814218 1.0875179 -2.9708012e+38
1.9484588 -0.63149261 1.0875179 -2.9305082e+38
1.9484421 -0.63484305 1.0875179 -2.8903714e+38
1.9484255 -0.63819349 1.0875179 -2.8502864e+38
1.9484088 -0.64154392 1.0875179 -2.8233895e+38
1.9483923 -0.64489436 1.0875179 -2.7569271e+38
1.9483756 -0.64824474 1.0875179 -2.703757e+38
1.948359 -0.65159523 1.0875179 -2.6635154e+38
1.9483423 -0.65494567 1.0875179 -2.623067e+38
1.9483258 -0.65829605 1.0875179 -2.6095145e+38
1.9572942 -0.6646654 1.0867379 -2.5959103e+38
1.9572775 -0.668033 1.0867379 -2.5825657e+38
1.9572608 -0.67140061 1.0867379 -2.5691158e+38
1.9572442 -0.67476815 1.0867379 -2.3292816e+38
1.9572273 -0.67813569 1.0867379 -2.0760594e+38
1.9661953 -0.68460798 1.0859578 -2.4768587e+38
1.9661785 -0.68799269 1.0859578 -2.8661882e+38
1.9661617 -0.69137746 1.0859578 nan
1.9661449 -0.69476217 1.0859578 nan
1.9661281 -0.69814688 1.0859578 nan
2.1481836 -0.48598215 1.0665417 -3.3405932e+38
2.148165 -0.48971164 1.0665417 -1.8249646e+38
2.1371582 -0.49107128 1.0675159 -2.2658973e+38
2.1371398 -0.49477983 1.0675159 -2.6909896e+38
2.1371214 -0.49848834 1.0675159 -2.6908847e+38
2.1151268 -0.49733153 1.0694644 -2.6906243e+38
2.1151087 -0.50099814 1.0694644 -2.7037602e+38
2.1150904 -0.50466478 1.0694644 -2.7036038e+38
2.1050835 -0.50606275 1.0703502 -2.676915e+38
2.1050653 -0.50971037 1.0703502 -2.6369856e+38
2.1050472 -0.51335794 1.0703502 -2.623641e+38
2.1050291 -0.5170055 1.0703502 -2.596692e+38
2.0940235 -0.51807374 1.0713245 -2.5696393e+38
2.0940056 -0.52170038 1.0713245 -2.5429497e+38
2.0939875 -0.52532697 1.0713245 -2.5028642e+38
2.0939696 -0.52895361 1.0713245 -2.4628303e+38
2.0839634 -0.53015918 1.0722102 -2.4095042e+38
2.0839455 -0.53376675 1.0722102 -2.3560745e+38
2.0839276 -0.53737432 1.0722102 -2.3027486e+38
2.0839097 -0.54098189 1.0722102 -2.2493188e+38
2.0838919 -0.54458946 1.0722102 -2.1959927e+38
2.0938616 -0.55071336 1.0713245 -2.142667e+38
2.0938435 -0.55433995 1.0713245 -2.0893415e+38
2.0938256 -0.55796659 1.0713245 -2.0227239e+38
2.1047938 -0.56442398 1.0703502 -2.0358083e+38
2.1047757 -0.56807148 1.0703502 -2.0491527e+38
2.1047575 -0.57171911 1.0703502 -2.0756856e+38
2.1147265 -0.57799721 1.0694644 -2.1024275e+38
2.1147082 -0.58166385 1.0694644 -2.0759486e+38
2.1146901 -0.58533055 1.0694644 -2.0356021e+38
2.1146719 -0.58899713 1.0694644 -1.9008595e+38
2.125639 -0.5956412 1.0684901 -1.7715871e+38
2.1146355 -0.59633034 1.0694644 -3.3485035e+38
2.1146171 -0.59999698 1.0694644 nan
2.1046126 -0.6008997 1.0703502 nan
2.0726383 -0.59564185 1.0731845 nan
2.0426619 -0.59082252 1.0758417 -2.7941007e+38
2.0226719 -0.58870995 1.077613 -1.9847297e+38
2.0036814 -0.58680516 1.0792959 -2.3448198e+38
1.9936782 -0.58740127 1.0801816 -2.6909387e+38
1.9846739 -0.58824706 1.0809788 -2.757712e+38
1.9666826 -0.58645105 1.0825731 -2.8111408e+38
1.9666657 -0.58983582 1.0825731 -2.8777058e+38
1.957662 -0.59057868 1.0833702 -2.9441153e+38
1.9576453 -0.59394634 1.0833702 -2.9971805e+38
1.9576286 -0.59731388 1.0833702 -3.037213e+38
1.9576119 -0.60068142 1.0833702 -3.050557e+38
1.9486084 -0.60133868 1.0841674 -3.0505568e+38
1.9485918 -0.60468912 1.0841674 -3.0505046e+38
1.9485751 -0.60803956 1.0841674 -3.0504523e+38
1.9485586 -0.61138999 1.0841674 -3.010627e+38
1.9485419 -0.61474043 1.0841674 -2.9707501e+38
1.9485253 -0.61809087 1.0841674 -2.9441656e+38
1.9485086 -0.6214413 1.0841674 -2.9176327e+38
1.9484921 -0.62479174 1.0841674 -2.9176845e+38
1.9484754 -0.62814218 1.0841674 -2.9172685e+38
1.9484588 -0.63149261 1.0841674 -2.8903718e+38
1.9484421 -0.63484305 1.0841674 -2.8502345e+38
1.9484255 -0.63819349 1.0841674 -2.8234416e+38
1.9484088 -0.64154392 1.0841674 -2.7833565e+38
1.9483923 -0.64489436 1.0841674 -2.7300827e+38
1.9483756 -0.64824474 1.0841674 -2.676757e+38
1.948359 -0.65159523 1.0841674 -2.6629966e+38
1.9483423 -0.65494567 1.0841674 -2.6360999e+38
1.9483258 -0.65829605 1.0841674 -2.6224955e+38
1.9572942 -0.6646654 1.0833702 -2.5959107e+38
1.9572775 -0.668033 1.0833702 -2.5958588e+38
1.9572608 -0.67140061 1.0833702 -2.5824613e+38
1.9572442 -0.67476815 1.0833702 -2.4492774e+38
1.9662122 -0.68122327 1.0825731 -2.3162562e+38
1.9661953 -0.68460798 1.0825731 -2.1963197e+38
1.9661785 -0.68799269 1.0825731 -2.067717e+38
1.9751463 -0.6945163 1.0817759 nan
1.9751294 -0.69791818 1.0817759 nan
1.9840968 -0.70449328 1.0809788 nan
1.9750956 -0.70472193 1.0817759 nan
2.1481836 -0.48598215 1.0628121 -3.1023712e+38
2.148165 -0.48971164 1.0628121 -1.8499401e+38
2.1481464 -0.4934411 1.0628121 -2.2778399e+38
2.148128 -0.4971706 1.0628121 -2.7040225e+38
2.1371214 -0.49848834 1.0638074 -2.7039172e+38
2.1371028 -0.50219691 1.0638074 -2.7038125e+38
2.1151087 -0.50099814 1.0657978 -2.7037079e+38
2.1150904 -0.50466478 1.0657978 -2.690415e+38
2.1150723 -0.50833142 1.0657978 -2.6636738e+38
2.1050653 -0.50971037 1.0667026 -2.6370374e+38
2.1050472 -0.51335794 1.0667026 -2.6101413e+38
2.1050291 -0.5170055 1.0667026 -2.5832442e+38
2.105011 -0.52065307 1.0667026 -2.556399e+38
2.1049929 -0.52430063 1.0667026 -2.5296574e+38
2.1049747 -0.5279482 1.0667026 -2.4896234e+38
2.0939696 -0.52895361 1.0676978 -2.4495378e+38
2.0939515 -0.5325802 1.0676978 -2.3962119e+38
2.0939336 -0.53620684 1.0676978 -2.3427303e+38
2.0939155 -0.53983349 1.0676978 -2.2894563e+38
2.0938976 -0.54346007 1.0676978 -2.249215e+38
2.0938795 -0.54708672 1.0676978 -2.1959408e+38
2.1048479 -0.55348122 1.0667026 -2.1559074e+38
2.1048298 -0.55712879 1.0667026 -2.1026334e+38
2.1048119 -0.56077635 1.0667026 -2.0625489e+38
2.1047938 -0.56442398 1.0667026 -2.0624967e+38
2.1047757 -0.56807148 1.0667026 -2.0625495e+38
2.1147447 -0.57433063 1.0657978 -2.0890827e+38
2.1147265 -0.57799721 1.0657978 -2.1290137e+38
2.1147082 -0.58166385 1.0657978 -2.0360738e+38
2.1146901 -0.58533055 1.0657978 -1.9564717e+38
2.1146719 -0.58899713 1.0657978 -2.0753189e+38
2.125639 -0.5956412 1.0648025 -2.2089887e+38
2.1146355 -0.59633034 1.0657978 nan
2.1146171 -0.59999698 1.0657978 nan
2.1046126 -0.6008997 1.0667026 nan
2.0726383 -0.59564185 1.0695978 nan
2.0426619 -0.59082252 1.0723121 -2.8348556e+38
2.0326581 -0.59153098 1.0732169 -1.9305716e+38
2.0226548 -0.59220135 1.0741216 -2.3442482e+38
2.0036643 -0.59026045 1.0758407 -2.7572441e+38
1.9936612 -0.59083736 1.0767454 -2.8110369e+38
1.9756697 -0.58905858 1.078374 -2.8776543e+38
1.9756529 -0.59246039 1.078374 -2.9308753e+38
1.9666489 -0.59322053 1.0791883 -2.9973369e+38
1.9666321 -0.59660524 1.0791883 -3.0106294e+38
1.9576286 -0.59731388 1.0800025 -3.0374217e+38
1.9576119 -0.60068142 1.0800025 -3.0507139e+38
1.9486084 -0.60133868 1.0808169 -3.0641616e+38
1.9485918 -0.60468912 1.0808169 -3.0505572e+38
1.9485751 -0.60803956 1.0808169 -3.0371602e+38
1.9485586 -0.61138999 1.0808169 -2.9972306e+38
1.9485419 -0.61474043 1.0808169 -2.95725e+38
1.9485253 -0.61809087 1.0808169 -2.9173212e+38
1.9485086 -0.6214413 1.0808169 -2.8773922e+38
1.9484921 -0.62479174 1.0808169 -2.8772361e+38
1.9484754 -0.62814218 1.0808169 -2.876976e+38
1.9484588 -0.63149261 1.0808169 -2.8502351e+38
1.9484421 -0.63484305 1.0808169 -2.8233901e+38
1.9484255 -0.63819349 1.0808169 -2.7700642e+38
1.9484088 -0.64154392 1.0808169 -2.7166351e+38
1.9483923 -0.64489436 1.0808169 -2.6900499e+38
1.9483756 -0.64824474 1.0808169 -2.649965e+38
1.9573444 -0.65456271 1.0800025 -2.6496528e+38
1.9573277 -0.65793025 1.0800025 -2.6491849e+38
1.957311 -0.66129786 1.0800025 -2.6225995e+38
1.9572942 -0.6646654 1.0800025 -2.6091517e+38
1.9572775 -0.668033 1.0800025 -2.5959633e+38
1.9662458 -0.67445379 1.0791883 -2.5693779e+38
1.966229 -0.6778385 1.0791883 -2.4364541e+38
1.9662122 -0.68122327 1.0791883 -2.2908152e+38
1.9661953 -0.68460798 1.0791883 -2.1571706e+38
1.9751632 -0.69111449 1.078374 -2.0121596e+38
1.9751463 -0.6945163 1.078374 nan
1.9841138 -0.7010743 1.0775597 nan
1.9840968 -0.70449328 1.0775597 nan
1.9750956 -0.70472193 1.078374 nan
2.1482019 -0.48225269 1.0590825 nan
2.1481836 -0.48598215 1.0590825 -2.8731806e+38
2.148165 -0.48971164 1.0590825 -1.8640613e+38
2.1481464 -0.4934411 1.0590825 -2.291391e+38
2.148128 -0.4971706 1.0590825 -2.7170024e+38
2.1371214 -0.49848834 1.0600988 -2.7168975e+38
2.1371028 -0.50219691 1.0600988 -2.7170004e+38
2.1260967 -0.50345176 1.0611149 -2.7036034e+38
2.1150904 -0.50466478 1.0621312 -2.6769144e+38
2.1150723 -0.50833142 1.0621312 -2.6502252e+38
2.1050653 -0.50971037 1.0630549 -2.6234329e+38
2.1050472 -0.51335794 1.0630549 -2.5965888e+38
2.1050291 -0.5170055 1.0630549 -2.5698474e+38
2.105011 -0.52065307 1.0630549 -2.5430542e+38
2.1049929 -0.52430063 1.0630549 -2.503124e+38
2.1049747 -0.5279482 1.0630549 -2.463194e+38
2.1049566 -0.53159577 1.0630549 -2.4230565e+38
2.1049385 -0.53524333 1.0630549 -2.3697308e+38
2.0939336 -0.53620684 1.0640712 -2.316353e+38
2.0939155 -0.53983349 1.0640712 -2.2896117e+38
2.0938976 -0.54346007 1.0640712 -2.2493703e+38
2.104866 -0.54983366 1.0630549 -2.2092848e+38
2.1048479 -0.55348122 1.0630549 -2.1559591e+38
2.1048298 -0.55712879 1.0630549 -2.1292699e+38
2.1048119 -0.56077635 1.0630549 -2.1025295e+38
2.1047938 -0.56442398 1.0630549 -2.0891334e+38
2.1147628 -0.57066399 1.0621312 -2.0625497e+38
2.1147447 -0.57433063 1.0621312 -2.1023752e+38
2.1147265 -0.57799721 1.0621312 -2.1423048e+38
2.1147082 -0.58166385 1.0621312 -2.0093309e+38
2.1256757 -0.58826602 1.0611149 -1.8631133e+38
2.1146719 -0.58899713 1.0621312 -2.2614641e+38
2.125639 -0.5956412 1.0611149 -2.6507499e+38
2.1146355 -0.59633034 1.0621312 nan
2.1146171 -0.59999698 1.0621312 nan
2.1046126 -0.6008997 1.0630549 nan
2.0726383 -0.59564185 1.0660112 nan
2.0426619 -0.59082252 1.0687826 -2.87193e+38
2.0326581 -0.59153098 1.0697064 -1.8772991e+38
2.0226548 -0.59220135 1.0706302 -2.3442997e+38
2.0036643 -0.59026045 1.0723854 -2.8105171e+38
1.9936612 -0.59083736 1.0733092 -2.8780179e+38
1.9756697 -0.58905858 1.0749722 -2.9442717e+38
1.9756529 -0.59246039 1.0749722 -2.9973888e+38
1.9666489 -0.59322053 1.0758035 -3.0372657e+38
1.9666321 -0.59660524 1.0758035 -3.037214e+38
1.9576286 -0.59731388 1.0766349 -3.0240255e+38
1.9576119 -0.60068142 1.0766349 -3.0507139e+38
1.9575951 -0.60404903 1.0766349 -3.0639016e+38
1.9485918 -0.60468912 1.0774664 -3.0504527e+38
1.9485751 -0.60803956 1.0774664 -3.0238158e+38
1.9485586 -0.61138999 1.0774664 -2.9838347e+38
1.9485419 -0.61474043 1.0774664 -2.94375e+38
1.9485253 -0.61809087 1.0774664 -2.8903732e+38
1.9485086 -0.6214413 1.0774664 -2.8370998e+38
1.9484921 -0.62479174 1.0774664 -2.8367881e+38
1.9484754 -0.62814218 1.0774664 -2.823599e+38
1.9394729 -0.6286279 1.0782979 -2.8101504e+38
1.9484421 -0.63484305 1.0774664 -2.7834092e+38
1.9484255 -0.63819349 1.0774664 -2.7166876e+38
1.9484088 -0.64154392 1.0774664 -2.6502773e+38
1.9483923 -0.64489436 1.0774664 -2.6368806e+38
1.9483756 -0.64824474 1.0774664 -2.6234838e+38
1.9573444 -0.65456271 1.0766349 -2.6364642e+38
1.9573277 -0.65793025 1.0766349 -2.6496524e+38
1.957311 -0.66129786 1.0766349 -2.6361522e+38
1.9572942 -0.6646654 1.0766349 -2.622808e+38
1.9572775 -0.668033 1.0766349 -2.5962235e+38
1.9662458 -0.67445379 1.0758035 -2.5561909e+38
1.966229 -0.6778385 1.0758035 -2.4098202e+38
1.9662122 -0.68122327 1.0758035 -2.2635031e+38
1.9661953 -0.68460798 1.0758035 -2.115992e+38
1.9751632 -0.69111449 1.0749722 -1.960027e+38
1.9751463 -0.6945163 1.0749722 nan
1.9841138 -0.7010743 1.0741407 nan
1.9840968 -0.70449328 1.0741407 nan
1.9750956 -0.70472193 1.0749722 nan
1.9750787 -0.70812374 1.0749722 nan
2.1482019 -0.48225269 1.055353 nan
2.1481836 -0.48598215 1.055353 -3.1955677e+38
2.148165 -0.48971164 1.055353 -2.2360878e+38
2.1481464 -0.4934411 1.055353 -2.4906186e+38
2.148128 -0.4971706 1.055353 -2.7436383e+38
2.1371214 -0.49848834 1.0563902 -2.7437411e+38
2.1371028 -0.50219691 1.0563902 -2.7435845e+38
2.1151087 -0.50099814 1.0584645 -2.7035509e+38
2.1150904 -0.50466478 1.0584645 -2.6767061e+38
2.1150723 -0.50833142 1.0584645 -2.6366208e+38
2.1150541 -0.51199806 1.0584645 -2.6097766e+38
2.1050472 -0.51335794 1.0594074 -2.583192e+38
2.1050291 -0.5170055 1.0594074 -2.5565026e+38
2.105011 -0.52065307 1.0594074 -2.5165207e+38
2.1049929 -0.52430063 1.0594074 -2.4765907e+38
2.1049747 -0.5279482 1.0594074 -2.4365569e+38
2.1049566 -0.53159577 1.0594074 -2.4097638e+38
2.1049385 -0.53524333 1.0594074 -2.3564379e+38
2.1049204 -0.5388909 1.0594074 -2.3031642e+38
2.1049023 -0.54253852 1.0594074 -2.2762151e+38
2.1048841 -0.54618609 1.0594074 -2.2627141e+38
2.104866 -0.54983366 1.0594074 -2.2092325e+38
2.1048479 -0.55348122 1.0594074 -2.1691473e+38
2.1048298 -0.55712879 1.0594074 -2.14251e+38
2.1048119 -0.56077635 1.0594074 -2.1291141e+38
2.1047938 -0.56442398 1.0594074 -2.1157182e+38
2.1147628 -0.57066399 1.0584645 -2.1024267e+38
2.1147447 -0.57433063 1.0584645 -2.1157196e+38
2.1147265 -0.57799721 1.0584645 -2.1423555e+38
2.1147082 -0.58166385 1.0584645 -1.9960879e+38
2.1146901 -0.58533055 1.0584645 -1.8498205e+38
2.1146719 -0.58899713 1.0584645 -2.0759965e+38
2.125639 -0.5956412 1.0574273 -2.3049955e+38
2.1146355 -0.59633034 1.0584645 nan
2.1146171 -0.59999698 1.0584645 nan
2.1046126 -0.6008997 1.0594074 nan
2.0626521 -0.59285891 1.0633674 -3.1448513e+38
2.0326755 -0.58802056 1.066196 -2.5159992e+38
2.0226719 -0.58870995 1.0671388 -1.9043513e+38
2.0136673 -0.58964533 1.0679873 -2.304578e+38
2.0036643 -0.59026045 1.0689301 -2.717419e+38
1.9936612 -0.59083736 1.0698731 -2.8111933e+38
1.9846569 -0.5916661 1.0707216 -2.8911027e+38
1.9756529 -0.59246039 1.0715702 -2.9442197e+38
1.9666489 -0.59322053 1.0724188 -2.9840966e+38
1.9666321 -0.59660524 1.0724188 -2.9973888e+38
1.9576286 -0.59731388 1.0732673 -3.0106811e+38
1.9576119 -0.60068142 1.0732673 -3.0239734e+38
1.9575951 -0.60404903 1.0732673 -3.0371089e+38
1.9485918 -0.60468912 1.0741159 -3.0238156e+38
1.9485751 -0.60803956 1.0741159 -3.0105233e+38
1.9485586 -0.61138999 1.0741159 -2.983627e+38
1.9485419 -0.61474043 1.0741159 -2.9567307e+38
1.9485253 -0.61809087 1.0741159 -2.9035614e+38
1.9395226 -0.61862808 1.0749645 -2.8502363e+38
1.9395061 -0.62196136 1.0749645 -2.850184e+38
1.9484754 -0.62814218 1.0741159 -2.8368911e+38
1.9394729 -0.6286279 1.0749645 -2.8100982e+38
1.9484421 -0.63484305 1.0741159 -2.7700131e+38
1.9484255 -0.63819349 1.0741159 -2.7168953e+38
1.9484088 -0.64154392 1.0741159 -2.6637773e+38
1.9483923 -0.64489436 1.0741159 -2.650484e+38
1.9483756 -0.64824474 1.0741159 -2.6504317e+38
1.9573444 -0.65456271 1.0732673 -2.6368794e+38
1.9573277 -0.65793025 1.0732673 -2.6368278e+38
1.957311 -0.66129786 1.0732673 -2.6231723e+38
1.9572942 -0.6646654 1.0732673 -2.596432e+38
1.9662626 -0.67106909 1.0724188 -2.5696914e+38
1.9662458 -0.67445379 1.0724188 -2.543056e+38
1.966229 -0.6778385 1.0724188 -2.4631995e+38
1.9662122 -0.68122327 1.0724188 -2.3835484e+38
1.9661953 -0.68460798 1.0724188 -2.1567996e+38
1.9751632 -0.69111449 1.0715702 -1.9312075e+38
1.9751463 -0.6945163 1.0715702 -3.3462773e+38
1.9841138 -0.7010743 1.0707216 nan
1.9840968 -0.70449328 1.0707216 nan
1.9750956 -0.70472193 1.0715702 nan
1.9750787 -0.70812374 1.0715702 nan
2.1482019 -0.48225269 1.0516236 nan
2.1481836 -0.48598215 1.0516236 nan
2.148165 -0.48971164 1.0516236 -2.5969536e+38
2.1481464 -0.4934411 1.0516236 -2.6912464e+38
2.148128 -0.4971706 1.0516236 -2.7705853e+38
2.1371214 -0.49848834 1.0526816 -2.7707416e+38
2.1371028 -0.50219691 1.0526816 -2.7703772e+38
2.1151087 -0.50099814 1.0547978 -2.7169472e+38
2.1150904 -0.50466478 1.0547978 -2.6634138e+38
2.1150723 -0.50833142 1.0547978 -2.6231208e+38
2.1150541 -0.51199806 1.0547978 -2.5831916e+38
2.1050472 -0.51335794 1.0557597 -2.5697953e+38
2.1050291 -0.5170055 1.0557597 -2.5431578e+38
2.105011 -0.52065307 1.0557597 -2.503228e+38
2.1049929 -0.52430063 1.0557597 -2.4499538e+38
2.1049747 -0.5279482 1.0557597 -2.4232644e+38
2.1049566 -0.53159577 1.0557597 -2.3831791e+38
2.1049385 -0.53524333 1.0557597 -2.3431457e+38
2.1049204 -0.5388909 1.0557597 -2.289664e+38
2.1049023 -0.54253852 1.0557597 -2.2760072e+38
2.1048841 -0.54618609 1.0557597 -2.2625062e+38
2.104866 -0.54983366 1.0557597 -2.2223686e+38
2.1048479 -0.55348122 1.0557597 -2.1823873e+38
2.1148174 -0.55966413 1.0547978 -2.1689907e+38
2.1147993 -0.56333071 1.0547978 -2.1423025e+38
2.1147811 -0.56699735 1.0547978 -2.1421989e+38
2.1147628 -0.57066399 1.0547978 -2.1289076e+38
2.1147447 -0.57433063 1.0547978 -2.1289606e+38
2.1147265 -0.57799721 1.0547978 -2.129065e+38
2.125694 -0.58457845 1.0537397 -1.9828506e+38
2.1256757 -0.58826602 1.0537397 -1.8360633e+38
2.1256573 -0.59195358 1.0537397 -1.8876218e+38
2.125639 -0.5956412 1.0537397 -1.9460522e+38
2.1256208 -0.59932876 1.0537397 nan
2.1146171 -0.59999698 1.0547978 nan
2.114599 -0.60366362 1.0547978 nan
2.0326929 -0.58451015 1.0626855 -2.4112282e+38
2.0226893 -0.58521861 1.0636473 -2.1693633e+38
2.0136845 -0.58617103 1.0645131 -1.9181115e+38
2.0136673 -0.58964533 1.0645131 -2.2787719e+38
1.9936782 -0.58740127 1.0664369 -2.6245801e+38
1.9936612 -0.59083736 1.0664369 -2.7315946e+38
1.9846569 -0.5916661 1.0673026 -2.8378288e+38
1.9756529 -0.59246039 1.0681683 -2.890946e+38
1.975636 -0.59586227 1.0681683 -2.9308749e+38
1.9666321 -0.59660524 1.069034 -2.9574597e+38
1.9576286 -0.59731388 1.0698997 -2.9839921e+38
1.9576119 -0.60068142 1.0698997 -2.9972842e+38
1.9575951 -0.60404903 1.0698997 -3.0105759e+38
1.9485918 -0.60468912 1.0707654 -2.9972308e+38
1.9485751 -0.60803956 1.0707654 -2.9837309e+38
1.9485586 -0.61138999 1.0707654 -2.970179e+38
1.9485419 -0.61474043 1.0707654 -2.9568863e+38
1.9485253 -0.61809087 1.0707654 -2.9169054e+38
1.9485086 -0.6214413 1.0707654 -2.8636322e+38
1.9484921 -0.62479174 1.0707654 -2.8635282e+38
1.9484754 -0.62814218 1.0707654 -2.8501317e+38
1.9394729 -0.6286279 1.0716312 -2.8100984e+38
1.9484421 -0.63484305 1.0707654 -2.7569806e+38
1.9484255 -0.63819349 1.0707654 -2.7171551e+38
1.9484088 -0.64154392 1.0707654 -2.6772255e+38
1.9483923 -0.64489436 1.0707654 -2.6773284e+38
1.9483756 -0.64824474 1.0707654 -2.6637239e+38
1.9573444 -0.65456271 1.0698997 -2.6503793e+38
1.9573277 -0.65793025 1.0698997 -2.6235354e+38
1.957311 -0.66129786 1.0698997 -2.5967433e+38
1.9572942 -0.6646654 1.0698997 -2.569847e+38
1.9572775 -0.668033 1.0698997 -2.556347e+38
1.9662458 -0.67445379 1.069034 -2.5297114e+38
1.966229 -0.6778385 1.069034 -2.5163682e+38
1.9662122 -0.68122327 1.069034 -2.4894711e+38
1.9661953 -0.68460798 1.069034 -2.1964168e+38
1.9751632 -0.69111449 1.0681683 -1.8922634e+38
1.9751463 -0.6945163 1.0681683 -3.1599221e+38
1.9841138 -0.7010743 1.0673026 nan
1.9840968 -0.70449328 1.0673026 nan
1.9840798 -0.70791227 1.0673026 nan
1.9840629 -0.71133125 1.0673026 nan
1.9840459 -0.71475029 1.0673026 nan
2.1482019 -0.48225269 1.047894 nan
2.1481836 -0.48598215 1.047894 -3.1698244e+38
2.148165 -0.48971164 1.047894 -2.2239924e+38
2.1481464 -0.4934411 1.047894 -2.4506846e+38
2.148128 -0.4971706 1.047894 -2.6640383e+38
2.1371214 -0.49848834 1.0489731 -2.677229e+38
2.1371028 -0.50219691 1.0489731 -2.6773835e+38
2.1260967 -0.50345176 1.050052 -2.6503822e+38
2.1150904 -0.50466478 1.0511311 -2.623537e+38
2.1150723 -0.50833142 1.0511311 -2.5833995e+38
2.1150541 -0.51199806 1.0511311 -2.5567105e+38
2.1050472 -0.51335794 1.0521121 -2.5167292e+38
2.1050291 -0.5170055 1.0521121 -2.4766958e+38
2.105011 -0.52065307 1.0521121 -2.4500064e+38
2.1049929 -0.52430063 1.0521121 -2.4233169e+38
2.1049747 -0.5279482 1.0521121 -2.3966794e+38
2.1049566 -0.53159577 1.0521121 -2.3698347e+38
2.1049385 -0.53524333 1.0521121 -2.3296455e+38
2.1049204 -0.5388909 1.0521121 -2.3026964e+38
2.1049023 -0.54253852 1.0521121 -2.2757993e+38
2.1048841 -0.54618609 1.0521121 -2.2622981e+38
2.104866 -0.54983366 1.0521121 -2.208972e+38
2.1048479 -0.55348122 1.0521121 -2.168939e+38
2.1148174 -0.55966413 1.0511311 -2.1423021e+38
2.1147993 -0.56333071 1.0511311 -2.1289581e+38
2.1147811 -0.56699735 1.0511311 -2.1154584e+38
2.1147628 -0.57066399 1.0511311 -2.1022194e+38
2.1147447 -0.57433063 1.0511311 -2.1156687e+38
2.1257122 -0.58089083 1.050052 -2.1291186e+38
2.125694 -0.58457845 1.050052 -2.0626071e+38
2.1256757 -0.58826602 1.050052 -2.0094885e+38
2.1256573 -0.59195358 1.050052 -1.9424024e+38
2.1366243 -0.59861857 1.0489731 -1.8907546e+38
2.1256208 -0.59932876 1.050052 -3.2129884e+38
2.1256025 -0.60301632 1.050052 nan
2.114599 -0.60366362 1.0511311 -3.3163999e+38
2.0227067 -0.58172715 1.0601559 -2.1161983e+38
2.0226893 -0.58521861 1.0601559 -2.1698844e+38
2.0136845 -0.58617103 1.0610387 -2.2238867e+38
2.0036814 -0.58680516 1.0620197 -2.4774807e+38
1.9936782 -0.58740127 1.0630007 -2.73071e+38
1.9936612 -0.59083736 1.0630007 -2.7711589e+38
1.9846569 -0.5916661 1.0638835 -2.8243799e+38
1.9756529 -0.59246039 1.0647664 -2.8643604e+38
1.975636 -0.59586227 1.0647664 -2.9042895e+38
1.9666321 -0.59660524 1.0656493 -2.9307707e+38
1.9576286 -0.59731388 1.0665321 -2.9705954e+38
1.9576119 -0.60068142 1.0665321 -2.9839392e+38
1.9575951 -0.60404903 1.0665321 -2.997283e+38
1.9485918 -0.60468912 1.067415 -2.9971787e+38
1.9485751 -0.60803956 1.067415 -2.9969191e+38
1.9485586 -0.61138999 1.067415 -2.9703865e+38
1.9485419 -0.61474043 1.067415 -2.9571459e+38
1.9485253 -0.61809087 1.067415 -2.9170091e+38
1.9485086 -0.6214413 1.067415 -2.8902168e+38
1.9484921 -0.62479174 1.067415 -2.8768205e+38
1.9484754 -0.62814218 1.067415 -2.863372e+38
1.9394729 -0.6286279 1.0682979 -2.8102544e+38
1.9484421 -0.63484305 1.067415 -2.7704289e+38
1.9484255 -0.63819349 1.067415 -2.7437399e+38
1.9484088 -0.64154392 1.067415 -2.7169987e+38
1.9483923 -0.64489436 1.067415 -2.6903093e+38
1.9483756 -0.64824474 1.067415 -2.6634645e+38
1.9573444 -0.65456271 1.0665321 -2.6501714e+38
1.9573277 -0.65793025 1.0665321 -2.6233794e+38
1.957311 -0.66129786 1.0665321 -2.5965873e+38
1.9572942 -0.6646654 1.0665321 -2.569691e+38
1.9572775 -0.668033 1.0665321 -2.5429505e+38
1.9662458 -0.67445379 1.0656493 -2.529659e+38
1.966229 -0.6778385 1.0656493 -2.5294522e+38
1.9662122 -0.68122327 1.0656493 -2.5291398e+38
1.9661953 -0.68460798 1.0656493 -2.1963647e+38
1.9751632 -0.69111449 1.0647664 -1.8764768e+38
1.9751463 -0.6945163 1.0647664 -2.9981263e+38
1.9841138 -0.7010743 1.0638835 nan
1.9840968 -0.70449328 1.0638835 nan
1.9840798 -0.70791227 1.0638835 nan
1.9750787 -0.70812374 1.0647664 nan
1.9840459 -0.71475029 1.0638835 nan
2.1482019 -0.48225269 1.0441644 nan
2.1481836 -0.48598215 1.0441644 -2.8215207e+38
2.148165 -0.48971164 1.0441644 -1.8511317e+38
2.1481464 -0.4934411 1.0441644 -2.2102302e+38
2.148128 -0.4971706 1.0441644 -2.5567125e+38
2.1371214 -0.49848834 1.0452645 -2.5701612e+38
2.1371028 -0.50219691 1.0452645 -2.5836086e+38
2.1260967 -0.50345176 1.0463644 -2.5836599e+38
2.1150904 -0.50466478 1.0474645 -2.5835038e+38
2.1150723 -0.50833142 1.0474645 -2.556815e+38
2.1150541 -0.51199806 1.0474645 -2.516886e+38
2.1150358 -0.51566464 1.0474645 -2.4637686e+38
2.1150177 -0.51933128 1.0474645 -2.4102865e+38
2.1149995 -0.52299792 1.0474645 -2.396837e+38
2.1149812 -0.5266645 1.0474645 -2.3834916e+38
2.1149631 -0.53033113 1.0474645 -2.370302e+38
2.1049566 -0.53159577 1.0484645 -2.3430935e+38
2.1049385 -0.53524333 1.0484645 -2.3294889e+38
2.1049204 -0.5388909 1.0484645 -2.3024881e+38
2.1049023 -0.54253852 1.0484645 -2.2755391e+38
2.1048841 -0.54618609 1.0484645 -2.248798e+38
2.104866 -0.54983366 1.0484645 -2.1954721e+38
2.1148357 -0.55599749 1.0474645 -2.1421987e+38
2.1148174 -0.55966413 1.0474645 -2.128802e+38
2.1147993 -0.56333071 1.0474645 -2.1020618e+38
2.1147811 -0.56699735 1.0474645 -2.0884584e+38
2.1147628 -0.57066399 1.0474645 -2.0755308e+38
2.1147447 -0.57433063 1.0474645 -2.1022724e+38
2.1147265 -0.57799721 1.0474645 -2.1290147e+38
2.125694 -0.58457845 1.0463644 -2.1554973e+38
2.1256757 -0.58826602 1.0463644 -2.1687356e+38
2.1256573 -0.59195358 1.0463644 -1.9949993e+38
2.125639 -0.5956412 1.0463644 -1.8247062e+38
2.1256208 -0.59932876 1.0463644 -2.9076777e+38
2.1256025 -0.60301632 1.0463644 nan
2.114599 -0.60366362 1.0474645 -2.9011149e+38
2.0137191 -0.57922256 1.0575645 -1.8102659e+38
2.0137019 -0.5826968 1.0575645 -2.1700408e+38
2.0136845 -0.58617103 1.0575645 -2.5296093e+38
2.0036814 -0.58680516 1.0585644 -2.6765015e+38
1.9936782 -0.58740127 1.0595645 -2.8236518e+38
1.9936612 -0.59083736 1.0595645 -2.8111909e+38
1.9846569 -0.5916661 1.0604645 -2.7978464e+38
1.9756529 -0.59246039 1.0613644 -2.8377752e+38
1.975636 -0.59586227 1.0613644 -2.8776005e+38
1.9666321 -0.59660524 1.0622644 -2.917322e+38
1.9576286 -0.59731388 1.0631645 -2.9440102e+38
1.9576119 -0.60068142 1.0631645 -2.9706467e+38
1.9575951 -0.60404903 1.0631645 -2.9839386e+38
1.9485918 -0.60468912 1.0640645 -2.9971787e+38
1.9485751 -0.60803956 1.0640645 -2.9970749e+38
1.9485586 -0.61138999 1.0640645 -2.970542e+38
1.9485419 -0.61474043 1.0640645 -2.9437494e+38
1.9485253 -0.61809087 1.0640645 -2.9302492e+38
1.9485086 -0.6214413 1.0640645 -2.9168529e+38
1.9484921 -0.62479174 1.0640645 -2.9034567e+38
1.9484754 -0.62814218 1.0640645 -2.8767679e+38
1.9484588 -0.63149261 1.0640645 -2.8236505e+38
1.9484421 -0.63484305 1.0640645 -2.7703768e+38
1.9484255 -0.63819349 1.0640645 -2.7703242e+38
1.9484088 -0.64154392 1.0640645 -2.7567717e+38
1.9483923 -0.64489436 1.0640645 -2.7166345e+38
1.9573611 -0.65119511 1.0631645 -2.6635167e+38
1.9573444 -0.65456271 1.0631645 -2.650224e+38
1.9573277 -0.65793025 1.0631645 -2.6232759e+38
1.957311 -0.66129786 1.0631645 -2.596432e+38
1.9572942 -0.6646654 1.0631645 -2.5562953e+38
1.9572775 -0.668033 1.0631645 -2.5426915e+38
1.9662458 -0.67445379 1.0622644 -2.5294516e+38
1.966229 -0.6778385 1.0622644 -2.5425887e+38
1.9662122 -0.68122327 1.0622644 -2.555828e+38
1.9661953 -0.68460798 1.0622644 -2.2099681e+38
1.9661785 -0.68799269 1.0622644 -1.8645333e+38
1.9751463 -0.6945163 1.0613644 -2.8507671e+38
1.9841138 -0.7010743 1.0604645 nan
1.9751126 -0.70131999 1.0613644 nan
1.9750956 -0.70472193 1.0613644 nan
1.9750787 -0.70812374 1.0613644 nan
1.9840459 -0.71475029 1.0604645 nan
2.1482019 -0.48225269 1.040435 nan
2.1481836 -0.48598215 1.040435 -2.7161645e+38
2.148165 -0.48971164 1.040435 -1.8634356e+38
2.1481464 -0.4934411 1.040435 -2.1969387e+38
2.148128 -0.4971706 1.040435 -2.5165753e+38
2.1481094 -0.50090009 1.040435 -2.5432622e+38
2.1371028 -0.50219691 1.0415559 -2.5564509e+38
2.1260967 -0.50345176 1.0426768 -2.5432627e+38
2.1150904 -0.50466478 1.0437979 -2.5300225e+38
2.1150723 -0.50833142 1.0437979 -2.4768015e+38
2.1150541 -0.51199806 1.0437979 -2.4369769e+38
2.1150358 -0.51566464 1.0437979 -2.4102368e+38
2.1150177 -0.51933128 1.0437979 -2.3836504e+38
2.1149995 -0.52299792 1.0437979 -2.3833888e+38
2.1149812 -0.5266645 1.0437979 -2.3834393e+38
2.1149631 -0.53033113 1.0437979 -2.356386e+38
2.1149449 -0.53399777 1.0437979 -2.3426775e+38
2.1049385 -0.53524333 1.0448169 -2.3158323e+38
2.1049204 -0.5388909 1.0448169 -2.3021239e+38
2.1049023 -0.54253852 1.0448169 -2.2620385e+38
2.1048841 -0.54618609 1.0448169 -2.2220572e+38
2.104866 -0.54983366 1.0448169 -2.1420953e+38
2.1048479 -0.55348122 1.0448169 -2.0755294e+38
2.1148174 -0.55966413 1.0437979 -2.0090155e+38
2.1147993 -0.56333071 1.0437979 -1.9555871e+38
2.1147811 -0.56699735 1.0437979 -1.9823796e+38
2.1147628 -0.57066399 1.0437979 -2.009225e+38
2.1147447 -0.57433063 1.0437979 -2.0359146e+38
2.1257122 -0.58089083 1.0426768 -2.0758973e+38
2.125694 -0.58457845 1.0426768 -2.0494186e+38
2.1256757 -0.58826602 1.0426768 -2.0098507e+38
2.1256573 -0.59195358 1.0426768 -2.0486345e+38
2.125639 -0.5956412 1.0426768 -2.0870705e+38
2.1256208 -0.59932876 1.0426768 -3.2651118e+38
2.1256025 -0.60301632 1.0426768 nan
2.1255841 -0.60670388 1.0426768 -3.3821762e+38
2.0037327 -0.57643962 1.0551093 -2.3267414e+38
2.0137019 -0.5826968 1.0540901 -2.3553023e+38
2.0036986 -0.58335 1.0551093 -2.3966868e+38
2.0036814 -0.58680516 1.0551093 -2.5835591e+38
1.9936782 -0.58740127 1.0561283 -2.7705342e+38
1.9936612 -0.59083736 1.0561283 -2.7841382e+38
1.9846569 -0.5916661 1.0570455 -2.8109823e+38
1.9846399 -0.59508508 1.0570455 -2.8642551e+38
1.975636 -0.59586227 1.0579625 -2.9174766e+38
1.9756191 -0.59926414 1.0579625 -2.9440096e+38
1.9666153 -0.59998995 1.0588797 -2.9706463e+38
1.9576119 -0.60068142 1.0597968 -2.9838866e+38
1.9575951 -0.60404903 1.0597968 -2.997127e+38
1.9575784 -0.60741663 1.0597968 -3.0104191e+38
1.9575617 -0.61078417 1.0597968 -3.010315e+38
1.9485586 -0.61138999 1.060714 -2.9837303e+38
1.9485419 -0.61474043 1.060714 -2.9702818e+38
1.9485253 -0.61809087 1.060714 -2.9436449e+38
1.9485086 -0.6214413 1.060714 -2.9169565e+38
1.9484921 -0.62479174 1.060714 -2.8902162e+38
1.9484754 -0.62814218 1.060714 -2.876716e+38
1.9484588 -0.63149261 1.060714 -2.8235465e+38
1.9484421 -0.63484305 1.060714 -2.7835133e+38
1.9484255 -0.63819349 1.060714 -2.7701163e+38
1.9484088 -0.64154392 1.060714 -2.756616e+38
1.9483923 -0.64489436 1.060714 -2.7167385e+38
1.9573611 -0.65119511 1.0597968 -2.6768613e+38
1.9573444 -0.65456271 1.0597968 -2.6499128e+38
1.9573277 -0.65793025 1.0597968 -2.6230167e+38
1.957311 -0.66129786 1.0597968 -2.5829322e+38
1.9572942 -0.6646654 1.0597968 -2.55614e+38
1.9572775 -0.668033 1.0597968 -2.5426919e+38
1.9662458 -0.67445379 1.0588797 -2.5161595e+38
1.966229 -0.6778385 1.0588797 -2.5294e+38
1.9662122 -0.68122327 1.0588797 -2.5296065e+38
1.9572107 -0.68150336 1.0597968 -2.1963637e+38
1.9661785 -0.68799269 1.0588797 -1.8633898e+38
1.9751463 -0.6945163 1.0579625 -2.8109402e+38
1.9751294 -0.69791818 1.0579625 nan
1.9751126 -0.70131999 1.0579625 nan
1.9750956 -0.70472193 1.0579625 nan
1.9750787 -0.70812374 1.0579625 nan
1.9840459 -0.71475029 1.0570455 nan
1.975045 -0.71492749 1.0579625 nan
2.1481836 -0.48598215 1.0367054 -2.6215623e+38
2.148165 -0.48971164 1.0367054 -1.8774554e+38
2.1481464 -0.4934411 1.0367054 -2.1842693e+38
2.148128 -0.4971706 1.0367054 -2.4766463e+38
2.1371214 -0.49848834 1.0378473 -2.5031775e+38
2.1371028 -0.50219691 1.0378473 -2.5297097e+38
2.1260967 -0.50345176 1.0389892 -2.502969e+38
2.1260784 -0.50713938 1.0389892 -2.4631439e+38
2.1150723 -0.50833142 1.0401311 -2.4098709e+38
2.1150541 -0.51199806 1.0401311 -2.3433562e+38
2.1150358 -0.51566464 1.0401311 -2.3564394e+38
2.1150177 -0.51933128 1.0401311 -2.3564911e+38
2.1149995 -0.52299792 1.0401311 -2.3695757e+38
2.1149812 -0.5266645 1.0401311 -2.3694708e+38
2.1149631 -0.53033113 1.0401311 -2.3556585e+38
2.1149449 -0.53399777 1.0401311 -2.3290729e+38
2.1049385 -0.53524333 1.0411693 -2.3155202e+38
2.1149085 -0.54133099 1.0401311 -2.3020194e+38
2.1148903 -0.54499763 1.0401311 -2.248486e+38
2.114872 -0.54866421 1.0401311 -2.1952644e+38
2.104866 -0.54983366 1.0411693 -2.1019065e+38
2.1148357 -0.55599749 1.0401311 -1.9957757e+38
2.1148174 -0.55966413 1.0401311 -1.9026776e+38
2.1147993 -0.56333071 1.0401311 -1.8096838e+38
2.1147811 -0.56699735 1.0401311 -1.8763012e+38
2.1147628 -0.57066399 1.0401311 -1.9295754e+38
2.1147447 -0.57433063 1.0401311 -1.9828497e+38
2.1257122 -0.58089083 1.0389892 -2.022831e+38
2.125694 -0.58457845 1.0389892 -1.9431299e+38
2.1256757 -0.58826602 1.0389892 -1.8500868e+38
2.1256573 -0.59195358 1.0389892 -2.1026948e+38
2.125639 -0.5956412 1.0389892 -2.3453424e+38
2.136606 -0.60232711 1.0378473 nan
2.1365876 -0.60603559 1.0378473 nan
2.136569 -0.60974419 1.0378473 nan
2.0037327 -0.57643962 1.051654 -2.8357433e+38
2.0037158 -0.57989478 1.051654 -2.5543182e+38
2.0036986 -0.58335 1.051654 -2.26319e+38
1.9936953 -0.58396512 1.0526921 -2.4904089e+38
1.9936782 -0.58740127 1.0526921 -2.703657e+38
1.9936612 -0.59083736 1.0526921 -2.7570863e+38
1.9846569 -0.5916661 1.0536264 -2.8107747e+38
1.9846399 -0.59508508 1.0536264 -2.8774957e+38
1.975636 -0.59586227 1.0545607 -2.9439571e+38
1.9756191 -0.59926414 1.0545607 -2.9705416e+38
1.9576286 -0.59731388 1.0564293 -2.983886e+38
1.9576119 -0.60068142 1.0564293 -2.9971264e+38
1.9575951 -0.60404903 1.0564293 -3.0104708e+38
1.9575784 -0.60741663 1.0564293 -3.0238152e+38
1.9575617 -0.61078417 1.0564293 -3.0237112e+38
1.9485586 -0.61138999 1.0573635 -3.0103668e+38
1.9485419 -0.61474043 1.0573635 -2.9836777e+38
1.9485253 -0.61809087 1.0573635 -2.9571447e+38
1.9485086 -0.6214413 1.0573635 -2.91706e+38
1.9484921 -0.62479174 1.0573635 -2.8903714e+38
1.9484754 -0.62814218 1.0573635 -2.8635268e+38
1.9484588 -0.63149261 1.0573635 -2.8235978e+38
1.9484421 -0.63484305 1.0573635 -2.7834609e+38
1.9484255 -0.63819349 1.0573635 -2.7700646e+38
1.9484088 -0.64154392 1.0573635 -2.7433758e+38
1.9483923 -0.64489436 1.0573635 -2.7167389e+38
1.9573611 -0.65119511 1.0564293 -2.6898941e+38
1.9573444 -0.65456271 1.0564293 -2.6496013e+38
1.9573277 -0.65793025 1.0564293 -2.6095166e+38
1.957311 -0.66129786 1.0564293 -2.5827243e+38
1.9572942 -0.6646654 1.0564293 -2.5559838e+38
1.9572775 -0.668033 1.0564293 -2.5292435e+38
1.9572608 -0.67140061 1.0564293 -2.502711e+38
1.9572442 -0.67476815 1.0564293 -2.5026595e+38
1.9662122 -0.68122327 1.0554949 -2.5024506e+38
1.9572107 -0.68150336 1.0564293 -2.1825002e+38
1.9661785 -0.68799269 1.0554949 -1.8643232e+38
1.9751463 -0.6945163 1.0545607 -2.7834705e+38
1.9751294 -0.69791818 1.0545607 nan
1.9751126 -0.70131999 1.0545607 nan
1.9840798 -0.70791227 1.0536264 nan
1.9750787 -0.70812374 1.0545607 nan
1.9840459 -0.71475029 1.0536264 nan
1.975045 -0.71492749 1.0545607 nan
2.1481836 -0.48598215 1.0329759 -2.808746e+38
2.148165 -0.48971164 1.0329759 -1.9702943e+38
2.1481464 -0.4934411 1.0329759 -2.2238344e+38
2.148128 -0.4971706 1.0329759 -2.4764903e+38
2.1481094 -0.50090009 1.0329759 -2.4765408e+38
2.1371028 -0.50219691 1.0341388 -2.4898321e+38
2.1260967 -0.50345176 1.0353016 -2.4630386e+38
2.1260784 -0.50713938 1.0353016 -2.4494865e+38
2.1150723 -0.50833142 1.0364645 -2.3963691e+38
2.1150541 -0.51199806 1.0364645 -2.3562294e+38
2.1150358 -0.51566464 1.0364645 -2.35633e+38
2.1150177 -0.51933128 1.0364645 -2.3561242e+38
2.1149995 -0.52299792 1.0364645 -2.356126e+38
2.1149812 -0.5266645 1.0364645 -2.3559179e+38
2.1149631 -0.53033113 1.0364645 -2.3424692e+38
2.1149449 -0.53399777 1.0364645 -2.3289165e+38
2.1149266 -0.53766435 1.0364645 -2.3022271e+38
2.1149085 -0.54133099 1.0364645 -2.275434e+38
2.1148903 -0.54499763 1.0364645 -2.2088161e+38
2.114872 -0.54866421 1.0364645 -2.155439e+38
2.104866 -0.54983366 1.0375216 -2.0623927e+38
2.1148357 -0.55599749 1.0364645 -1.982795e+38
2.1148174 -0.55966413 1.0364645 -1.9029377e+38
2.1147993 -0.56333071 1.0364645 -1.8365284e+38
2.1147811 -0.56699735 1.0364645 -1.9030417e+38
2.1147628 -0.57066399 1.0364645 -1.9695564e+38
2.1147447 -0.57433063 1.0364645 -2.0094864e+38
2.1147265 -0.57799721 1.0364645 -2.0495703e+38
2.125694 -0.58457845 1.0353016 -1.9292121e+38
2.1256757 -0.58826602 1.0353016 -1.8231418e+38
2.1256573 -0.59195358 1.0353016 -2.5705812e+38
2.1366243 -0.59861857 1.0341388 -3.3179187e+38
2.136606 -0.60232711 1.0341388 nan
2.1475725 -0.60905498 1.0329759 nan
2.1475542 -0.61278445 1.0329759 nan
2.0037327 -0.57643962 1.0481987 nan
2.0037158 -0.57989478 1.0481987 -2.8874509e+38
2.0036986 -0.58335 1.0481987 -1.9834264e+38
1.9936953 -0.58396512 1.0492558 -2.3305894e+38
1.9936782 -0.58740127 1.0492558 -2.6769684e+38
1.9936612 -0.59083736 1.0492558 -2.7438977e+38
1.9846569 -0.5916661 1.0502074 -2.8108785e+38
1.9846399 -0.59508508 1.0502074 -2.8773399e+38
1.975636 -0.59586227 1.0511588 -2.9439049e+38
1.9666321 -0.59660524 1.0521102 -2.9571968e+38
1.9576286 -0.59731388 1.0530616 -2.9705412e+38
1.9576119 -0.60068142 1.0530616 -2.9705931e+38
1.9575951 -0.60404903 1.0530616 -2.9839897e+38
1.9575784 -0.60741663 1.0530616 -2.9839382e+38
1.9575617 -0.61078417 1.0530616 -2.9838341e+38
1.9485586 -0.61138999 1.054013 -2.9704378e+38
1.9485419 -0.61474043 1.054013 -2.9438007e+38
1.9575115 -0.62088692 1.0530616 -2.9172155e+38
1.9485086 -0.6214413 1.054013 -2.8905267e+38
1.9484921 -0.62479174 1.054013 -2.8636302e+38
1.9484754 -0.62814218 1.054013 -2.85013e+38
1.9484588 -0.63149261 1.054013 -2.8100451e+38
1.9484421 -0.63484305 1.054013 -2.783305e+38
1.9484255 -0.63819349 1.054013 -2.7433243e+38
1.9484088 -0.64154392 1.054013 -2.7167395e+38
1.9483923 -0.64489436 1.054013 -2.689999e+38
1.9573611 -0.65119511 1.0530616 -2.6631021e+38
1.9573444 -0.65456271 1.0530616 -2.6229127e+38
1.9573277 -0.65793025 1.0530616 -2.5959645e+38
1.957311 -0.66129786 1.0530616 -2.5692759e+38
1.9572942 -0.6646654 1.0530616 -2.5425355e+38
1.9662626 -0.67106909 1.0521102 -2.5026585e+38
1.9662458 -0.67445379 1.0521102 -2.4760224e+38
1.966229 -0.6778385 1.0521102 -2.4893668e+38
1.9662122 -0.68122327 1.0521102 -2.5158984e+38
1.9661953 -0.68460798 1.0521102 -2.3161498e+38
1.9661785 -0.68799269 1.0521102 -2.1166674e+38
1.9751463 -0.6945163 1.0511588 -2.4911415e+38
1.9841138 -0.7010743 1.0502074 -2.8809364e+38
1.9751126 -0.70131999 1.0511588 nan
1.9840798 -0.70791227 1.0502074 nan
1.9840629 -0.71133125 1.0502074 nan
1.9840459 -0.71475029 1.0502074 nan
1.9840289 -0.71816927 1.0502074 nan
2.1591721 -0.48831007 1.0280626 -2.9810236e+38
2.148165 -0.48971164 1.0292463 -2.06391e+38
2.1481464 -0.4934411 1.0292463 -2.2642309e+38
2.148128 -0.4971706 1.0292463 -2.4633025e+38
2.1481094 -0.50090009 1.0292463 -2.4499054e+38
2.1480908 -0.50462955 1.0292463 -2.4365601e+38
2.1260967 -0.50345176 1.0316139 -2.4364551e+38
2.1260784 -0.50713938 1.0316139 -2.423059e+38
2.1150723 -0.50833142 1.0327978 -2.3964225e+38
2.1150541 -0.51199806 1.0327978 -2.3697316e+38
2.1150358 -0.51566464 1.0327978 -2.3697292e+38
2.1150177 -0.51933128 1.0327978 -2.3562818e+38
2.1149995 -0.52299792 1.0327978 -2.3561787e+38
2.1149812 -0.5266645 1.0327978 -2.3427299e+38
2.1149631 -0.53033113 1.0327978 -2.3293331e+38
2.1149449 -0.53399777 1.0327978 -2.3157804e+38
2.1149266 -0.53766435 1.0327978 -2.2756951e+38
2.1149085 -0.54133099 1.0327978 -2.2356615e+38
2.1148903 -0.54499763 1.0327978 -2.1823877e+38
2.114872 -0.54866421 1.0327978 -2.1158222e+38
2.1148539 -0.55233085 1.0327978 -2.0360166e+38
2.1148357 -0.55599749 1.0327978 -1.9562629e+38
2.1148174 -0.55966413 1.0327978 -1.9163861e+38
2.1147993 -0.56333071 1.0327978 -1.8632172e+38
2.1147811 -0.56699735 1.0327978 -1.9429713e+38
2.1147628 -0.57066399 1.0327978 -2.0094337e+38
2.1147447 -0.57433063 1.0327978 -2.0360193e+38
2.1147265 -0.57799721 1.0327978 -2.0621868e+38
2.1147082 -0.58166385 1.0327978 -1.927497e+38
2.1256757 -0.58826602 1.0316139 -1.7838373e+38
2.1256573 -0.59195358 1.0316139 -3.0385153e+38
2.1366243 -0.59861857 1.0304302 nan
2.136606 -0.60232711 1.0304302 nan
2.1365876 -0.60603559 1.0304302 nan
2.1475542 -0.61278445 1.0292463 nan
2.1475356 -0.61651391 1.0292463 nan
2.0037158 -0.57989478 1.0447435 -3.2305542e+38
2.0036986 -0.58335 1.0447435 -1.7035583e+38
1.9936953 -0.58396512 1.0458198 -2.1847869e+38
1.9936782 -0.58740127 1.0458198 -2.6502266e+38
1.9936612 -0.59083736 1.0458198 -2.7306573e+38
1.9846569 -0.5916661 1.0467882 -2.810567e+38
1.9846399 -0.59508508 1.0467882 -2.8770286e+38
1.975636 -0.59586227 1.0477569 -2.9436975e+38
1.9756191 -0.59926414 1.0477569 -2.9570415e+38
1.9666153 -0.59998995 1.0487254 -2.957197e+38
1.9576119 -0.60068142 1.0496941 -2.9572487e+38
1.9575951 -0.60404903 1.0496941 -2.9440088e+38
1.9575784 -0.60741663 1.0496941 -2.9440094e+38
1.9575617 -0.61078417 1.0496941 -2.9439051e+38
1.957545 -0.61415178 1.0496941 -2.9305086e+38
1.9485419 -0.61474043 1.0506625 -2.9039237e+38
1.9575115 -0.62088692 1.0496941 -2.8772868e+38
1.9574949 -0.62425447 1.0496941 -2.8503901e+38
1.9574782 -0.62762207 1.0496941 -2.8367858e+38
1.9574615 -0.63098967 1.0496941 -2.8232335e+38
1.9574447 -0.63435721 1.0496941 -2.796337e+38
1.957428 -0.63772482 1.0496941 -2.7698044e+38
1.9574113 -0.64109236 1.0496941 -2.7297718e+38
1.9573946 -0.64445996 1.0496941 -2.6899469e+38
1.9573778 -0.64782757 1.0496941 -2.6634142e+38
1.9573611 -0.65119511 1.0496941 -2.6230691e+38
1.9573444 -0.65456271 1.0496941 -2.596172e+38
1.9573277 -0.65793025 1.0496941 -2.5693795e+38
1.957311 -0.66129786 1.0496941 -2.5426388e+38
1.9572942 -0.6646654 1.0496941 -2.5160019e+38
1.9572775 -0.668033 1.0496941 -2.4893648e+38
1.9662458 -0.67445379 1.0487254 -2.4495405e+38
1.966229 -0.6778385 1.0487254 -2.4894179e+38
1.9662122 -0.68122327 1.0487254 -2.5160542e+38
1.9661953 -0.68460798 1.0487254 -2.4361965e+38
1.9751632 -0.69111449 1.0477569 -2.356499e+38
1.9751463 -0.6945163 1.0477569 -2.2100285e+38
1.9841138 -0.7010743 1.0467882 -2.067042e+38
1.9840968 -0.70449328 1.0467882 nan
1.9840798 -0.70791227 1.0467882 nan
1.9840629 -0.71133125 1.0467882 nan
1.9840459 -0.71475029 1.0467882 nan
1.9840289 -0.71816927 1.0467882 nan
2.148165 -0.48971164 1.0255169 -1.9573109e+38
2.1481464 -0.4934411 1.0255169 -2.1970427e+38
2.148128 -0.4971706 1.0255169 -2.4499589e+38
2.1481094 -0.50090009 1.0255169 -2.423218e+38
2.1480908 -0.50462955 1.0255169 -2.3966324e+38
2.1260967 -0.50345176 1.0279263 -2.383287e+38
2.1260784 -0.50713938 1.0279263 -2.369943e+38
2.1150723 -0.50833142 1.0291312 -2.3566507e+38
2.1150541 -0.51199806 1.0291312 -2.3565454e+38
2.1150358 -0.51566464 1.0291312 -2.3564919e+38
2.1150177 -0.51933128 1.0291312 -2.369628e+38
2.1149995 -0.52299792 1.0291312 -2.3561793e+38
2.1149812 -0.5266645 1.0291312 -2.3427305e+38
2.1149631 -0.53033113 1.0291312 -2.3159891e+38
2.1149449 -0.53399777 1.0291312 -2.2891963e+38
2.1149266 -0.53766435 1.0291312 -2.2491628e+38
2.1149085 -0.54133099 1.0291312 -2.2224215e+38
2.1148903 -0.54499763 1.0291312 -2.142563e+38
2.114872 -0.54866421 1.0291312 -2.0760498e+38
2.1148539 -0.55233085 1.0291312 -1.9829e+38
2.1148357 -0.55599749 1.0291312 -1.9030942e+38
2.1148174 -0.55966413 1.0291312 -1.903146e+38
