# .PCD v0.7 - Point Cloud Data file format
VERSION 0.7
FIELDS x y z rgb
SIZE 4 4 4 4
TYPE F F F F
COUNT 1 1 1 1
WIDTH 1118
HEIGHT 1
VIEWPOINT 0 0 0 1 0 0 0
POINTS 1118
DATA ascii
4.3799887 0.029021963 1.9466159 -2.8626352e+38
4.3299661 0.019969374 1.9381874 -2.4088773e+38
4.3799496 0.013052486 1.9466159 -2.5017125e+38
4.37993 0.0050677434 1.9466159 -2.5815709e+38
4.3799105 -0.0029169917 1.9466159 -2.5417467e+38
4.3798909 -0.010901727 1.9466159 -2.5152143e+38
4.3798714 -0.018886469 1.9466159 -2.5019742e+38
4.3798518 -0.026871204 1.9466159 -2.501922e+38
4.4308329 -0.034446727 1.9552131 -2.5019738e+38
4.4308128 -0.042528607 1.9552131 -2.5019733e+38
4.4837937 -0.050387129 1.9641473 -2.4885247e+38
4.4837737 -0.05856996 1.9641473 -2.4750241e+38
4.4837537 -0.066752791 1.9641473 -2.4617831e+38
4.537734 -0.075016625 1.9732503 -2.448387e+38
4.537714 -0.083302319 1.9732503 -2.4483351e+38
4.5376935 -0.091588005 1.9732503 -2.4483872e+38
4.537673 -0.099873692 1.9732503 -2.4484913e+38
4.4836535 -0.10766696 1.9641473 -2.4619399e+38
4.5376325 -0.11644507 1.9732503 -2.4753367e+38
4.4306145 -0.12334742 1.9552131 -2.4886815e+38
4.4305949 -0.1314293 1.9552131 -2.5286108e+38
4.4305749 -0.13951118 1.9552131 -2.56854e+38
4.4305553 -0.14759307 1.9552131 -2.6218653e+38
4.4305353 -0.15567493 1.9552131 -2.6620531e+38
4.4305158 -0.16375682 1.9552131 -2.342207e+38
4.4304957 -0.1718387 1.9552131 -2.0229947e+38
4.4304757 -0.17992058 1.9552131 -3.2509309e+38
4.4851184 0.48967987 1.9559646 nan
4.4850984 0.48149705 1.9559646 nan
4.4850783 0.47331417 1.9559646 nan
4.4850583 0.46513134 1.9559646 nan
4.4850378 0.45694852 1.9559646 nan
4.4850178 0.4487657 1.9559646 nan
4.4849977 0.44058287 1.9559646 nan
4.4849777 0.43239999 1.9559646 -2.8628936e+38
4.4849577 0.42421722 1.9559646 -2.527414e+38
4.4849377 0.41603434 1.9559646 -2.1955755e+38
4.4849176 0.40785152 1.9559646 -2.3557591e+38
4.4848976 0.39966869 1.9559646 -2.5152662e+38
4.5388923 0.3972677 1.9649645 -2.515266e+38
4.4848576 0.38330305 1.9559646 -2.5019216e+38
4.4848375 0.37512019 1.9559646 -2.4885253e+38
4.4848175 0.36693734 1.9559646 -2.475129e+38
4.484797 0.35875452 1.9559646 -2.3154658e+38
4.484777 0.35057169 1.9559646 -2.1419368e+38
4.4317446 0.33731982 1.9471312 -2.5790741e+38
4.4317245 0.32923794 1.9471312 -3.0213627e+38
4.3806939 0.31647253 1.9386312 nan
4.3306627 0.30399141 1.9302979 nan
4.3306432 0.2961019 1.9302979 nan
4.3806353 0.29251835 1.9386312 -2.421077e+38
4.3806152 0.28453362 1.9386312 -2.4487525e+38
4.3805957 0.27654883 1.9386312 -2.4753888e+38
4.3805761 0.26856411 1.9386312 -2.4488038e+38
4.3305464 0.25665438 1.9302979 -2.4087189e+38
4.4315462 0.25650099 1.9471312 -2.2621399e+38
4.4315262 0.24841914 1.9471312 -2.1027391e+38
4.4315066 0.24033725 1.9471312 -2.5425292e+38
4.4314866 0.23225537 1.9471312 -2.969447e+38
4.4314671 0.22417349 1.9471312 -3.1573114e+38
4.431447 0.21609163 1.9471312 -3.3301106e+38
4.4314275 0.20800972 1.9471312 nan
4.4314075 0.19992784 1.9471312 nan
4.3803806 0.18871674 1.9386312 nan
4.3803611 0.18073198 1.9386312 nan
4.3803415 0.17274725 1.9386312 nan
4.3803215 0.16476251 1.9386312 nan
4.380302 0.15677778 1.9386312 nan
4.3302755 0.14620139 1.9302979 nan
4.3802629 0.1408083 1.9386312 nan
4.3802433 0.13282357 1.9386312 nan
4.3302178 0.12253289 1.9302979 nan
4.3802042 0.11685409 1.9386312 nan
4.3801847 0.10886934 1.9386312 nan
4.3301597 0.098864377 1.9302979 nan
4.3301401 0.090974882 1.9302979 nan
4.330121 0.083085388 1.9302979 nan
4.3301015 0.075195879 1.9302979 nan
4.3300824 0.067306384 1.9302979 nan
4.3300629 0.059416875 1.9302979 nan
4.3300433 0.051527381 1.9302979 nan
4.3300242 0.043637872 1.9302979 nan
4.3300047 0.035748363 1.9302979 -3.130566e+38
4.3299856 0.027858868 1.9302979 -2.8221354e+38
4.3299661 0.019969374 1.9302979 -2.5155285e+38
4.329947 0.012079865 1.9302979 -2.5282476e+38
4.3299274 0.0041903704 1.9302979 -2.5417476e+38
4.3299079 -0.0036991388 1.9302979 -2.5152668e+38
4.3298888 -0.011588637 1.9302979 -2.488734e+38
4.3798714 -0.018886469 1.9386312 -2.5020263e+38
4.3798518 -0.026871204 1.9386312 -2.5153182e+38
4.3798323 -0.034855947 1.9386312 -2.5153699e+38
4.3798127 -0.042840682 1.9386312 -2.5153176e+38
4.4307928 -0.050610486 1.9471312 -2.5018691e+38
4.4837737 -0.05856996 1.9559646 -2.4884724e+38
4.4837537 -0.066752791 1.9559646 -2.4750758e+38
4.4837337 -0.07493563 1.9559646 -2.4616793e+38
4.537714 -0.083302319 1.9649645 -2.4615233e+38
4.5376935 -0.091588005 1.9649645 -2.4484391e+38
4.4836736 -0.099484131 1.9559646 -2.4351992e+38
4.4836535 -0.10766696 1.9559646 -2.4221152e+38
4.4836335 -0.11584979 1.9559646 -2.4620965e+38
4.4306145 -0.12334742 1.9471312 -2.5020259e+38
4.4305949 -0.1314293 1.9471312 -2.5419033e+38
4.4305749 -0.13951118 1.9471312 -2.5819363e+38
4.4305553 -0.14759307 1.9471312 -2.6484501e+38
4.4305353 -0.15567493 1.9471312 -2.7014626e+38
4.4305158 -0.16375682 1.9471312 -2.4479739e+38
4.4304957 -0.1718387 1.9471312 -2.1971423e+38
4.4304757 -0.17992058 1.9471312 -3.2648948e+38
4.4850783 0.47331417 1.9477817 nan
4.4850583 0.46513134 1.9477817 nan
4.4850378 0.45694852 1.9477817 nan
4.4850178 0.4487657 1.9477817 nan
4.4849977 0.44058287 1.9477817 nan
4.4849777 0.43239999 1.9477817 -2.4088233e+38
4.4849577 0.42421722 1.9477817 -2.4084031e+38
4.4849377 0.41603434 1.9477817 -2.3952173e+38
4.4849176 0.40785152 1.9477817 -2.4620446e+38
4.4848976 0.39966869 1.9477817 -2.5285062e+38
4.5388923 0.3972677 1.9566789 -2.515266e+38
4.4848576 0.38330305 1.9477817 -2.4886296e+38
4.5388517 0.38069633 1.9566789 -2.4752332e+38
4.4848175 0.36693734 1.9477817 -2.4484931e+38
4.484797 0.35875452 1.9477817 -2.2223168e+38
4.484777 0.35057169 1.9477817 -1.9957743e+38
4.4847569 0.34238887 1.9477817 -2.7271586e+38
4.4317245 0.32923794 1.9390492 nan
4.3806939 0.31647253 1.9306464 nan
4.3306627 0.30399141 1.9224083 nan
4.3306432 0.2961019 1.9224083 -3.1672116e+38
4.3306241 0.28821239 1.9224083 -2.1137463e+38
4.3806152 0.28453362 1.9306464 -2.2886746e+38
4.3305855 0.2724334 1.9224083 -2.462045e+38
4.3305659 0.26454389 1.9224083 -2.4487523e+38
4.3305464 0.25665438 1.9224083 -2.4485953e+38
4.4315462 0.25650099 1.9390492 -2.368321e+38
4.4315262 0.24841914 1.9390492 -2.3013969e+38
4.4315066 0.24033725 1.9390492 -2.662422e+38
4.4844961 0.23601201 1.9477817 -3.0360135e+38
4.4844761 0.22782919 1.9477817 -3.1832727e+38
4.431447 0.21609163 1.9390492 -3.329851e+38
4.4314275 0.20800972 1.9390492 nan
4.4314075 0.19992784 1.9390492 nan
4.4313874 0.19184595 1.9390492 nan
4.3803611 0.18073198 1.9306464 nan
4.3803415 0.17274725 1.9306464 nan
4.3303146 0.16198039 1.9224083 nan
4.3302951 0.15409088 1.9224083 nan
4.3302755 0.14620139 1.9224083 nan
4.3302565 0.13831189 1.9224083 nan
4.3302369 0.13042238 1.9224083 nan
4.3302178 0.12253289 1.9224083 nan
4.3301983 0.11464338 1.9224083 nan
4.3301792 0.10675389 1.9224083 nan
4.3301597 0.098864377 1.9224083 nan
4.3301401 0.090974882 1.9224083 nan
4.330121 0.083085388 1.9224083 nan
4.3301015 0.075195879 1.9224083 nan
4.3300824 0.067306384 1.9224083 nan
4.3300629 0.059416875 1.9224083 nan
4.3300433 0.051527381 1.9224083 nan
4.3300242 0.043637872 1.9224083 -3.3707687e+38
4.3300047 0.035748363 1.9224083 -3.1043964e+38
4.3299856 0.027858868 1.9224083 -2.7961222e+38
4.3299661 0.019969374 1.9224083 -2.4889971e+38
4.329947 0.012079865 1.9224083 -2.5285096e+38
4.3299274 0.0041903704 1.9224083 -2.5818337e+38
4.3299079 -0.0036991388 1.9224083 -2.5551962e+38
4.3298888 -0.011588637 1.9224083 -2.5286632e+38
4.3798714 -0.018886469 1.9306464 -2.5286628e+38
4.3798518 -0.026871204 1.9306464 -2.5419546e+38
4.3798323 -0.034855947 1.9306464 -2.5287139e+38
4.4308128 -0.042528607 1.9390492 -2.5287137e+38
4.4307928 -0.050610486 1.9390492 -2.5021289e+38
4.4837737 -0.05856996 1.9477817 -2.4886805e+38
4.4837537 -0.066752791 1.9477817 -2.4619395e+38
4.4837337 -0.07493563 1.9477817 -2.4483351e+38
4.4837136 -0.083118461 1.9477817 -2.4351461e+38
4.5376935 -0.091588005 1.9566789 -2.4219582e+38
4.4836736 -0.099484131 1.9477817 -2.4220627e+38
4.4836535 -0.10766696 1.9477817 -2.4354596e+38
4.4836335 -0.11584979 1.9477817 -2.4621486e+38
4.4306145 -0.12334742 1.9390492 -2.502078e+38
4.4305949 -0.1314293 1.9390492 -2.5420591e+38
4.4305749 -0.13951118 1.9390492 -2.5820402e+38
4.4305553 -0.14759307 1.9390492 -2.6352097e+38
4.4305353 -0.15567493 1.9390492 -2.6884297e+38
4.4305158 -0.16375682 1.9390492 -2.4484408e+38
4.4304957 -0.1718387 1.9390492 -2.2223751e+38
4.4304757 -0.17992058 1.9390492 -3.236801e+38
4.5391159 0.48841029 1.9483931 nan
4.5390954 0.48012459 1.9483931 nan
4.4850583 0.46513134 1.9395988 nan
4.4850378 0.45694852 1.9395988 nan
4.4850178 0.4487657 1.9395988 nan
4.4849977 0.44058287 1.9395988 -3.3271372e+38
4.4849777 0.43239999 1.9395988 -1.9567303e+38
4.4849577 0.42421722 1.9395988 -2.2755334e+38
4.4849377 0.41603434 1.9395988 -2.5949134e+38
4.4849176 0.40785152 1.9395988 -2.5685905e+38
4.4848976 0.39966869 1.9395988 -2.541954e+38
4.4848776 0.39148587 1.9395988 -2.5154216e+38
4.4848576 0.38330305 1.9395988 -2.4753371e+38
4.4848375 0.37512019 1.9395988 -2.4486487e+38
4.4848175 0.36693734 1.9395988 -2.4219607e+38
4.484797 0.35875452 1.9395988 -2.1294273e+38
4.484777 0.35057169 1.9395988 -1.8363716e+38
4.4847569 0.34238887 1.9395988 -2.8732189e+38
4.4317245 0.32923794 1.9309673 nan
4.3306818 0.31188089 1.9145188 nan
4.3306627 0.30399141 1.9145188 nan
4.3806548 0.30050308 1.9226617 -2.9268582e+38
4.3806353 0.29251835 1.9226617 -1.7964441e+38
4.4316254 0.28882852 1.9309673 -2.1167577e+38
4.3805957 0.27654883 1.9226617 -2.4355645e+38
4.4315858 0.27266479 1.9309673 -2.4620452e+38
4.4315658 0.2645829 1.9309673 -2.4882134e+38
4.4315462 0.25650099 1.9309673 -2.4876931e+38
4.4315262 0.24841914 1.9309673 -2.488736e+38
4.4315066 0.24033725 1.9309673 -2.7963324e+38
4.4314866 0.23225537 1.9309673 -3.0893907e+38
4.4314671 0.22417349 1.9309673 -3.2099611e+38
4.431447 0.21609163 1.9309673 -3.3300593e+38
4.4314275 0.20800972 1.9309673 nan
4.4314075 0.19992784 1.9309673 nan
4.3803806 0.18871674 1.9226617 nan
4.3803611 0.18073198 1.9226617 nan
4.3803415 0.17274725 1.9226617 nan
4.3303146 0.16198039 1.9145188 nan
4.3302951 0.15409088 1.9145188 nan
4.3302755 0.14620139 1.9145188 nan
4.3302565 0.13831189 1.9145188 nan
4.3302369 0.13042238 1.9145188 nan
4.3302178 0.12253289 1.9145188 nan
4.3301983 0.11464338 1.9145188 nan
4.3301792 0.10675389 1.9145188 nan
4.3301597 0.098864377 1.9145188 nan
4.3301401 0.090974882 1.9145188 nan
4.330121 0.083085388 1.9145188 nan
4.3301015 0.075195879 1.9145188 nan
4.3300824 0.067306384 1.9145188 nan
4.3300629 0.059416875 1.9145188 nan
4.3300433 0.051527381 1.9145188 nan
4.3300242 0.043637872 1.9145188 -3.3167674e+38
4.3300047 0.035748363 1.9145188 -3.0768249e+38
4.3299856 0.027858868 1.9145188 -2.7689671e+38
4.3299661 0.019969374 1.9145188 -2.4626715e+38
4.329947 0.012079865 1.9145188 -2.5414888e+38
4.3299274 0.0041903704 1.9145188 -2.6083132e+38
4.3299079 -0.0036991388 1.9145188 -2.5817804e+38
4.3298888 -0.011588637 1.9145188 -2.5552475e+38
4.3298693 -0.019478135 1.9145188 -2.5685915e+38
4.3798518 -0.026871204 1.9226617 -2.5686433e+38
4.3798323 -0.034855947 1.9226617 -2.5553508e+38
4.4308128 -0.042528607 1.9309673 -2.5289218e+38
4.4307928 -0.050610486 1.9309673 -2.502493e+38
4.4307733 -0.05869237 1.9309673 -2.4755965e+38
4.4837537 -0.066752791 1.9395988 -2.4488557e+38
4.4837337 -0.07493563 1.9395988 -2.4220627e+38
4.4837136 -0.083118461 1.9395988 -2.4087698e+38
4.4836936 -0.091301292 1.9395988 -2.3821856e+38
4.4836736 -0.099484131 1.9395988 -2.422115e+38
4.4836535 -0.10766696 1.9395988 -2.4487521e+38
4.4836335 -0.11584979 1.9395988 -2.4754932e+38
4.4306145 -0.12334742 1.9309673 -2.4888381e+38
4.4305949 -0.1314293 1.9309673 -2.5421118e+38
4.4305749 -0.13951118 1.9309673 -2.5820408e+38
4.4305553 -0.14759307 1.9309673 -2.635262e+38
4.4305353 -0.15567493 1.9309673 -2.6749294e+38
4.4305158 -0.16375682 1.9309673 -2.4615243e+38
4.3794994 -0.17059651 1.9226617 -2.2368092e+38
4.3794799 -0.17858124 1.9226617 -3.2240803e+38
4.4850783 0.47331417 1.931416 nan
4.4850583 0.46513134 1.931416 nan
4.4850378 0.45694852 1.931416 nan
4.4850178 0.4487657 1.931416 nan
4.4849977 0.44058287 1.931416 -3.3010713e+38
4.4849777 0.43239999 1.931416 -2.0219459e+38
4.4849577 0.42421722 1.931416 -2.3155673e+38
4.4849377 0.41603434 1.931416 -2.6219659e+38
4.4849176 0.40785152 1.931416 -2.5952787e+38
4.4848976 0.39966869 1.931416 -2.5686422e+38
4.5388923 0.3972677 1.9401073 -2.5286616e+38
4.4848576 0.38330305 1.931416 -2.5018695e+38
4.5388517 0.38069633 1.9401073 -2.4752332e+38
4.4848175 0.36693734 1.931416 -2.4485456e+38
4.484797 0.35875452 1.931416 -2.1158239e+38
4.484777 0.35057169 1.931416 -1.7826841e+38
4.4847569 0.34238887 1.931416 -2.9013103e+38
4.3807135 0.32445729 1.9146769 nan
4.3306818 0.31188089 1.9066293 nan
4.3806744 0.3084878 1.9146769 nan
4.3806548 0.30050308 1.9146769 -2.8752445e+38
4.3806353 0.29251835 1.9146769 -2.0621846e+38
4.3806152 0.28453362 1.9146769 -2.2625571e+38
4.3805957 0.27654883 1.9146769 -2.4622012e+38
4.4315858 0.27266479 1.9228854 -2.4353572e+38
4.4315658 0.2645829 1.9228854 -2.4216489e+38
4.4315462 0.25650099 1.9228854 -2.595123e+38
4.4315262 0.24841914 1.9228854 -2.7683424e+38
4.4315066 0.24033725 1.9228854 -2.8495542e+38
4.4314866 0.23225537 1.9228854 -2.9297799e+38
4.4314671 0.22417349 1.9228854 -3.1166034e+38
4.431447 0.21609163 1.9228854 -3.3166121e+38
4.4314275 0.20800972 1.9228854 nan
4.4314075 0.19992784 1.9228854 nan
4.3803806 0.18871674 1.9146769 nan
4.3803611 0.18073198 1.9146769 nan
4.3303337 0.16986988 1.9066293 nan
4.3303146 0.16198039 1.9066293 nan
4.3302951 0.15409088 1.9066293 nan
4.3302755 0.14620139 1.9066293 nan
4.3302565 0.13831189 1.9066293 nan
4.3302369 0.13042238 1.9066293 nan
4.3302178 0.12253289 1.9066293 nan
4.3301983 0.11464338 1.9066293 nan
4.3801847 0.10886934 1.9146769 nan
4.3301597 0.098864377 1.9066293 nan
4.3301401 0.090974882 1.9066293 nan
4.330121 0.083085388 1.9066293 nan
4.3301015 0.075195879 1.9066293 nan
4.3300824 0.067306384 1.9066293 nan
4.3300629 0.059416875 1.9066293 nan
4.3300433 0.051527381 1.9066293 -3.2112095e+38
4.3300242 0.043637872 1.9066293 -3.2105835e+38
4.3300047 0.035748363 1.9066293 -3.2235588e+38
4.3299856 0.027858868 1.9066293 -2.849552e+38
4.3299661 0.019969374 1.9066293 -2.4898266e+38
4.329947 0.012079865 1.9066293 -2.5686426e+38
4.3299274 0.0041903704 1.9066293 -2.6484487e+38
4.3299079 -0.0036991388 1.9066293 -2.6084162e+38
4.3298888 -0.011588637 1.9066293 -2.5818319e+38
4.3298693 -0.019478135 1.9066293 -2.5685915e+38
4.3798518 -0.026871204 1.9146769 -2.5554031e+38
4.3798323 -0.034855947 1.9146769 -2.5421625e+38
4.3798127 -0.042840682 1.9146769 -2.5423704e+38
4.4307928 -0.050610486 1.9228854 -2.5024417e+38
4.4307733 -0.05869237 1.9228854 -2.4757011e+38
4.4837537 -0.066752791 1.931416 -2.4622527e+38
4.4837337 -0.07493563 1.931416 -2.4620961e+38
4.4837136 -0.083118461 1.931416 -2.4354067e+38
4.4836936 -0.091301292 1.931416 -2.4087187e+38
4.4836736 -0.099484131 1.931416 -2.4354075e+38
4.4836535 -0.10766696 1.931416 -2.4487006e+38
4.4836335 -0.11584979 1.931416 -2.4754417e+38
4.4306145 -0.12334742 1.9228854 -2.5021309e+38
4.4305949 -0.1314293 1.9228854 -2.5287682e+38
4.4305749 -0.13951118 1.9228854 -2.5554566e+38
4.4305553 -0.14759307 1.9228854 -2.5953854e+38
4.4305353 -0.15567493 1.9228854 -2.6220716e+38
4.4305158 -0.16375682 1.9228854 -2.4485426e+38
4.3794994 -0.17059651 1.9146769 -2.2886282e+38
4.3794799 -0.17858124 1.9146769 -3.2096978e+38
4.5390954 0.48012459 1.9318216 nan
4.4850583 0.46513134 1.923233 nan
4.4850378 0.45694852 1.923233 nan
4.4850178 0.4487657 1.923233 nan
4.4849977 0.44058287 1.923233 -3.2859587e+38
4.4319625 0.42622054 1.9148035 -2.0757375e+38
4.4849577 0.42421722 1.923233 -2.3560171e+38
4.4849377 0.41603434 1.923233 -2.6352073e+38
4.4319029 0.40197489 1.9148035 -2.6086231e+38
4.4848976 0.39966869 1.923233 -2.5819347e+38
4.4848776 0.39148587 1.923233 -2.5551944e+38
4.4848576 0.38330305 1.923233 -2.5152137e+38
4.5388517 0.38069633 1.9318216 -2.4885774e+38
4.4848175 0.36693734 1.923233 -2.4617856e+38
4.484797 0.35875452 1.923233 -2.0892387e+38
4.484777 0.35057169 1.923233 -1.717106e+38
4.4847569 0.34238887 1.923233 -2.9282603e+38
4.3307014 0.3197704 1.8987398 nan
4.3306818 0.31188089 1.8987398 nan
4.3306627 0.30399141 1.8987398 -3.3295806e+38
4.3306432 0.2961019 1.8987398 -2.8203628e+38
4.3806353 0.29251835 1.9066921 -2.3154135e+38
4.3806152 0.28453362 1.9066921 -2.3957919e+38
4.3305855 0.2724334 1.8987398 -2.4754409e+38
4.4315858 0.27266479 1.9148035 -2.4220116e+38
4.4315658 0.2645829 1.9148035 -2.3557595e+38
4.4315462 0.25650099 1.9148035 -2.7027106e+38
4.4315262 0.24841914 1.9148035 -3.0489881e+38
4.4315066 0.24033725 1.9148035 -2.9170032e+38
4.4844961 0.23601201 1.923233 -2.7704283e+38
4.4314671 0.22417349 1.9148035 -3.0366931e+38
4.431447 0.21609163 1.9148035 -3.2901314e+38
4.4314275 0.20800972 1.9148035 nan
4.4314075 0.19992784 1.9148035 nan
4.3803806 0.18871674 1.9066921 nan
4.3803611 0.18073198 1.9066921 nan
4.3803415 0.17274725 1.9066921 nan
4.3303146 0.16198039 1.8987398 nan
4.3302951 0.15409088 1.8987398 nan
4.3302755 0.14620139 1.8987398 nan
4.3302565 0.13831189 1.8987398 nan
4.3302369 0.13042238 1.8987398 nan
4.3302178 0.12253289 1.8987398 nan
4.3301983 0.11464338 1.8987398 nan
4.3301792 0.10675389 1.8987398 nan
4.3301597 0.098864377 1.8987398 nan
4.3301401 0.090974882 1.8987398 nan
4.380126 0.084915131 1.9066921 nan
4.3801064 0.076930404 1.9066921 nan
4.3300824 0.067306384 1.8987398 nan
4.3300629 0.059416875 1.8987398 -3.3300621e+38
4.3300433 0.051527381 1.8987398 -2.8517461e+38
4.3300242 0.043637872 1.8987398 -3.1040382e+38
4.3300047 0.035748363 1.8987398 -3.3562745e+38
4.3299856 0.027858868 1.8987398 -2.9291507e+38
4.3299661 0.019969374 1.8987398 -2.5027552e+38
4.329947 0.012079865 1.8987398 -2.5948108e+38
4.3299274 0.0041903704 1.8987398 -2.674773e+38
4.3299079 -0.0036991388 1.8987398 -2.634897e+38
4.3298888 -0.011588637 1.8987398 -2.5950722e+38
4.3298693 -0.019478135 1.8987398 -2.5685396e+38
4.3798518 -0.026871204 1.9066921 -2.5420589e+38
4.3798323 -0.034855947 1.9066921 -2.5421108e+38
4.3798127 -0.042840682 1.9066921 -2.5422666e+38
4.3797932 -0.050825424 1.9066921 -2.5157339e+38
4.4307733 -0.05869237 1.9148035 -2.4757529e+38
4.4837537 -0.066752791 1.923233 -2.488993e+38
4.4837337 -0.07493563 1.923233 -2.4887326e+38
4.4837136 -0.083118461 1.923233 -2.4620955e+38
4.4836936 -0.091301292 1.923233 -2.4354073e+38
4.4836736 -0.099484131 1.923233 -2.4487519e+38
4.4836535 -0.10766696 1.923233 -2.4487525e+38
4.4836335 -0.11584979 1.923233 -2.4753379e+38
4.4306145 -0.12334742 1.9148035 -2.5020271e+38
4.4305949 -0.1314293 1.9148035 -2.5153202e+38
4.4305749 -0.13951118 1.9148035 -2.5288204e+38
4.4305553 -0.14759307 1.9148035 -2.5555092e+38
4.4305353 -0.15567493 1.9148035 -2.5687485e+38
4.4305158 -0.16375682 1.9148035 -2.4485978e+38
4.3794994 -0.17059651 1.9066921 -2.3298037e+38
4.3794799 -0.17858124 1.9066921 -3.2104227e+38
4.5390954 0.48012459 1.9235359 nan
4.4850583 0.46513134 1.9150503 nan
4.4850378 0.45694852 1.9150503 nan
4.4850178 0.4487657 1.9150503 nan
4.4849977 0.44058287 1.9150503 -3.2340326e+38
4.4849777 0.43239999 1.9150503 -2.0878869e+38
4.4849577 0.42421722 1.9150503 -2.3688437e+38
4.4319229 0.41005674 1.9067216 -2.6484484e+38
4.4319029 0.40197489 1.9067216 -2.6218116e+38
4.4848976 0.39966869 1.9150503 -2.6084676e+38
4.4848776 0.39148587 1.9150503 -2.5818311e+38
4.4848576 0.38330305 1.9150503 -2.5550907e+38
4.4848375 0.37512019 1.9150503 -2.5284541e+38
4.4848175 0.36693734 1.9150503 -2.5017139e+38
4.484797 0.35875452 1.9150503 -2.1424589e+38
4.4317641 0.3454017 1.9067216 -1.7962372e+38
4.3307209 0.32765988 1.8908503 -2.9691257e+38
4.3307014 0.3197704 1.8908503 nan
4.3306818 0.31188089 1.8908503 nan
4.3306627 0.30399141 1.8908503 -2.8097782e+38
4.3806548 0.30050308 1.8987074 -2.6084659e+38
4.3806353 0.29251835 1.8987074 -2.4218562e+38
4.3806152 0.28453362 1.8987074 -2.4488056e+38
4.3805957 0.27654883 1.8987074 -2.4887847e+38
4.4315858 0.27266479 1.9067216 -2.4484907e+38
4.4845767 0.26874337 1.9150503 -2.4082544e+38
4.4315462 0.25650099 1.9067216 -2.6763368e+38
4.4315262 0.24841914 1.9067216 -2.943898e+38
4.4315066 0.24033725 1.9067216 -2.9698616e+38
4.4314866 0.23225537 1.9067216 -2.9957222e+38
4.4314671 0.22417349 1.9067216 -3.0899133e+38
4.431447 0.21609163 1.9067216 -3.1837933e+38
4.4314275 0.20800972 1.9067216 -3.2638616e+38
4.4314075 0.19992784 1.9067216 -3.3441862e+38
4.3803806 0.18871674 1.8987074 -3.3572706e+38
4.3803611 0.18073198 1.8987074 -3.3717064e+38
4.3803415 0.17274725 1.8987074 nan
4.3303146 0.16198039 1.8908503 nan
4.3302951 0.15409088 1.8908503 nan
4.3302755 0.14620139 1.8908503 nan
4.3302565 0.13831189 1.8908503 nan
4.3802433 0.13282357 1.8987074 nan
4.3302178 0.12253289 1.8908503 nan
4.3802042 0.11685409 1.8987074 nan
4.3801847 0.10886934 1.8987074 nan
4.3801651 0.10088462 1.8987074 nan
4.3301401 0.090974882 1.8908503 nan
4.380126 0.084915131 1.8987074 nan
4.3301015 0.075195879 1.8908503 nan
4.3300824 0.067306384 1.8908503 nan
4.3300629 0.059416875 1.8908503 -3.3706643e+38
4.3300433 0.051527381 1.8908503 -3.2237219e+38
4.3300242 0.043637872 1.8908503 -3.3839036e+38
4.3300047 0.035748363 1.8908503 nan
4.3299856 0.027858868 1.8908503 -3.0757818e+38
4.3299661 0.019969374 1.8908503 -2.5954377e+38
4.329947 0.012079865 1.8908503 -2.6482385e+38
4.3299274 0.0041903704 1.8908503 -2.7013571e+38
4.3299079 -0.0036991388 1.8908503 -2.6615334e+38
4.3298888 -0.011588637 1.8908503 -2.621553e+38
4.3298693 -0.019478135 1.8908503 -2.58178e+38
4.3298502 -0.027367637 1.8908503 -2.5552473e+38
4.3798323 -0.034855947 1.8987074 -2.5554031e+38
4.3798127 -0.042840682 1.8987074 -2.555455e+38
4.3797932 -0.050825424 1.8987074 -2.5289743e+38
4.4307733 -0.05869237 1.9067216 -2.5023374e+38
4.4837537 -0.066752791 1.9150503 -2.5154735e+38
4.4837337 -0.07493563 1.9150503 -2.5152135e+38
4.4837136 -0.083118461 1.9150503 -2.5019725e+38
4.4836936 -0.091301292 1.9150503 -2.4752845e+38
4.4836736 -0.099484131 1.9150503 -2.4620963e+38
4.4836535 -0.10766696 1.9150503 -2.4488046e+38
4.4836335 -0.11584979 1.9150503 -2.4754934e+38
4.4306145 -0.12334742 1.9067216 -2.5153713e+38
4.4305949 -0.1314293 1.9067216 -2.5287682e+38
4.4305749 -0.13951118 1.9067216 -2.542165e+38
4.4305553 -0.14759307 1.9067216 -2.5689057e+38
4.4305353 -0.15567493 1.9067216 -2.5955945e+38
4.4305158 -0.16375682 1.9067216 -2.5019778e+38
4.3794994 -0.17059651 1.8987074 -2.4216041e+38
4.3794799 -0.17858124 1.8987074 -3.2093822e+38
4.5390954 0.48012459 1.9152503 nan
4.4850583 0.46513134 1.9068674 nan
4.5390549 0.46355319 1.9152503 nan
4.4850178 0.4487657 1.9068674 nan
4.4849977 0.44058287 1.9068674 -3.1795137e+38
4.4849777 0.43239999 1.9068674 -2.1026332e+38
4.4319425 0.41813862 1.8986397 -2.383019e+38
4.4319229 0.41005674 1.8986397 -2.6618448e+38
4.4319029 0.40197489 1.8986397 -2.6482925e+38
4.4318833 0.393893 1.8986397 -2.6217598e+38
4.4848776 0.39148587 1.9068674 -2.6084678e+38
4.4848576 0.38330305 1.9068674 -2.581727e+38
4.4848375 0.37512019 1.9068674 -2.5550903e+38
4.4848175 0.36693734 1.9068674 -2.5284011e+38
4.484797 0.35875452 1.9068674 -2.2091781e+38
4.4317641 0.3454017 1.8986397 -1.876821e+38
4.3307209 0.32765988 1.8829608 -3.0228147e+38
4.3307014 0.3197704 1.8829608 nan
4.3306818 0.31188089 1.8829608 -3.221634e+38
4.3306627 0.30399141 1.8829608 -2.2767358e+38
4.3306432 0.2961019 1.8829608 -2.3952199e+38
4.3806353 0.29251835 1.8907226 -2.5151105e+38
4.3806152 0.28453362 1.8907226 -2.5020782e+38
4.3805957 0.27654883 1.8907226 -2.4885764e+38
4.4315858 0.27266479 1.8986397 -2.474815e+38
4.4845767 0.26874337 1.9068674 -2.4490152e+38
4.4315462 0.25650099 1.8986397 -2.6504304e+38
4.4315262 0.24841914 1.8986397 -2.8370949e+38
4.4315066 0.24033725 1.8986397 -3.0360652e+38
4.4314866 0.23225537 1.8986397 -3.2224713e+38
4.4314671 0.22417349 1.8986397 -3.1567394e+38
4.431447 0.21609163 1.8986397 -3.0770898e+38
4.4314275 0.20800972 1.8986397 -3.1167074e+38
4.4314075 0.19992784 1.8986397 -3.1433437e+38
4.3803806 0.18871674 1.8907226 -3.0892919e+38
4.3803611 0.18073198 1.8907226 -3.0245987e+38
4.3803415 0.17274725 1.8907226 nan
4.3303146 0.16198039 1.8829608 nan
4.3302951 0.15409088 1.8829608 nan
4.3302755 0.14620139 1.8829608 nan
4.3302565 0.13831189 1.8829608 nan
4.3802433 0.13282357 1.8907226 nan
4.3302178 0.12253289 1.8829608 nan
4.3802042 0.11685409 1.8907226 nan
4.3801847 0.10886934 1.8907226 nan
4.3801651 0.10088462 1.8907226 nan
4.3801455 0.092899874 1.8907226 nan
4.330121 0.083085388 1.8829608 nan
4.3301015 0.075195879 1.8829608 nan
4.3300824 0.067306384 1.8829608 -3.2381601e+38
4.3300629 0.059416875 1.8829608 nan
4.3300433 0.051527381 1.8829608 nan
4.3300242 0.043637872 1.8829608 nan
4.3300047 0.035748363 1.8829608 nan
4.3299856 0.027858868 1.8829608 -3.221737e+38
4.3299661 0.019969374 1.8829608 -2.6755555e+38
4.329947 0.012079865 1.8829608 -2.7014091e+38
4.3299274 0.0041903704 1.8829608 -2.7280983e+38
4.3299079 -0.0036991388 1.8829608 -2.6882742e+38
4.3298888 -0.011588637 1.8829608 -2.6350012e+38
4.3298693 -0.019478135 1.8829608 -2.6083128e+38
4.3798518 -0.026871204 1.8907226 -2.5685917e+38
4.3798323 -0.034855947 1.8907226 -2.5686958e+38
4.3798127 -0.042840682 1.8907226 -2.5555071e+38
4.3797932 -0.050825424 1.8907226 -2.5423185e+38
4.4307733 -0.05869237 1.8986397 -2.5289222e+38
4.4307532 -0.066774249 1.8986397 -2.5421102e+38
4.4837337 -0.07493563 1.9068674 -2.542006e+38
4.4837136 -0.083118461 1.9068674 -2.5286613e+38
4.4836936 -0.091301292 1.9068674 -2.5153173e+38
4.4836736 -0.099484131 1.9068674 -2.4887851e+38
4.4836535 -0.10766696 1.9068674 -2.4489606e+38
4.4836335 -0.11584979 1.9068674 -2.4889938e+38
4.4306145 -0.12334742 1.8986397 -2.5155271e+38
4.4305949 -0.1314293 1.8986397 -2.5422163e+38
4.4305749 -0.13951118 1.8986397 -2.5556128e+38
4.4305553 -0.14759307 1.8986397 -2.5955937e+38
4.4305353 -0.15567493 1.8986397 -2.6221259e+38
4.4835129 -0.16494679 1.9068674 -2.5685927e+38
4.3794994 -0.17059651 1.8907226 -2.5026027e+38
4.3794799 -0.17858124 1.8907226 -3.2226224e+38
4.4850583 0.46513134 1.8986845 nan
4.5390549 0.46355319 1.9069645 nan
4.4850178 0.4487657 1.8986845 nan
4.4849977 0.44058287 1.8986845 -3.1007985e+38
4.4319625 0.42622054 1.8905579 -2.0494123e+38
4.4319425 0.41813862 1.8905579 -2.3293309e+38
4.4319229 0.41005674 1.8905579 -2.6219683e+38
4.4319029 0.40197489 1.8905579 -2.621812e+38
4.4318833 0.393893 1.8905579 -2.62176e+38
4.4848776 0.39148587 1.8986845 -2.5951236e+38
4.4848576 0.38330305 1.8986845 -2.581727e+38
4.4848375 0.37512019 1.8986845 -2.5684341e+38
4.4848175 0.36693734 1.8986845 -2.5551404e+38
4.4317842 0.35348359 1.8905579 -2.3282354e+38
4.4317641 0.3454017 1.8905579 -2.0874198e+38
4.3307209 0.32765988 1.8750712 -3.1290495e+38
4.2816901 0.31517723 1.8675579 nan
4.281671 0.30738106 1.8675579 -3.1947341e+38
4.3306627 0.30399141 1.8750712 -2.2222674e+38
4.3306432 0.2961019 1.8750712 -2.3689483e+38
4.3306241 0.28821239 1.8750712 -2.5153188e+38
4.3806152 0.28453362 1.8827379 -2.5020259e+38
4.3805957 0.27654883 1.8827379 -2.4886277e+38
4.4315858 0.27266479 1.8905579 -2.4219047e+38
4.4845767 0.26874337 1.8986845 -2.3555033e+38
4.4315462 0.25650099 1.8905579 -2.6765509e+38
4.4315262 0.24841914 1.8905579 -2.997124e+38
4.4315066 0.24033725 1.8905579 -3.1164955e+38
4.4314866 0.23225537 1.8905579 -3.2494726e+38
4.4314671 0.22417349 1.8905579 -3.3831765e+38
4.431447 0.21609163 1.8905579 nan
4.3804197 0.20468622 1.8827379 -3.3826524e+38
4.3804002 0.19670147 1.8827379 -3.2358143e+38
4.3803806 0.18871674 1.8827379 -3.2895024e+38
4.3803611 0.18073198 1.8827379 -3.3560204e+38
4.3803415 0.17274725 1.8827379 nan
4.3303146 0.16198039 1.8750712 nan
4.3302951 0.15409088 1.8750712 nan
4.3302755 0.14620139 1.8750712 nan
4.3302565 0.13831189 1.8750712 nan
4.3802433 0.13282357 1.8827379 nan
4.3802238 0.12483883 1.8827379 nan
4.3802042 0.11685409 1.8827379 nan
4.3801847 0.10886934 1.8827379 nan
4.3801651 0.10088462 1.8827379 nan
4.3801455 0.092899874 1.8827379 nan
4.330121 0.083085388 1.8750712 nan
4.3301015 0.075195879 1.8750712 nan
4.3300824 0.067306384 1.8750712 nan
4.3300629 0.059416875 1.8750712 nan
4.3300433 0.051527381 1.8750712 nan
4.3300242 0.043637872 1.8750712 nan
4.3300047 0.035748363 1.8750712 nan
4.3299856 0.027858868 1.8750712 -3.1159698e+38
4.3299661 0.019969374 1.8750712 -2.6887445e+38
4.329947 0.012079865 1.8750712 -2.6883259e+38
4.3299274 0.0041903704 1.8750712 -2.7017222e+38
4.3299079 -0.0036991388 1.8750712 -2.6484495e+38
4.3298888 -0.011588637 1.8750712 -2.6084688e+38
4.3298693 -0.019478135 1.8750712 -2.5951763e+38
4.3798518 -0.026871204 1.8827379 -2.5819361e+38
4.3798323 -0.034855947 1.8827379 -2.5820402e+38
4.3798127 -0.042840682 1.8827379 -2.58204e+38
4.4307928 -0.050610486 1.8905579 -2.5687992e+38
4.4307733 -0.05869237 1.8905579 -2.5554548e+38
4.4307532 -0.066774249 1.8905579 -2.5554027e+38
4.4307337 -0.074856132 1.8905579 -2.5553504e+38
4.4307137 -0.082938015 1.8905579 -2.5420058e+38
4.4306941 -0.091019899 1.8905579 -2.5154216e+38
4.4836736 -0.099484131 1.8986845 -2.4888374e+38
4.4306545 -0.10718366 1.8905579 -2.4756494e+38
4.4836335 -0.11584979 1.8986845 -2.488994e+38
4.4306145 -0.12334742 1.8905579 -2.5155273e+38
4.4305949 -0.1314293 1.8905579 -2.5422682e+38
4.4305749 -0.13951118 1.8905579 -2.5689568e+38
4.4305553 -0.14759307 1.8905579 -2.6089375e+38
4.4305353 -0.15567493 1.8905579 -2.6489168e+38
4.379519 -0.16261175 1.8827379 -2.5820905e+38
4.3794994 -0.17059651 1.8827379 -2.528563e+38
4.3294826 -0.17726815 1.8750712 -3.1953626e+38
4.5390954 0.48012459 1.8986788 nan
4.5390754 0.47183889 1.8986788 nan
4.4850378 0.45694852 1.8905017 nan
4.4850178 0.4487657 1.8905017 nan
4.4849977 0.44058287 1.8905017 -3.0184456e+38
4.4319625 0.42622054 1.882476 -1.9957222e+38
4.4319425 0.41813862 1.882476 -2.2894539e+38
4.4319229 0.41005674 1.882476 -2.5686433e+38
4.4319029 0.40197489 1.882476 -2.5951236e+38
4.4318833 0.393893 1.882476 -2.6084156e+38
4.4318633 0.38581112 1.882476 -2.5950714e+38
4.4848576 0.38330305 1.8905017 -2.5684345e+38
4.4848375 0.37512019 1.8905017 -2.5816747e+38
4.4848175 0.36693734 1.8905017 -2.5814658e+38
4.4317842 0.35348359 1.882476 -2.4478146e+38
4.4317641 0.3454017 1.882476 -2.3023322e+38
4.3307209 0.32765988 1.8671817 -3.2373667e+38
4.2816901 0.31517723 1.8597617 nan
4.281671 0.30738106 1.8597617 -3.1663821e+38
4.281652 0.2995849 1.8597617 -2.1695643e+38
4.3306432 0.2961019 1.8671817 -2.3428828e+38
4.3306241 0.28821239 1.8671817 -2.5021821e+38
4.3806152 0.28453362 1.8747531 -2.5020778e+38
4.3805957 0.27654883 1.8747531 -2.4886287e+38
4.4315858 0.27266479 1.882476 -2.3686859e+38
4.4845767 0.26874337 1.8905017 -2.2495797e+38
4.4315462 0.25650099 1.882476 -2.7030282e+38
4.4315262 0.24841914 1.882476 -3.1429222e+38
4.4315066 0.24033725 1.882476 -3.2098017e+38
4.4314866 0.23225537 1.882476 -3.2634409e+38
4.4314671 0.22417349 1.882476 nan
4.431447 0.21609163 1.882476 nan
4.4314275 0.20800972 1.882476 nan
4.4314075 0.19992784 1.882476 -3.3168693e+38
4.3803806 0.18871674 1.8747531 nan
4.3803611 0.18073198 1.8747531 nan
4.3803415 0.17274725 1.8747531 nan
4.3303146 0.16198039 1.8671817 nan
4.3302951 0.15409088 1.8671817 nan
4.3302755 0.14620139 1.8671817 nan
4.3302565 0.13831189 1.8671817 nan
4.3802433 0.13282357 1.8747531 nan
4.3802238 0.12483883 1.8747531 nan
4.3802042 0.11685409 1.8747531 nan
4.3801847 0.10886934 1.8747531 nan
4.3801651 0.10088462 1.8747531 nan
4.3801455 0.092899874 1.8747531 nan
4.380126 0.084915131 1.8747531 -3.3980313e+38
4.3801064 0.076930404 1.8747531 nan
4.3300824 0.067306384 1.8671817 nan
4.3300629 0.059416875 1.8671817 nan
4.3300433 0.051527381 1.8671817 nan
4.3300242 0.043637872 1.8671817 nan
4.3300047 0.035748363 1.8671817 -3.3438161e+38
4.3299856 0.027858868 1.8671817 -3.0226646e+38
4.3299661 0.019969374 1.8671817 -2.6887964e+38
4.329947 0.012079865 1.8671817 -2.6879103e+38
4.37993 0.0050677434 1.8747531 -2.6749819e+38
4.3799105 -0.0029169917 1.8747531 -2.6219172e+38
4.3798909 -0.010901727 1.8747531 -2.568696e+38
4.3798714 -0.018886469 1.8747531 -2.5820402e+38
4.3798518 -0.026871204 1.8747531 -2.5953846e+38
4.3798323 -0.034855947 1.8747531 -2.6087811e+38
4.4308128 -0.042528607 1.882476 -2.6087288e+38
4.4307928 -0.050610486 1.882476 -2.5953844e+38
4.4307733 -0.05869237 1.882476 -2.5820917e+38
4.4307532 -0.066774249 1.882476 -2.5820392e+38
4.4307337 -0.074856132 1.882476 -2.5686946e+38
4.4307137 -0.082938015 1.882476 -2.5420579e+38
4.4306941 -0.091019899 1.882476 -2.5154218e+38
4.4836736 -0.099484131 1.8905017 -2.5020782e+38
4.4836535 -0.10766696 1.8905017 -2.4889419e+38
4.4836335 -0.11584979 1.8905017 -2.5022865e+38
4.4306145 -0.12334742 1.882476 -2.5156313e+38
4.3795972 -0.13067281 1.8747531 -2.5556124e+38
4.4305749 -0.13951118 1.882476 -2.5823008e+38
4.4305553 -0.14759307 1.882476 -2.635574e+38
4.4305353 -0.15567493 1.882476 -2.6755017e+38
4.4305158 -0.16375682 1.882476 -2.6089355e+38
4.3794994 -0.17059651 1.8747531 -2.5422702e+38
4.3294826 -0.17726815 1.8671817 -3.1674266e+38
4.5391159 0.48841029 1.890393 nan
4.5390954 0.48012459 1.890393 nan
4.5390754 0.47183889 1.890393 nan
4.4850378 0.45694852 1.8823187 nan
4.4850178 0.4487657 1.8823187 nan
4.4849977 0.44058287 1.8823187 -3.1261306e+38
4.4319625 0.42622054 1.8743941 -2.2339431e+38
4.4319425 0.41813862 1.8743941 -2.4352014e+38
4.4319229 0.41005674 1.8743941 -2.6350525e+38
4.4319029 0.40197489 1.8743941 -2.6350521e+38
4.4318833 0.393893 1.8743941 -2.6217077e+38
4.4318633 0.38581112 1.8743941 -2.595071e+38
4.4318433 0.37772921 1.8743941 -2.5684865e+38
4.4318237 0.36964735 1.8743941 -2.5684345e+38
4.4318037 0.36156547 1.8743941 -2.5816739e+38
4.3307595 0.34343889 1.8592921 -2.4611075e+38
4.33074 0.33554941 1.8592921 -2.3406026e+38
4.3307209 0.32765988 1.8592921 -3.2492627e+38
4.2816901 0.31517723 1.8519654 nan
4.281671 0.30738106 1.8519654 -3.2208473e+38
4.281652 0.2995849 1.8519654 -2.2891419e+38
4.3306432 0.2961019 1.8592921 -2.4091361e+38
4.3306241 0.28821239 1.8592921 -2.5420587e+38
4.3806152 0.28453362 1.8667684 -2.5287141e+38
4.3805957 0.27654883 1.8667684 -2.5153182e+38
4.4315858 0.27266479 1.8743941 -2.3554475e+38
4.4315658 0.2645829 1.8743941 -2.2091311e+38
4.4315462 0.25650099 1.8743941 -2.6763881e+38
4.4315262 0.24841914 1.8743941 -3.1300437e+38
4.3804979 0.23662516 1.8667684 -3.2498866e+38
4.4314866 0.23225537 1.8743941 -3.3558131e+38
4.4314671 0.22417349 1.8743941 nan
4.431447 0.21609163 1.8743941 nan
4.3804197 0.20468622 1.8667684 nan
4.4314075 0.19992784 1.8743941 nan
4.3803806 0.18871674 1.8667684 nan
4.3803611 0.18073198 1.8667684 nan
4.4313478 0.1756822 1.8743941 nan
4.3803215 0.16476251 1.8667684 nan
4.380302 0.15677778 1.8667684 nan
4.3302755 0.14620139 1.8592921 nan
4.3802629 0.1408083 1.8667684 nan
4.3802433 0.13282357 1.8667684 nan
4.3802238 0.12483883 1.8667684 nan
4.3802042 0.11685409 1.8667684 nan
4.3801847 0.10886934 1.8667684 nan
4.4311695 0.10294525 1.8743941 nan
4.43115 0.09486337 1.8743941 nan
4.4311299 0.086781487 1.8743941 nan
4.3801064 0.076930404 1.8667684 nan
4.3800869 0.068945646 1.8667684 nan
4.3800673 0.060960919 1.8667684 nan
4.3800478 0.052976191 1.8667684 nan
4.3800278 0.044991434 1.8667684 nan
4.3800082 0.037006706 1.8667684 -3.3442832e+38
4.3799887 0.029021963 1.8667684 -3.0359053e+38
4.3799691 0.021037221 1.8667684 -2.7279466e+38
4.3799496 0.013052486 1.8667684 -2.688014e+38
4.37993 0.0050677434 1.8667684 -2.6617417e+38
4.3799105 -0.0029169917 1.8667684 -2.6219174e+38
4.3798909 -0.010901727 1.8667684 -2.5953329e+38
4.3798714 -0.018886469 1.8667684 -2.5820925e+38
4.3798518 -0.026871204 1.8667684 -2.5821448e+38
4.3798323 -0.034855947 1.8667684 -2.5954373e+38
4.4308128 -0.042528607 1.8743941 -2.595489e+38
4.4307928 -0.050610486 1.8743941 -2.5954369e+38
4.4307733 -0.05869237 1.8743941 -2.5821438e+38
4.4307532 -0.066774249 1.8743941 -2.5820392e+38
4.4307337 -0.074856132 1.8743941 -2.5686428e+38
4.4307137 -0.082938015 1.8743941 -2.5552982e+38
4.4836936 -0.091301292 1.8823187 -2.5419546e+38
4.4836736 -0.099484131 1.8823187 -2.5287668e+38
4.4836535 -0.10766696 1.8823187 -2.5155269e+38
4.4836335 -0.11584979 1.8823187 -2.5289232e+38
4.4306145 -0.12334742 1.8743941 -2.5422678e+38
4.4305949 -0.1314293 1.8743941 -2.5689566e+38
4.4305749 -0.13951118 1.8743941 -2.595645e+38
4.4305553 -0.14759307 1.8743941 -2.648918e+38
4.4305353 -0.15567493 1.8743941 -2.7021903e+38
4.4305158 -0.16375682 1.8743941 -2.648761e+38
4.3794994 -0.17059651 1.8667684 -2.6085235e+38
4.3794799 -0.17858124 1.8667684 -3.1281712e+38
4.5391159 0.48841029 1.8821074 nan
4.5390954 0.48012459 1.8821074 nan
4.4850583 0.46513134 1.874136 nan
4.4850378 0.45694852 1.874136 nan
4.4850178 0.4487657 1.874136 nan
4.431982 0.43430239 1.8663121 -3.2308617e+38
4.4319625 0.42622054 1.8663121 -2.4611071e+38
4.4319425 0.41813862 1.8663121 -2.5822471e+38
4.4319229 0.41005674 1.8663121 -2.7017216e+38
4.4319029 0.40197489 1.8663121 -2.6750849e+38
4.4318833 0.393893 1.8663121 -2.6350521e+38
4.4318633 0.38581112 1.8663121 -2.6083637e+38
4.4318433 0.37772921 1.8663121 -2.5684869e+38
4.4318237 0.36964735 1.8663121 -2.5684352e+38
4.4318037 0.36156547 1.8663121 -2.5680701e+38
4.3307595 0.34343889 1.8514026 -2.4743994e+38
4.33074 0.33554941 1.8514026 -2.3695231e+38
4.3307209 0.32765988 1.8514026 -3.2639044e+38
4.3307014 0.3197704 1.8514026 nan
4.3306818 0.31188089 1.8514026 -3.2728207e+38
4.3306627 0.30399141 1.8514026 -2.3954793e+38
4.3306432 0.2961019 1.8514026 -2.4890975e+38
4.3806353 0.29251835 1.8587836 -2.568695e+38
4.3806152 0.28453362 1.8587836 -2.5552984e+38
4.4316058 0.28074667 1.8663121 -2.5285054e+38
4.4315858 0.27266479 1.8663121 -2.3552895e+38
4.4845767 0.26874337 1.874136 -2.1697728e+38
4.4315462 0.25650099 1.8663121 -2.6500124e+38
4.4315262 0.24841914 1.8663121 -3.1162849e+38
4.4315066 0.24033725 1.8663121 -3.2905429e+38
4.4314866 0.23225537 1.8663121 nan
4.4314671 0.22417349 1.8663121 nan
4.431447 0.21609163 1.8663121 nan
4.4314275 0.20800972 1.8663121 nan
4.4314075 0.19992784 1.8663121 nan
4.4313874 0.19184595 1.8663121 nan
4.4313679 0.1837641 1.8663121 nan
4.4313478 0.1756822 1.8663121 nan
4.3803215 0.16476251 1.8587836 nan
4.380302 0.15677778 1.8587836 nan
4.3802824 0.14879304 1.8587836 nan
4.3802629 0.1408083 1.8587836 nan
4.3802433 0.13282357 1.8587836 nan
4.3802238 0.12483883 1.8587836 nan
4.3802042 0.11685409 1.8587836 nan
4.4311895 0.11102714 1.8663121 nan
4.4311695 0.10294525 1.8663121 nan
4.43115 0.09486337 1.8663121 nan
4.4311299 0.086781487 1.8663121 nan
4.3801064 0.076930404 1.8587836 nan
4.3800869 0.068945646 1.8587836 nan
4.3800673 0.060960919 1.8587836 nan
4.3800478 0.052976191 1.8587836 nan
4.4310308 0.046372086 1.8663121 nan
4.4310112 0.038290203 1.8663121 -3.3300569e+38
4.3799887 0.029021963 1.8587836 -3.0486279e+38
4.4309716 0.022126444 1.8663121 -2.7552071e+38
4.3799496 0.013052486 1.8587836 -2.7010994e+38
4.37993 0.0050677434 1.8587836 -2.6483981e+38
4.3799105 -0.0029169917 1.8587836 -2.6353144e+38
4.3798909 -0.010901727 1.8587836 -2.6086775e+38
4.3798714 -0.018886469 1.8587836 -2.595385e+38
4.4308524 -0.026364844 1.8663121 -2.5688006e+38
4.4308329 -0.034446727 1.8663121 -2.5820931e+38
4.4308128 -0.042528607 1.8663121 -2.5821446e+38
4.4307928 -0.050610486 1.8663121 -2.5821962e+38
4.4307733 -0.05869237 1.8663121 -2.5820917e+38
4.4307532 -0.066774249 1.8663121 -2.5820911e+38
4.4837337 -0.07493563 1.874136 -2.568695e+38
4.4837136 -0.083118461 1.874136 -2.5685909e+38
4.4836936 -0.091301292 1.874136 -2.5686433e+38
4.4836736 -0.099484131 1.874136 -2.5554033e+38
4.4836535 -0.10766696 1.874136 -2.5288709e+38
4.4836335 -0.11584979 1.874136 -2.5422153e+38
4.4306145 -0.12334742 1.8663121 -2.5556118e+38
4.4305949 -0.1314293 1.8663121 -2.5823006e+38
4.4305749 -0.13951118 1.8663121 -2.6089373e+38
4.4305553 -0.14759307 1.8663121 -2.6755027e+38
4.4305353 -0.15567493 1.8663121 -2.7286719e+38
4.4305158 -0.16375682 1.8663121 -2.7019317e+38
4.3794994 -0.17059651 1.8587836 -2.6620038e+38
4.3794799 -0.17858124 1.8587836 -3.1008577e+38
4.4851184 0.48967987 1.8659531 nan
4.4850984 0.48149705 1.8659531 nan
4.4850783 0.47331417 1.8659531 nan
4.4850583 0.46513134 1.8659531 nan
4.4850378 0.45694852 1.8659531 nan
4.4850178 0.4487657 1.8659531 nan
4.4849977 0.44058287 1.8659531 -3.0471085e+38
4.4849777 0.43239999 1.8659531 -2.5017638e+38
4.4849577 0.42421722 1.8659531 -2.5952793e+38
4.4319229 0.41005674 1.8582302 -2.7017216e+38
4.4319029 0.40197489 1.8582302 -2.6617409e+38
4.4318833 0.393893 1.8582302 -2.6217083e+38
4.4318633 0.38581112 1.8582302 -2.6084158e+38
4.4318433 0.37772921 1.8582302 -2.5817796e+38
4.4318237 0.36964735 1.8582302 -2.5416952e+38
4.4318037 0.36156547 1.8582302 -2.5014529e+38
4.3807721 0.3484115 1.8507988 -2.8340694e+38
4.3807526 0.34042677 1.8507988 -3.1671114e+38
4.3307209 0.32765988 1.843513 nan
4.3307014 0.3197704 1.843513 nan
4.3306818 0.31188089 1.843513 -3.0746293e+38
4.3306627 0.30399141 1.843513 -2.461369e+38
4.3306432 0.2961019 1.843513 -2.5153705e+38
4.3806353 0.29251835 1.8507988 -2.5685909e+38
4.4316254 0.28882852 1.8582302 -2.5419538e+38
4.4316058 0.28074667 1.8582302 -2.5285559e+38
4.4845967 0.27692619 1.8659531 -2.3819236e+38
4.4845767 0.26874337 1.8659531 -2.2356105e+38
4.4845562 0.26056051 1.8659531 -2.6894749e+38
4.4315262 0.24841914 1.8582302 -3.1552282e+38
4.4315066 0.24033725 1.8582302 -3.3029531e+38
4.4314866 0.23225537 1.8582302 nan
4.4314671 0.22417349 1.8582302 nan
4.431447 0.21609163 1.8582302 nan
4.4314275 0.20800972 1.8582302 nan
4.4314075 0.19992784 1.8582302 nan
4.4313874 0.19184595 1.8582302 nan
4.4313679 0.1837641 1.8582302 nan
4.4313478 0.1756822 1.8582302 nan
4.4313283 0.1676003 1.8582302 nan
4.4313083 0.15951842 1.8582302 nan
4.4312887 0.15143654 1.8582302 nan
4.4312687 0.14335467 1.8582302 nan
4.4312487 0.13527277 1.8582302 nan
4.4312291 0.1271909 1.8582302 nan
4.4312091 0.119109 1.8582302 nan
4.4311895 0.11102714 1.8582302 nan
4.4311695 0.10294525 1.8582302 nan
4.43115 0.09486337 1.8582302 nan
4.4311299 0.086781487 1.8582302 nan
4.4311104 0.078699604 1.8582302 nan
4.4310904 0.07061772 1.8582302 nan
4.4310703 0.062535852 1.8582302 nan
4.4310508 0.054453954 1.8582302 nan
4.4310308 0.046372086 1.8582302 nan
4.4310112 0.038290203 1.8582302 -3.3041479e+38
4.3799887 0.029021963 1.8507988 -3.1560058e+38
4.4309716 0.022126444 1.8582302 -3.021573e+38
4.4309516 0.01404456 1.8582302 -2.8216653e+38
4.4309316 0.0059626773 1.8582302 -2.6352624e+38
4.430912 -0.0021192059 1.8582302 -2.6220746e+38
4.3798909 -0.010901727 1.8507988 -2.6086781e+38
4.4308724 -0.018282965 1.8582302 -2.5953852e+38
4.4308524 -0.026364844 1.8582302 -2.5688006e+38
4.4308329 -0.034446727 1.8582302 -2.5688006e+38
4.4308128 -0.042528607 1.8582302 -2.568852e+38
4.4837937 -0.050387129 1.8659531 -2.5820917e+38
4.4307733 -0.05869237 1.8582302 -2.5819877e+38
4.4307532 -0.066774249 1.8582302 -2.5687469e+38
4.4837337 -0.07493563 1.8659531 -2.5554548e+38
4.4837136 -0.083118461 1.8659531 -2.555351e+38
4.4836936 -0.091301292 1.8659531 -2.5421108e+38
4.4836736 -0.099484131 1.8659531 -2.5420589e+38
4.4836535 -0.10766696 1.8659531 -2.542111e+38
4.4836335 -0.11584979 1.8659531 -2.5555071e+38
4.4306145 -0.12334742 1.8582302 -2.582144e+38
4.4305949 -0.1314293 1.8582302 -2.6088328e+38
4.4305749 -0.13951118 1.8582302 -2.6487622e+38
4.4305553 -0.14759307 1.8582302 -2.7019837e+38
4.4305353 -0.15567493 1.8582302 -2.7552055e+38
4.379519 -0.16261175 1.8507988 -2.7152774e+38
4.3794994 -0.17059651 1.8507988 -2.6886401e+38
4.4304757 -0.17992058 1.8582302 -3.0346537e+38
4.4851184 0.48967987 1.8577702 nan
4.4850984 0.48149705 1.8577702 nan
4.4850783 0.47331417 1.8577702 nan
4.4850583 0.46513134 1.8577702 nan
4.4850378 0.45694852 1.8577702 nan
4.4850178 0.4487657 1.8577702 -3.1821164e+38
4.4849977 0.44058287 1.8577702 -2.8602913e+38
4.4849777 0.43239999 1.8577702 -2.5284011e+38
4.4849577 0.42421722 1.8577702 -2.6086757e+38
4.4319229 0.41005674 1.8501483 -2.6884291e+38
4.4319029 0.40197489 1.8501483 -2.6485004e+38
4.4318833 0.393893 1.8501483 -2.6085197e+38
4.4318633 0.38581112 1.8501483 -2.608468e+38
4.4318433 0.37772921 1.8501483 -2.5950722e+38
4.4318237 0.36964735 1.8501483 -2.515163e+38
4.4318037 0.36156547 1.8501483 -2.4351491e+38
4.4317842 0.35348359 1.8501483 -3.1933277e+38
4.3807526 0.34042677 1.842814 nan
4.3307209 0.32765988 1.8356235 nan
4.3307014 0.3197704 1.8356235 -3.2623901e+38
4.3306818 0.31188089 1.8356235 -2.8876553e+38
4.3306627 0.30399141 1.8356235 -2.5153169e+38
4.4316649 0.30499232 1.8501483 -2.5423183e+38
4.4316454 0.29691041 1.8501483 -2.568695e+38
4.4316254 0.28882852 1.8501483 -2.5419544e+38
4.4316058 0.28074667 1.8501483 -2.515109e+38
4.4845967 0.27692619 1.8577702 -2.4083023e+38
4.4845767 0.26874337 1.8577702 -2.3029573e+38
4.4845562 0.26056051 1.8577702 -2.7435825e+38
4.4315262 0.24841914 1.8501483 -3.1828009e+38
4.4315066 0.24033725 1.8501483 -3.3160373e+38
4.4314866 0.23225537 1.8501483 nan
4.4314671 0.22417349 1.8501483 nan
4.431447 0.21609163 1.8501483 nan
4.4314275 0.20800972 1.8501483 nan
4.4314075 0.19992784 1.8501483 nan
4.4313874 0.19184595 1.8501483 nan
4.4313679 0.1837641 1.8501483 nan
4.4313478 0.1756822 1.8501483 nan
4.4313283 0.1676003 1.8501483 nan
4.4313083 0.15951842 1.8501483 nan
4.4312887 0.15143654 1.8501483 nan
4.4312687 0.14335467 1.8501483 nan
4.4312487 0.13527277 1.8501483 nan
4.3802238 0.12483883 1.842814 nan
4.4312091 0.119109 1.8501483 nan
4.4311895 0.11102714 1.8501483 nan
4.4311695 0.10294525 1.8501483 nan
4.43115 0.09486337 1.8501483 nan
4.4311299 0.086781487 1.8501483 nan
4.4311104 0.078699604 1.8501483 nan
4.4310904 0.07061772 1.8501483 nan
4.4310703 0.062535852 1.8501483 nan
4.4310508 0.054453954 1.8501483 nan
4.4310308 0.046372086 1.8501483 -3.3841158e+38
4.4310112 0.038290203 1.8501483 -3.2638575e+38
4.4309912 0.030208319 1.8501483 -3.2761586e+38
4.4309716 0.022126444 1.8501483 -3.2887193e+38
4.4309516 0.01404456 1.8501483 -2.9553175e+38
4.4309316 0.0059626773 1.8501483 -2.6090426e+38
4.430912 -0.0021192059 1.8501483 -2.60899e+38
4.430892 -0.010201082 1.8501483 -2.6087815e+38
4.4308724 -0.018282965 1.8501483 -2.5953848e+38
4.4308524 -0.026364844 1.8501483 -2.5687483e+38
4.4308329 -0.034446727 1.8501483 -2.5686964e+38
4.4308128 -0.042528607 1.8501483 -2.5554554e+38
4.4837937 -0.050387129 1.8577702 -2.5686433e+38
4.4307733 -0.05869237 1.8501483 -2.5819353e+38
4.4307532 -0.066774249 1.8501483 -2.568643e+38
4.4837337 -0.07493563 1.8577702 -2.5420585e+38
4.4837136 -0.083118461 1.8577702 -2.5286104e+38
4.4836936 -0.091301292 1.8577702 -2.5153703e+38
4.4836736 -0.099484131 1.8577702 -2.5419548e+38
4.4836535 -0.10766696 1.8577702 -2.5554031e+38
4.4836335 -0.11584979 1.8577702 -2.5820915e+38
4.4306145 -0.12334742 1.8501483 -2.5954361e+38
4.4305949 -0.1314293 1.8501483 -2.635417e+38
4.4305749 -0.13951118 1.8501483 -2.6753466e+38
4.4305553 -0.14759307 1.8501483 -2.7285165e+38
4.4305353 -0.15567493 1.8501483 -2.768498e+38
4.379519 -0.16261175 1.842814 -2.7419145e+38
4.3794994 -0.17059651 1.842814 -2.7019328e+38
4.4304757 -0.17992058 1.8501483 -2.9672583e+38
4.4851184 0.48967987 1.8495874 nan
4.4850984 0.48149705 1.8495874 nan
4.4850783 0.47331417 1.8495874 nan
4.4850583 0.46513134 1.8495874 nan
4.4850378 0.45694852 1.8495874 nan
4.4850178 0.4487657 1.8495874 -2.9692326e+38
4.4849977 0.44058287 1.8495874 -2.7548891e+38
4.4849777 0.43239999 1.8495874 -2.5416423e+38
4.4849577 0.42421722 1.8495874 -2.5953315e+38
4.4319229 0.41005674 1.8420664 -2.6618965e+38
4.4319029 0.40197489 1.8420664 -2.6352596e+38
4.4318833 0.393893 1.8420664 -2.6085716e+38
4.4318633 0.38581112 1.8420664 -2.5952278e+38
4.4318433 0.37772921 1.8420664 -2.581884e+38
4.4318237 0.36964735 1.8420664 -2.3421561e+38
4.4318037 0.36156547 1.8420664 -2.1154612e+38
4.4317842 0.35348359 1.8420664 -3.1548558e+38
4.4317641 0.3454017 1.8420664 nan
4.4317446 0.33731982 1.8420664 nan
4.3307014 0.3197704 1.827734 -2.8884405e+38
4.4317045 0.32115605 1.8420664 -2.7547329e+38
4.431685 0.31307417 1.8420664 -2.6218631e+38
4.4316649 0.30499232 1.8420664 -2.5952795e+38
4.4316454 0.29691041 1.8420664 -2.5686433e+38
4.4316254 0.28882852 1.8420664 -2.5286108e+38
4.4316058 0.28074667 1.8420664 -2.4886296e+38
4.4845967 0.27692619 1.8495874 -2.5684343e+38
4.4845767 0.26874337 1.8495874 -2.6351633e+38
4.4845562 0.26056051 1.8495874 -3.0495682e+38
4.4315262 0.24841914 1.8420664 nan
