# .PCD v0.7 - Point Cloud Data file format
VERSION 0.7
FIELDS x y z rgb
SIZE 4 4 4 4
TYPE F F F F
COUNT 1 1 1 1
WIDTH 1044
HEIGHT 1
VIEWPOINT 0 0 0 1 0 0 0
POINTS 1044
DATA ascii
2.6682556 -1.0664614 1.2423245 -2.3015474e+38
2.6682446 -1.0711814 1.2423245 -2.3281839e+38
2.6682339 -1.0759014 1.2423245 -2.3548155e+38
2.6682231 -1.0806214 1.2423245 -2.04779e+38
2.6682122 -1.0853415 1.2423245 -1.7414108e+38
2.6682014 -1.0900614 1.2423245 -2.4911448e+38
2.6502075 -1.0873516 1.2423073 -3.2409189e+38
2.6501968 -1.0920373 1.2423073 nan
2.6332021 -1.0896413 1.2422911 nan
2.8398383 -0.8121652 1.2374417 -2.4216453e+38
2.8398268 -0.81721085 1.2374417 -2.3683194e+38
2.819828 -0.81659174 1.2374607 -2.3017535e+38
2.8198166 -0.8215993 1.2374607 -2.2751166e+38
2.8198051 -0.82660693 1.2374607 -2.2485319e+38
2.8197937 -0.83161455 1.2374607 -2.2486353e+38
2.8197823 -0.83662218 1.2374607 -2.2351873e+38
2.8197708 -0.84162974 1.2374607 -2.2084988e+38
2.8197594 -0.84663731 1.2374607 -2.1685701e+38
2.7997613 -0.84571344 1.2374797 -2.155122e+38
2.7997499 -0.85068297 1.2374797 -2.1284851e+38
2.7997386 -0.85565251 1.2374797 -2.1284328e+38
2.779741 -0.85457623 1.2374988 -2.1284328e+38
2.7797298 -0.85950762 1.2374988 -2.1150886e+38
2.7797186 -0.86443901 1.2374988 -2.1017438e+38
2.7797072 -0.8693704 1.2374988 -2.0751069e+38
2.779696 -0.87430185 1.2374988 -2.0350739e+38
2.7796848 -0.8792333 1.2374988 -2.0083334e+38
2.7796733 -0.88416469 1.2374988 -1.9683519e+38
2.7796621 -0.88909608 1.2374988 -1.9283706e+38
2.7606645 -0.88799447 1.2375169 -1.874993e+38
2.7796395 -0.89895892 1.2374988 -1.848252e+38
2.7796283 -0.90389037 1.2374988 -1.8215634e+38
2.7796168 -0.90882176 1.2374988 -1.808219e+38
2.7796056 -0.91375315 1.2374988 -1.7948746e+38
2.7795944 -0.9186846 1.2374988 -1.7948225e+38
2.779583 -0.92361605 1.2374988 -1.7948748e+38
2.7995565 -0.93516469 1.2374797 -1.8346999e+38
2.799545 -0.94013417 1.2374797 -1.8747851e+38
2.7995336 -0.9451037 1.2374797 -1.8881816e+38
2.7795379 -0.94334167 1.2374988 -1.9016298e+38
2.7795267 -0.94827312 1.2374988 -1.9149223e+38
2.76053 -0.94673723 1.2375169 -1.9282146e+38
2.7605188 -0.95163244 1.2375169 -1.9281627e+38
2.7605076 -0.95652765 1.2375169 -1.9282667e+38
2.7415113 -0.95484698 1.237535 -1.9416631e+38
2.7415001 -0.95970601 1.237535 -1.9416633e+38
2.7225041 -0.9579168 1.237553 -1.9949886e+38
2.7045076 -0.95640707 1.2375702 -2.0481577e+38
2.7044966 -0.96119565 1.2375702 -2.0081253e+38
2.7044857 -0.96598417 1.2375702 -1.95506e+38
2.7044747 -0.97077274 1.2375702 -1.9416639e+38
2.6864784 -0.96909153 1.2375873 -1.9283189e+38
2.6684825 -0.96734178 1.2376045 -1.9416625e+38
2.6864567 -0.97860003 1.2375873 -1.9416109e+38
2.6864457 -0.98335433 1.2375873 -1.9681959e+38
2.686435 -0.98810858 1.2375873 -1.9815401e+38
2.6684394 -0.98622167 1.2376045 -1.9683515e+38
2.6684284 -0.9909417 1.2376045 -1.9416113e+38
2.6684177 -0.99566168 1.2376045 -1.9681442e+38
2.668407 -1.0003816 1.2376045 -1.9815924e+38
2.6504114 -0.99832326 1.2376217 -1.9949368e+38
2.6504006 -1.003009 1.2376217 -1.994989e+38
2.6503899 -1.0076946 1.2376217 -2.0081778e+38
2.6503792 -1.0123804 1.2376217 -2.0216782e+38
2.6503685 -1.0170661 1.2376217 -2.0750035e+38
2.6503577 -1.0217518 1.2376217 -2.1282768e+38
2.650347 -1.0264374 1.2376217 -2.1283811e+38
2.6503363 -1.0311232 1.2376217 -2.1283294e+38
2.6503255 -1.0358089 1.2376217 -2.1282775e+38
2.6682987 -1.0475816 1.2376045 -2.1283298e+38
2.668288 -1.0523015 1.2376045 -2.1816553e+38
2.668277 -1.0570215 1.2376045 -2.2347733e+38
2.6682663 -1.0617415 1.2376045 -2.2613587e+38
2.6682556 -1.0664614 1.2376045 -2.2881511e+38
2.6682446 -1.0711814 1.2376045 -2.3148916e+38
2.6682339 -1.0759014 1.2376045 -2.3279217e+38
2.6862063 -1.0879483 1.2375873 -2.0477946e+38
2.6682122 -1.0853415 1.2376045 -1.756206e+38
2.6682014 -1.0900614 1.2376045 -1.9305741e+38
2.6681907 -1.0947814 1.2376045 -2.1064986e+38
2.6501968 -1.0920373 1.2376217 nan
2.6501861 -1.096723 1.2376217 nan
2.8398383 -0.8121652 1.2323959 -2.3950607e+38
2.8398268 -0.81721085 1.2323959 -2.3550788e+38
2.819828 -0.81659174 1.2324531 -2.3018576e+38
2.8198166 -0.8215993 1.2324531 -2.2752207e+38
2.8198051 -0.82660693 1.2324531 -2.248584e+38
2.8197937 -0.83161455 1.2324531 -2.2352394e+38
2.8197823 -0.83662218 1.2324531 -2.2217913e+38
2.8197708 -0.84162974 1.2324531 -2.1951546e+38
2.8197594 -0.84663731 1.2324531 -2.168518e+38
2.7997613 -0.84571344 1.2325102 -2.1418294e+38
2.7797637 -0.84471333 1.2325673 -2.128433e+38
2.7997386 -0.85565251 1.2325102 -2.1284326e+38
2.779741 -0.85457623 1.2325673 -2.1150882e+38
2.7797298 -0.85950762 1.2325673 -2.115088e+38
2.7797186 -0.86443901 1.2325673 -2.1017438e+38
2.7797072 -0.8693704 1.2325673 -2.0751071e+38
2.779696 -0.87430185 1.2325673 -2.0483666e+38
2.7796848 -0.8792333 1.2325673 -2.0217299e+38
2.7796733 -0.88416469 1.2325673 -1.9950409e+38
2.7606757 -0.88309932 1.2326217 -1.9417152e+38
2.7606645 -0.88799447 1.2326217 -1.9016818e+38
2.7796395 -0.89895892 1.2325673 -1.8616483e+38
2.7796283 -0.90389037 1.2325673 -1.8216155e+38
2.7796168 -0.90882176 1.2325673 -1.8215634e+38
2.7796056 -0.91375315 1.2325673 -1.808219e+38
2.7795944 -0.9186846 1.2325673 -1.8081669e+38
2.779583 -0.92361605 1.2325673 -1.7948748e+38
2.7995565 -0.93516469 1.2325102 -1.8348038e+38
2.799545 -0.94013417 1.2325102 -1.8747851e+38
2.7995336 -0.9451037 1.2325102 -1.9015779e+38
2.7795379 -0.94334167 1.2325673 -1.914974e+38
2.7795267 -0.94827312 1.2325673 -1.914974e+38
2.76053 -0.94673723 1.2326217 -1.9148704e+38
2.7605188 -0.95163244 1.2326217 -1.9282148e+38
2.7605076 -0.95652765 1.2326217 -1.9282667e+38
2.7415113 -0.95484698 1.2326759 -1.9282667e+38
2.7415001 -0.95970601 1.2326759 -1.941559e+38
2.7225041 -0.9579168 1.2327302 -1.9682474e+38
2.7045076 -0.95640707 1.2327816 -2.0081247e+38
2.7044966 -0.96119565 1.2327816 -1.9948847e+38
2.7044857 -0.96598417 1.2327816 -1.9816446e+38
2.7044747 -0.97077274 1.2327816 -1.9683006e+38
2.6864784 -0.96909153 1.232833 -1.9416633e+38
2.6684825 -0.96734178 1.2328845 -1.9416625e+38
2.6864567 -0.97860003 1.232833 -1.9550071e+38
2.6864457 -0.98335433 1.232833 -1.9549034e+38
2.6684501 -0.9815017 1.2328845 -1.9548513e+38
2.6684394 -0.98622167 1.2328845 -1.9681953e+38
2.6684284 -0.9909417 1.2328845 -1.9812803e+38
2.6684177 -0.99566168 1.2328845 -1.9814363e+38
2.668407 -1.0003816 1.2328845 -1.9948328e+38
2.6504114 -0.99832326 1.2329359 -1.994989e+38
2.6504006 -1.003009 1.2329359 -2.0083334e+38
2.6503899 -1.0076946 1.2329359 -2.0216256e+38
2.6503792 -1.0123804 1.2329359 -2.0483666e+38
2.6503685 -1.0170661 1.2329359 -2.0750556e+38
2.6503577 -1.0217518 1.2329359 -2.1150884e+38
2.650347 -1.0264374 1.2329359 -2.1150884e+38
2.6503363 -1.0311232 1.2329359 -2.1150884e+38
2.6683095 -1.0428616 1.2328845 -2.1282247e+38
2.6682987 -1.0475816 1.2328845 -2.1414138e+38
2.668288 -1.0523015 1.2328845 -2.1813431e+38
2.668277 -1.0570215 1.2328845 -2.2342535e+38
2.6682663 -1.0617415 1.2328845 -2.2479619e+38
2.686239 -1.0736855 1.232833 -2.2747548e+38
2.686228 -1.0784398 1.232833 -2.2882552e+38
2.6862171 -1.0831941 1.232833 -2.3017549e+38
2.6862063 -1.0879483 1.232833 -2.1419356e+38
2.6861954 -1.0927026 1.232833 -1.996243e+38
2.6682014 -1.0900614 1.2328845 -1.9687271e+38
2.6681907 -1.0947814 1.2328845 -1.9408049e+38
2.6681798 -1.0995014 1.2328845 -3.1978724e+38
2.6501861 -1.096723 1.2329359 nan
2.6501753 -1.1014086 1.2329359 nan
2.8198509 -0.80657649 1.2274455 -2.3685273e+38
2.8398268 -0.81721085 1.2273502 -2.3417863e+38
2.819828 -0.81659174 1.2274455 -2.3018574e+38
2.8198166 -0.8215993 1.2274455 -2.2752209e+38
2.8198051 -0.82660693 1.2274455 -2.2352919e+38
2.8197937 -0.83161455 1.2274455 -2.2219475e+38
2.8197823 -0.83662218 1.2274455 -2.208551e+38
2.8197708 -0.84162974 1.2274455 -2.1818624e+38
2.8197594 -0.84663731 1.2274455 -2.1551736e+38
2.7997613 -0.84571344 1.2275407 -2.1417772e+38
2.7997499 -0.85068297 1.2275407 -2.1284328e+38
2.7997386 -0.85565251 1.2275407 -2.1151403e+38
2.779741 -0.85457623 1.2276359 -2.1017959e+38
2.7797298 -0.85950762 1.2276359 -2.1017438e+38
2.7797186 -0.86443901 1.2276359 -2.1016917e+38
2.7797072 -0.8693704 1.2276359 -2.0883994e+38
2.779696 -0.87430185 1.2276359 -2.0617108e+38
2.7796848 -0.8792333 1.2276359 -2.0483664e+38
2.7796733 -0.88416469 1.2276359 -2.0216774e+38
2.7796621 -0.88909608 1.2276359 -1.9682999e+38
2.7606645 -0.88799447 1.2277263 -1.9150264e+38
2.7796395 -0.89895892 1.2276359 -1.8749932e+38
2.7796283 -0.90389037 1.2276359 -1.8217196e+38
2.7796168 -0.90882176 1.2276359 -1.8216153e+38
2.7796056 -0.91375315 1.2276359 -1.8214594e+38
2.7795944 -0.9186846 1.2276359 -1.808063e+38
2.779583 -0.92361605 1.2276359 -1.7948748e+38
2.7995565 -0.93516469 1.2275407 -1.834804e+38
2.799545 -0.94013417 1.2275407 -1.8748895e+38
2.7995336 -0.9451037 1.2275407 -1.9016828e+38
2.7795379 -0.94334167 1.2276359 -1.9282669e+38
2.7795267 -0.94827312 1.2276359 -1.9150262e+38
2.76053 -0.94673723 1.2277263 -1.90163e+38
2.7605188 -0.95163244 1.2277263 -1.9148704e+38
2.7415223 -0.94998801 1.2278168 -1.9282146e+38
2.7415113 -0.95484698 1.2278168 -1.9282148e+38
2.7415001 -0.95970601 1.2278168 -1.9282148e+38
2.7225041 -0.9579168 1.2279073 -1.9416111e+38
2.7224929 -0.96273965 1.2279073 -1.9549557e+38
2.7044966 -0.96119565 1.227993 -1.9815405e+38
2.7044857 -0.96598417 1.227993 -2.0082291e+38
2.7044747 -0.97077274 1.227993 -1.9816448e+38
2.6864784 -0.96909153 1.2280787 -1.9550596e+38
2.6684825 -0.96734178 1.2281644 -1.9549551e+38
2.6864567 -0.97860003 1.2280787 -1.9549553e+38
2.6864457 -0.98335433 1.2280787 -1.9415594e+38
2.686435 -0.98810858 1.2280787 -1.9282671e+38
2.686424 -0.99286288 1.2280787 -1.9681959e+38
2.6684284 -0.9909417 1.2281644 -2.0080729e+38
2.6684177 -0.99566168 1.2281644 -2.0081251e+38
2.668407 -1.0003816 1.2281644 -2.008281e+38
2.6504114 -0.99832326 1.2282501 -2.008437e+38
2.6504006 -1.003009 1.2282501 -2.0083853e+38
2.6503899 -1.0076946 1.2282501 -2.0349701e+38
2.6503792 -1.0123804 1.2282501 -2.0617108e+38
2.6503685 -1.0170661 1.2282501 -2.0883996e+38
2.6503577 -1.0217518 1.2282501 -2.101744e+38
2.650347 -1.0264374 1.2282501 -2.1017442e+38
2.6503363 -1.0311232 1.2282501 -2.1016921e+38
2.6503255 -1.0358089 1.2282501 -2.1280166e+38
2.6682987 -1.0475816 1.2281644 -2.1547056e+38
2.668288 -1.0523015 1.2281644 -2.1945314e+38
2.668277 -1.0570215 1.2281644 -2.2212723e+38
2.6682663 -1.0617415 1.2281644 -2.234825e+38
2.686239 -1.0736855 1.2280787 -2.2481698e+38
2.686228 -1.0784398 1.2280787 -2.2616187e+38
2.6862171 -1.0831941 1.2280787 -2.2749617e+38
2.6862063 -1.0879483 1.2280787 -2.248428e+38
2.6861954 -1.0927026 1.2280787 -2.2213271e+38
2.6861844 -1.0974569 1.2280787 -2.0072515e+38
2.6861737 -1.1022111 1.2280787 -1.7834755e+38
2.6861627 -1.1069654 1.2280787 -2.9727311e+38
2.6861517 -1.1117197 1.2280787 nan
2.686141 -1.1164739 1.2280787 nan
2.8198509 -0.80657649 1.2224379 -2.3818187e+38
2.8198395 -0.81158412 1.2224379 -2.3550782e+38
2.819828 -0.81659174 1.2224379 -2.32839e+38
2.8198166 -0.8215993 1.2224379 -2.2751692e+38
2.8198051 -0.82660693 1.2224379 -2.2351883e+38
2.8197937 -0.83161455 1.2224379 -2.2218958e+38
2.8197823 -0.83662218 1.2224379 -2.2086031e+38
2.8197708 -0.84162974 1.2224379 -2.1818622e+38
2.8197594 -0.84663731 1.2224379 -2.1551216e+38
2.7997613 -0.84571344 1.2225711 -2.141777e+38
2.7997499 -0.85068297 1.2225711 -2.1283809e+38
2.7997386 -0.85565251 1.2225711 -2.1150884e+38
2.7997272 -0.86062205 1.2225711 -2.1016921e+38
2.7797298 -0.85950762 1.2227045 -2.1017436e+38
2.7797186 -0.86443901 1.2227045 -2.1016398e+38
2.7797072 -0.8693704 1.2227045 -2.0883475e+38
2.779696 -0.87430185 1.2227045 -2.0750031e+38
2.7796848 -0.8792333 1.2227045 -2.0484183e+38
2.7796733 -0.88416469 1.2227045 -2.0350735e+38
2.7606757 -0.88309932 1.2228311 -1.9816961e+38
2.7606645 -0.88799447 1.2228311 -1.9416111e+38
2.7796395 -0.89895892 1.2227045 -1.901682e+38
2.7796283 -0.90389037 1.2227045 -1.8616485e+38
2.7796168 -0.90882176 1.2227045 -1.8482516e+38
2.7796056 -0.91375315 1.2227045 -1.8214074e+38
2.7995791 -0.92522568 1.2225711 -1.8214592e+38
2.7995679 -0.93019515 1.2225711 -1.8215115e+38
2.7995565 -0.93516469 1.2225711 -1.8482001e+38
2.799545 -0.94013417 1.2225711 -1.8881822e+38
2.7995336 -0.9451037 1.2225711 -1.9016317e+38
2.7795379 -0.94334167 1.2227045 -1.9282675e+38
2.7795267 -0.94827312 1.2227045 -1.9282667e+38
2.76053 -0.94673723 1.2228311 -1.9149742e+38
2.7605188 -0.95163244 1.2228311 -1.9149221e+38
2.7605076 -0.95652765 1.2228311 -1.9148704e+38
2.7415113 -0.95484698 1.2229578 -1.9148185e+38
2.7415001 -0.95970601 1.2229578 -1.9281112e+38
2.7414889 -0.9645651 1.2229578 -1.9415594e+38
2.7224929 -0.96273965 1.2230844 -1.9550077e+38
2.722482 -0.9675625 1.2230844 -1.9816444e+38
2.7044857 -0.96598417 1.2232045 -2.0216252e+38
2.7044747 -0.97077274 1.2232045 -1.994989e+38
2.6864784 -0.96909153 1.2233245 -1.9817482e+38
2.6684825 -0.96734178 1.2234445 -1.9816439e+38
2.6864567 -0.97860003 1.2233245 -1.9815401e+38
2.6864457 -0.98335433 1.2233245 -1.9682478e+38
2.6684501 -0.9815017 1.2234445 -1.9548521e+38
2.6684394 -0.98622167 1.2234445 -1.9815407e+38
2.6684284 -0.9909417 1.2234445 -1.9948332e+38
2.6684177 -0.99566168 1.2234445 -2.0082812e+38
2.668407 -1.0003816 1.2234445 -2.008437e+38
2.6504114 -0.99832326 1.2235645 -1.9950409e+38
2.6504006 -1.003009 1.2235645 -1.9817488e+38
2.6503899 -1.0076946 1.2235645 -2.0216778e+38
2.6503792 -1.0123804 1.2235645 -2.0750031e+38
2.6503685 -1.0170661 1.2235645 -2.1016917e+38
2.6503577 -1.0217518 1.2235645 -2.1150363e+38
2.650347 -1.0264374 1.2235645 -2.1150884e+38
2.6503363 -1.0311232 1.2235645 -2.1151399e+38
2.6503255 -1.0358089 1.2235645 -2.1149316e+38
2.6682987 -1.0475816 1.2234445 -2.1281728e+38
2.668288 -1.0523015 1.2234445 -2.1681541e+38
2.668277 -1.0570215 1.2234445 -2.2214796e+38
2.6682663 -1.0617415 1.2234445 -2.2214802e+38
2.686239 -1.0736855 1.2233245 -2.2348254e+38
2.686228 -1.0784398 1.2233245 -2.1418322e+38
2.6862171 -1.0831941 1.2233245 -2.0487844e+38
2.6862063 -1.0879483 1.2233245 -2.1549131e+38
2.6861954 -1.0927026 1.2233245 -2.26115e+38
2.6861844 -1.0974569 1.2233245 -2.5811015e+38
2.7041566 -1.109641 1.2232045 -2.9113953e+38
2.6861627 -1.1069654 1.2233245 nan
2.6861517 -1.1117197 1.2233245 nan
2.8198626 -0.80156887 1.2174302 -2.3023249e+38
2.8198509 -0.80657649 1.2174302 -2.395111e+38
2.8198395 -0.81158412 1.2174302 -2.3683707e+38
2.819828 -0.81659174 1.2174302 -2.3416825e+38
2.8198166 -0.8215993 1.2174302 -2.2884095e+38
2.8198051 -0.82660693 1.2174302 -2.2351883e+38
2.8197937 -0.83161455 1.2174302 -2.2218437e+38
2.8197823 -0.83662218 1.2174302 -2.1952068e+38
2.8197708 -0.84162974 1.2174302 -2.1685699e+38
2.8197594 -0.84663731 1.2174302 -2.1418813e+38
2.7997613 -0.84571344 1.2176017 -2.1284849e+38
2.7997499 -0.85068297 1.2176017 -2.1151405e+38
2.7997386 -0.85565251 1.2176017 -2.1150365e+38
2.7997272 -0.86062205 1.2176017 -2.101744e+38
2.7797298 -0.85950762 1.2177731 -2.1017957e+38
2.7797186 -0.86443901 1.2177731 -2.0883994e+38
2.7797072 -0.8693704 1.2177731 -2.0883475e+38
2.779696 -0.87430185 1.2177731 -2.075055e+38
2.7796848 -0.8792333 1.2177731 -2.0617108e+38
2.7796733 -0.88416469 1.2177731 -2.0350218e+38
2.7606757 -0.88309932 1.2179359 -2.0083847e+38
2.7606645 -0.88799447 1.2179359 -1.9683517e+38
2.7606533 -0.89288974 1.2179359 -1.9416631e+38
2.7606421 -0.89778495 1.2179359 -1.9016296e+38
2.7796168 -0.90882176 1.2177731 -1.8617001e+38
2.7796056 -0.91375315 1.2177731 -1.8216153e+38
2.7995791 -0.92522568 1.2176017 -1.8347518e+38
2.7995679 -0.93019515 1.2176017 -1.8481482e+38
2.7995565 -0.93516469 1.2176017 -1.8747851e+38
2.799545 -0.94013417 1.2176017 -1.8882339e+38
2.7995336 -0.9451037 1.2176017 -1.9148714e+38
2.7995224 -0.95007324 1.2176017 -1.9282669e+38
2.7795267 -0.94827312 1.2177731 -1.9282146e+38
2.76053 -0.94673723 1.2179359 -1.9282663e+38
2.7605188 -0.95163244 1.2179359 -1.914974e+38
2.7415223 -0.94998801 1.2180988 -1.8882337e+38
2.7415113 -0.95484698 1.2180988 -1.9013185e+38
2.7415001 -0.95970601 1.2180988 -1.9148706e+38
2.7414889 -0.9645651 1.2180988 -1.9282671e+38
2.7224929 -0.96273965 1.2182616 -1.9416635e+38
2.722482 -0.9675625 1.2182616 -1.9816442e+38
2.722471 -0.97238541 1.2182616 -2.0215733e+38
2.7044747 -0.97077274 1.2184159 -2.0215216e+38
2.6864784 -0.96909153 1.2185702 -2.0082812e+38
2.6864676 -0.97384578 1.2185702 -2.0082293e+38
2.6864567 -0.97860003 1.2185702 -1.9949888e+38
2.6864457 -0.98335433 1.2185702 -1.9950407e+38
2.686435 -0.98810858 1.2185702 -1.9816448e+38
2.686424 -0.99286288 1.2185702 -1.9816969e+38
2.6684284 -0.9909417 1.2187245 -1.9816971e+38
2.6684177 -0.99566168 1.2187245 -1.9950936e+38
2.668407 -1.0003816 1.2187245 -2.0082819e+38
2.668396 -1.0051016 1.2187245 -1.9815932e+38
2.6504006 -1.003009 1.2188787 -1.9418202e+38
2.6503899 -1.0076946 1.2188787 -2.0216261e+38
2.6503792 -1.0123804 1.2188787 -2.0882953e+38
2.6503685 -1.0170661 1.2188787 -2.1150361e+38
2.6503577 -1.0217518 1.2188787 -2.1283807e+38
2.650347 -1.0264374 1.2188787 -2.128433e+38
2.6503363 -1.0311232 1.2188787 -2.1149848e+38
2.6683095 -1.0428616 1.2187245 -2.1148807e+38
2.6682987 -1.0475816 1.2187245 -2.1016925e+38
2.668288 -1.0523015 1.2187245 -2.1549137e+38
2.668277 -1.0570215 1.2187245 -2.2081348e+38
2.6682663 -1.0617415 1.2187245 -2.207979e+38
2.686239 -1.0736855 1.2185702 -2.2081869e+38
2.7042115 -1.0856981 1.2184159 -2.0088031e+38
2.7042005 -1.0904868 1.2184159 -1.809108e+38
2.6862063 -1.0879483 1.2185702 -2.0479023e+38
2.6861954 -1.0927026 1.2185702 -2.2900246e+38
2.6861844 -1.0974569 1.2185702 -3.1711109e+38
2.7041566 -1.109641 1.2184159 nan
2.6861627 -1.1069654 1.2185702 nan
2.6861517 -1.1117197 1.2185702 nan
2.8198626 -0.80156887 1.2124226 -2.3949552e+38
2.8198509 -0.80657649 1.2124226 -2.474761e+38
2.8198395 -0.81158412 1.2124226 -2.4081958e+38
2.819828 -0.81659174 1.2124226 -2.3548709e+38
2.8198166 -0.8215993 1.2124226 -2.3016499e+38
2.8198051 -0.82660693 1.2124226 -2.2484284e+38
2.8197937 -0.83161455 1.2124226 -2.2217915e+38
2.8197823 -0.83662218 1.2124226 -2.1951548e+38
2.8197708 -0.84162974 1.2124226 -2.168518e+38
2.7997727 -0.84074396 1.2126321 -2.1551216e+38
2.7997613 -0.84571344 1.2126321 -2.1284849e+38
2.7997499 -0.85068297 1.2126321 -2.1151925e+38
2.7997386 -0.85565251 1.2126321 -2.1150884e+38
2.7997272 -0.86062205 1.2126321 -2.1017442e+38
2.7997158 -0.86559153 1.2126321 -2.0884517e+38
2.7797186 -0.86443901 1.2128416 -2.0751073e+38
2.7797072 -0.8693704 1.2128416 -2.075055e+38
2.779696 -0.87430185 1.2128416 -2.0617627e+38
2.7796848 -0.8792333 1.2128416 -2.0616589e+38
2.7796733 -0.88416469 1.2128416 -2.0482621e+38
2.7796621 -0.88909608 1.2128416 -2.0083847e+38
2.7796509 -0.89402753 1.2128416 -1.9816963e+38
2.7796395 -0.89895892 1.2128416 -1.9417154e+38
2.7796283 -0.90389037 1.2128416 -1.9149742e+38
2.7796168 -0.90882176 1.2128416 -1.8749928e+38
2.7796056 -0.91375315 1.2128416 -1.8350119e+38
2.7995791 -0.92522568 1.2126321 -1.8482001e+38
2.7995679 -0.93019515 1.2126321 -1.8614928e+38
2.7995565 -0.93516469 1.2126321 -1.8881297e+38
2.799545 -0.94013417 1.2126321 -1.9148704e+38
2.7995336 -0.9451037 1.2126321 -1.9282148e+38
2.7995224 -0.95007324 1.2126321 -1.9416107e+38
2.7795267 -0.94827312 1.2128416 -1.9416103e+38
2.76053 -0.94673723 1.2130407 -1.9415586e+38
2.7605188 -0.95163244 1.2130407 -1.9415586e+38
2.7415223 -0.94998801 1.2132397 -1.941299e+38
2.7415113 -0.95484698 1.2132397 -1.9415067e+38
2.7415001 -0.95970601 1.2132397 -1.941559e+38
2.7414889 -0.9645651 1.2132397 -1.9416113e+38
2.741478 -0.96942413 1.2132397 -1.9549555e+38
2.722482 -0.9675625 1.2134387 -1.9816439e+38
2.722471 -0.97238541 1.2134387 -2.0082289e+38
2.7044747 -0.97077274 1.2136273 -2.0215735e+38
2.6864784 -0.96909153 1.2138159 -2.0349701e+38
2.6864676 -0.97384578 1.2138159 -2.0350741e+38
2.6864567 -0.97860003 1.2138159 -2.0350741e+38
2.6864457 -0.98335433 1.2138159 -2.0084374e+38
2.6684501 -0.9815017 1.2140045 -1.981749e+38
2.6684394 -0.98622167 1.2140045 -1.9684567e+38
2.6684284 -0.9909417 1.2140045 -1.9683535e+38
2.6684177 -0.99566168 1.2140045 -1.9948867e+38
2.668407 -1.0003816 1.2140045 -2.0346593e+38
2.6504114 -0.99832326 1.2141931 -2.0215222e+38
2.6504006 -1.003009 1.2141931 -2.0082819e+38
2.6503899 -1.0076946 1.2141931 -2.0483145e+38
2.6503792 -1.0123804 1.2141931 -2.1016917e+38
2.6503685 -1.0170661 1.2141931 -2.1282766e+38
2.6503577 -1.0217518 1.2141931 -2.1683097e+38
2.650347 -1.0264374 1.2141931 -2.1682062e+38
2.6503363 -1.0311232 1.2141931 -2.1679468e+38
2.6683095 -1.0428616 1.2140045 -2.1681545e+38
2.6682987 -1.0475816 1.2140045 -2.1816023e+38
2.668288 -1.0523015 1.2140045 -2.2081865e+38
2.668277 -1.0570215 1.2140045 -2.2347704e+38
2.6682663 -1.0617415 1.2140045 -2.2215295e+38
2.7042224 -1.0809096 1.2136273 -2.2083408e+38
2.7042115 -1.0856981 1.2136273 -2.0084372e+38
2.7042005 -1.0904868 1.2136273 -1.8087964e+38
2.7041895 -1.0952753 1.2136273 -2.3553926e+38
2.7041786 -1.1000639 1.2136273 -2.9028252e+38
2.7041676 -1.1048523 1.2136273 nan
2.7221396 -1.1170708 1.2134387 nan
2.7041457 -1.1144295 1.2136273 nan
2.8398383 -0.8121652 1.2071674 -2.5410131e+38
2.8198395 -0.81158412 1.207415 -2.4480728e+38
2.819828 -0.81659174 1.207415 -2.3548707e+38
2.8198166 -0.8215993 1.207415 -2.3016493e+38
2.8198051 -0.82660693 1.207415 -2.2483761e+38
2.8197937 -0.83161455 1.207415 -2.2217394e+38
2.8197823 -0.83662218 1.207415 -2.1951546e+38
2.8197708 -0.84162974 1.207415 -2.1818102e+38
2.7997727 -0.84074396 1.2076626 -2.1551736e+38
2.7997613 -0.84571344 1.2076626 -2.1417772e+38
2.7997499 -0.85068297 1.2076626 -2.1151403e+38
2.7997386 -0.85565251 1.2076626 -2.1150882e+38
2.7997272 -0.86062205 1.2076626 -2.1016919e+38
2.7997158 -0.86559153 1.2076626 -2.0883996e+38
2.7797186 -0.86443901 1.2079102 -2.0617629e+38
2.7797072 -0.8693704 1.2079102 -2.061711e+38
2.779696 -0.87430185 1.2079102 -2.0484189e+38
2.7796848 -0.8792333 1.2079102 -2.0616076e+38
2.7796733 -0.88416469 1.2079102 -2.0616589e+38
2.7796621 -0.88909608 1.2079102 -2.0217293e+38
2.7796509 -0.89402753 1.2079102 -1.9817482e+38
2.7796395 -0.89895892 1.2079102 -1.9550594e+38
2.7996135 -0.91031712 1.2076626 -1.9282665e+38
2.799602 -0.9152866 1.2076626 -1.8882333e+38
2.7995906 -0.92025614 1.2076626 -1.8483043e+38
2.7995791 -0.92522568 1.2076626 -1.8614926e+38
2.7995679 -0.93019515 1.2076626 -1.8615447e+38
2.7995565 -0.93516469 1.2076626 -1.9014219e+38
2.799545 -0.94013417 1.2076626 -1.9281625e+38
2.7995336 -0.9451037 1.2076626 -1.941559e+38
2.7995224 -0.95007324 1.2076626 -1.9549032e+38
2.7795267 -0.94827312 1.2079102 -1.955059e+38
2.76053 -0.94673723 1.2081454 -1.9549553e+38
2.7605188 -0.95163244 1.2081454 -1.9682997e+38
2.7605076 -0.95652765 1.2081454 -1.9816442e+38
2.7604964 -0.96142286 1.2081454 -1.981748e+38
2.7415001 -0.95970601 1.2083807 -1.9683519e+38
2.7414889 -0.9645651 1.2083807 -1.9682478e+38
2.741478 -0.96942413 1.2083807 -1.9550075e+38
2.722482 -0.9675625 1.2086159 -1.9683519e+38
2.722471 -0.97238541 1.2086159 -1.9816442e+38
2.7224598 -0.9772082 1.2086159 -2.0215212e+38
2.6864784 -0.96909153 1.2090616 -2.0483141e+38
2.6864676 -0.97384578 1.2090616 -2.0619183e+38
2.6864567 -0.97860003 1.2090616 -2.0617625e+38
2.6864457 -0.98335433 1.2090616 -2.0218337e+38
2.686435 -0.98810858 1.2090616 -1.9686129e+38
2.686424 -0.99286288 1.2090616 -1.9686131e+38
2.6684284 -0.9909417 1.2092844 -1.9551137e+38
2.6684177 -0.99566168 1.2092844 -2.0080237e+38
2.668407 -1.0003816 1.2092844 -2.048108e+38
2.6504114 -0.99832326 1.2095073 -2.0615041e+38
2.6504006 -1.003009 1.2095073 -2.0749e+38
2.6503899 -1.0076946 1.2095073 -2.0882442e+38
2.6503792 -1.0123804 1.2095073 -2.1015884e+38
2.6503685 -1.0170661 1.2095073 -2.154602e+38
2.6503577 -1.0217518 1.2095073 -2.1948427e+38
2.650347 -1.0264374 1.2095073 -2.2081873e+38
2.6503363 -1.0311232 1.2095073 -2.2214283e+38
2.6683095 -1.0428616 1.2092844 -2.234825e+38
2.6682987 -1.0475816 1.2092844 -2.2481173e+38
2.668288 -1.0523015 1.2092844 -2.2481171e+38
2.668277 -1.0570215 1.2092844 -2.2482718e+38
2.6862497 -1.0689312 1.2090616 -2.2350824e+38
2.7042224 -1.0809096 1.2088388 -2.2081325e+38
2.7042115 -1.0856981 1.2088388 -2.0078638e+38
2.7042005 -1.0904868 1.2088388 -1.7958179e+38
2.7041895 -1.0952753 1.2088388 -2.6487121e+38
2.7041786 -1.1000639 1.2088388 nan
2.7041676 -1.1048523 1.2088388 nan
2.7221396 -1.1170708 1.2086159 nan
2.7221286 -1.1218936 1.2086159 nan
2.8198509 -0.80657649 1.2024074 -2.5140118e+38
2.8198395 -0.81158412 1.2024074 -2.4346248e+38
2.819828 -0.81659174 1.2024074 -2.3547667e+38
2.8198166 -0.8215993 1.2024074 -2.3015967e+38
2.8198051 -0.82660693 1.2024074 -2.2482718e+38
2.8197937 -0.83161455 1.2024074 -2.2217392e+38
2.8197823 -0.83662218 1.2024074 -2.1951546e+38
2.8197708 -0.84162974 1.2024074 -2.168518e+38
2.7997727 -0.84074396 1.2026931 -2.1552774e+38
2.7997613 -0.84571344 1.2026931 -2.1284847e+38
2.7997499 -0.85068297 1.2026931 -2.101744e+38
2.8197248 -0.86166018 1.2024074 -2.0884513e+38
2.7997272 -0.86062205 1.2026931 -2.0882956e+38
2.7997158 -0.86559153 1.2026931 -2.075055e+38
2.7997043 -0.870561 1.2026931 -2.061711e+38
2.7996931 -0.87553054 1.2026931 -2.0617112e+38
2.7996817 -0.88050008 1.2026931 -2.0750039e+38
2.7996702 -0.88546956 1.2026931 -2.0750562e+38
2.7996588 -0.89043909 1.2026931 -2.0751592e+38
2.7796621 -0.88909608 1.2029787 -2.0217816e+38
2.7996361 -0.90037811 1.2026931 -1.9817482e+38
2.7796395 -0.89895892 1.2029787 -1.9550071e+38
2.7996135 -0.91031712 1.2026931 -1.9282663e+38
2.799602 -0.9152866 1.2026931 -1.8882852e+38
2.7995906 -0.92025614 1.2026931 -1.8615968e+38
2.7995791 -0.92522568 1.2026931 -1.8615966e+38
2.8195529 -0.93677425 1.2024074 -1.8616488e+38
2.7995565 -0.93516469 1.2026931 -1.8882333e+38
2.799545 -0.94013417 1.2026931 -1.9149221e+38
2.7995336 -0.9451037 1.2026931 -1.9282148e+38
2.7995224 -0.95007324 1.2026931 -1.9548515e+38
2.7795267 -0.94827312 1.2029787 -1.9549555e+38
2.76053 -0.94673723 1.2032502 -1.9682482e+38
2.7605188 -0.95163244 1.2032502 -1.9817486e+38
2.7605076 -0.95652765 1.2032502 -2.008593e+38
2.7604964 -0.96142286 1.2032502 -1.9950932e+38
2.7415001 -0.95970601 1.2035216 -1.9817484e+38
2.7414889 -0.9645651 1.2035216 -1.9683517e+38
2.741478 -0.96942413 1.2035216 -1.968248e+38
2.7414668 -0.97428316 1.2035216 -1.9682999e+38
2.722471 -0.97238541 1.203793 -1.9815922e+38
2.7224598 -0.9772082 1.203793 -1.9949362e+38
2.7044637 -0.97556126 1.2040502 -2.0216774e+38
2.6864676 -0.97384578 1.2043073 -2.0350222e+38
2.6864567 -0.97860003 1.2043073 -2.0483664e+38
2.6864457 -0.98335433 1.2043073 -2.0218337e+38
2.686435 -0.98810858 1.2043073 -2.0086459e+38
2.686424 -0.99286288 1.2043073 -1.9951464e+38
2.6684284 -0.9909417 1.2045645 -1.9816987e+38
2.6684177 -0.99566168 1.2045645 -2.021576e+38
2.668407 -1.0003816 1.2045645 -2.0483165e+38
2.6504114 -0.99832326 1.2048216 -2.0483167e+38
2.6504006 -1.003009 1.2048216 -2.0617645e+38
2.6503899 -1.0076946 1.2048216 -2.0883489e+38
2.6503792 -1.0123804 1.2048216 -2.1149854e+38
2.6503685 -1.0170661 1.2048216 -2.1549139e+38
2.6503577 -1.0217518 1.2048216 -2.2082912e+38
2.650347 -1.0264374 1.2048216 -2.2215319e+38
2.6503363 -1.0311232 1.2048216 -2.2349293e+38
2.6683095 -1.0428616 1.2045645 -2.2348784e+38
2.6682987 -1.0475816 1.2045645 -2.2348266e+38
2.668288 -1.0523015 1.2045645 -2.2482747e+38
2.668277 -1.0570215 1.2045645 -2.2617732e+38
2.6862497 -1.0689312 1.2043073 -2.2350834e+38
2.7042224 -1.0809096 1.2040502 -2.2084435e+38
2.7042115 -1.0856981 1.2040502 -1.9945691e+38
2.7042005 -1.0904868 1.2040502 -1.7680412e+38
2.7041895 -1.0952753 1.2040502 -2.6890628e+38
2.7221618 -1.107425 1.203793 nan
2.7221506 -1.1122479 1.203793 nan
2.7221396 -1.1170708 1.203793 nan
2.7221286 -1.1218936 1.203793 nan
2.8398383 -0.8121652 1.197076 -2.4877383e+38
2.8198395 -0.81158412 1.1973997 -2.4215917e+38
2.819828 -0.81659174 1.1973997 -2.3416302e+38
2.8198166 -0.8215993 1.1973997 -2.301701e+38
2.8198051 -0.82660693 1.1973997 -2.2484278e+38
2.8197937 -0.83161455 1.1973997 -2.2218431e+38
2.8197823 -0.83662218 1.1973997 -2.1818622e+38
2.8197708 -0.84162974 1.1973997 -2.168466e+38
2.7997727 -0.84074396 1.1977235 -2.1418291e+38
2.7997613 -0.84571344 1.1977235 -2.1151405e+38
2.7997499 -0.85068297 1.1977235 -2.0752112e+38
2.8197248 -0.86166018 1.1973997 -2.0751588e+38
2.8197134 -0.86666775 1.1973997 -2.075055e+38
2.7997158 -0.86559153 1.1977235 -2.0750029e+38
2.7997043 -0.870561 1.1977235 -2.0617108e+38
2.7996931 -0.87553054 1.1977235 -2.0750033e+38
2.7996817 -0.88050008 1.1977235 -2.0883481e+38
2.7996702 -0.88546956 1.1977235 -2.0884004e+38
2.7996588 -0.89043909 1.1977235 -2.0882958e+38
2.7996476 -0.89540857 1.1977235 -2.0350218e+38
2.7996361 -0.90037811 1.1977235 -1.9684559e+38
2.7996247 -0.90534765 1.1977235 -1.9416631e+38
2.7996135 -0.91031712 1.1977235 -1.914974e+38
2.799602 -0.9152866 1.1977235 -1.8883372e+38
2.7995906 -0.92025614 1.1977235 -1.8616485e+38
2.7995791 -0.92522568 1.1977235 -1.8615447e+38
2.7995679 -0.93019515 1.1977235 -1.8615447e+38
2.7995565 -0.93516469 1.1977235 -1.874837e+38
2.799545 -0.94013417 1.1977235 -1.8882335e+38
2.7995336 -0.9451037 1.1977235 -1.9148706e+38
2.7995224 -0.95007324 1.1977235 -1.9415079e+38
2.7795267 -0.94827312 1.1980474 -1.968249e+38
2.76053 -0.94673723 1.198355 -1.981593e+38
2.7605188 -0.95163244 1.198355 -2.0083332e+38
2.7605076 -0.95652765 1.198355 -2.0216254e+38
2.7604964 -0.96142286 1.198355 -2.0082293e+38
2.7604852 -0.96631813 1.198355 -1.9816444e+38
2.7414889 -0.9645651 1.1986625 -1.9816439e+38
2.741478 -0.96942413 1.1986625 -1.9682999e+38
2.7414668 -0.97428316 1.1986625 -1.9683002e+38
2.7414556 -0.97914219 1.1986625 -1.9682478e+38
2.7224598 -0.9772082 1.1989702 -1.9814359e+38
2.7044637 -0.97556126 1.1992617 -1.9948847e+38
2.6864676 -0.97384578 1.199553 -2.0214184e+38
2.6864567 -0.97860003 1.199553 -2.0349705e+38
2.6864457 -0.98335433 1.199553 -2.0350745e+38
2.686435 -0.98810858 1.199553 -2.0350745e+38
2.6684394 -0.98622167 1.1998445 -2.0216267e+38
2.6684284 -0.9909417 1.1998445 -2.0083867e+38
2.6684177 -0.99566168 1.1998445 -2.0350236e+38
2.668407 -1.0003816 1.1998445 -2.048368e+38
2.668396 -1.0051016 1.1998445 -2.0483163e+38
2.6504006 -1.003009 1.2001359 -2.0351798e+38
2.6503899 -1.0076946 1.2001359 -2.0751085e+38
2.6503792 -1.0123804 1.2001359 -2.1150894e+38
2.6503685 -1.0170661 1.2001359 -2.1684145e+38
2.6503577 -1.0217518 1.2001359 -2.2082398e+38
2.650347 -1.0264374 1.2001359 -2.2214806e+38
2.6503363 -1.0311232 1.2001359 -2.2348773e+38
2.6683095 -1.0428616 1.1998445 -2.2348781e+38
2.6682987 -1.0475816 1.1998445 -2.221638e+38
2.668288 -1.0523015 1.1998445 -2.2483266e+38
2.6862607 -1.0641769 1.199553 -2.2749101e+38
2.6862497 -1.0689312 1.199553 -2.2482209e+38
2.7042224 -1.0809096 1.1992617 -2.2079782e+38
2.7042115 -1.0856981 1.1992617 -1.9807087e+38
2.7042005 -1.0904868 1.1992617 -1.7425995e+38
2.7041895 -1.0952753 1.1992617 -2.7163203e+38
2.7221618 -1.107425 1.1989702 nan
2.7221506 -1.1122479 1.1989702 nan
2.7221396 -1.1170708 1.1989702 nan
2.8198509 -0.80657649 1.1923921 -2.382023e+38
2.8198395 -0.81158412 1.1923921 -2.3551299e+38
2.819828 -0.81659174 1.1923921 -2.3416302e+38
2.8198166 -0.8215993 1.1923921 -2.2884091e+38
2.8198051 -0.82660693 1.1923921 -2.2483761e+38
2.8197937 -0.83161455 1.1923921 -2.2084988e+38
2.8197823 -0.83662218 1.1923921 -2.1818102e+38
2.8197708 -0.84162974 1.1923921 -2.1551736e+38
2.7997727 -0.84074396 1.192754 -2.1417772e+38
2.7997613 -0.84571344 1.192754 -2.1018481e+38
2.7997499 -0.85068297 1.192754 -2.0751592e+38
2.8197248 -0.86166018 1.1923921 -2.0751067e+38
2.8197134 -0.86666775 1.1923921 -2.0616587e+38
2.7997158 -0.86559153 1.192754 -2.0616585e+38
2.7997043 -0.870561 1.192754 -2.0616067e+38
2.7996931 -0.87553054 1.192754 -2.0749511e+38
2.7996817 -0.88050008 1.192754 -2.0750556e+38
2.7996702 -0.88546956 1.192754 -2.0616601e+38
2.7996588 -0.89043909 1.192754 -2.0615552e+38
2.7996476 -0.89540857 1.192754 -2.0216774e+38
2.7996361 -0.90037811 1.192754 -1.9950405e+38
2.7996247 -0.90534765 1.192754 -1.9550075e+38
2.7996135 -0.91031712 1.192754 -1.9282665e+38
2.799602 -0.9152866 1.192754 -1.9015773e+38
2.7995906 -0.92025614 1.192754 -1.8881812e+38
2.7995791 -0.92522568 1.192754 -1.8615445e+38
2.8195529 -0.93677425 1.1923921 -1.8348561e+38
2.7995565 -0.93516469 1.192754 -1.8614407e+38
2.799545 -0.94013417 1.192754 -1.8881297e+38
2.7995336 -0.9451037 1.192754 -1.9148185e+38
2.7995224 -0.95007324 1.192754 -1.9414047e+38
2.7795267 -0.94827312 1.1931159 -1.9549061e+38
2.76053 -0.94673723 1.1934597 -1.9683014e+38
2.7605188 -0.95163244 1.1934597 -1.9816448e+38
2.7605076 -0.95652765 1.1934597 -2.0082291e+38
2.7604964 -0.96142286 1.1934597 -1.9949364e+38
2.7604852 -0.96631813 1.1934597 -1.9815922e+38
2.7414889 -0.9645651 1.1938035 -1.9683517e+38
2.741478 -0.96942413 1.1938035 -1.9682999e+38
2.7414668 -0.97428316 1.1938035 -1.9683002e+38
2.7414556 -0.97914219 1.1938035 -1.9681438e+38
2.7224598 -0.9772082 1.1941473 -1.9681951e+38
2.7044637 -0.97556126 1.194473 -1.9815403e+38
2.6864676 -0.97384578 1.1947987 -2.0082297e+38
2.6864567 -0.97860003 1.1947987 -2.0349705e+38
2.6864457 -0.98335433 1.1947987 -2.0350228e+38
2.686435 -0.98810858 1.1947987 -2.0217303e+38
2.686424 -0.99286288 1.1947987 -2.0349705e+38
2.6684284 -0.9909417 1.1951245 -2.0350228e+38
2.6684177 -0.99566168 1.1951245 -2.0483674e+38
2.668407 -1.0003816 1.1951245 -2.0484714e+38
2.668396 -1.0051016 1.1951245 -2.0351274e+38
2.6504006 -1.003009 1.1954502 -2.0351796e+38
2.6503899 -1.0076946 1.1954502 -2.0751083e+38
2.6503792 -1.0123804 1.1954502 -2.12833e+38
2.6503685 -1.0170661 1.1954502 -2.1683113e+38
2.6683421 -1.0287015 1.1951245 -2.2081885e+38
2.650347 -1.0264374 1.1954502 -2.2082407e+38
2.6683204 -1.0381416 1.1951245 -2.2216372e+38
2.6683095 -1.0428616 1.1951245 -2.2083972e+38
2.6682987 -1.0475816 1.1951245 -2.2084494e+38
2.6862717 -1.0594227 1.1947987 -2.2350341e+38
2.6862607 -1.0641769 1.1947987 -2.2483262e+38
2.6862497 -1.0689312 1.1947987 -2.2482739e+38
2.686239 -1.0736855 1.1947987 -2.2349802e+38
2.7042115 -1.0856981 1.194473 -1.9945233e+38
2.7042005 -1.0904868 1.194473 -1.7548018e+38
2.7041895 -1.0952753 1.194473 -2.3966805e+38
2.7041786 -1.1000639 1.194473 -3.0379916e+38
2.7041676 -1.1048523 1.194473 -3.3454898e+38
2.7221396 -1.1170708 1.1941473 nan
2.8198509 -0.80657649 1.1873845 -2.2615615e+38
2.8198395 -0.81158412 1.1873845 -2.3019085e+38
2.819828 -0.81659174 1.1873845 -2.3283375e+38
2.8198166 -0.8215993 1.1873845 -2.2884089e+38
2.8198051 -0.82660693 1.1873845 -2.235084e+38
2.8197937 -0.83161455 1.1873845 -2.2084475e+38
2.8197823 -0.83662218 1.1873845 -2.1818106e+38
2.8197708 -0.84162974 1.1873845 -2.1552257e+38
2.7997727 -0.84074396 1.1877844 -2.1284847e+38
2.7997613 -0.84571344 1.1877844 -2.1017959e+38
2.7997499 -0.85068297 1.1877844 -2.0751073e+38
2.8197248 -0.86166018 1.1873845 -2.0617629e+38
2.8197134 -0.86666775 1.1873845 -2.0484185e+38
2.7997158 -0.86559153 1.1877844 -2.0616587e+38
2.7997043 -0.870561 1.1877844 -2.0616069e+38
2.7996931 -0.87553054 1.1877844 -2.0615552e+38
2.7996817 -0.88050008 1.1877844 -2.0615554e+38
2.7996702 -0.88546956 1.1877844 -2.0482633e+38
2.7996588 -0.89043909 1.1877844 -2.0216782e+38
2.7996476 -0.89540857 1.1877844 -2.0217295e+38
2.7996361 -0.90037811 1.1877844 -2.008333e+38
2.7996247 -0.90534765 1.1877844 -1.9683517e+38
2.7996135 -0.91031712 1.1877844 -1.9283187e+38
2.799602 -0.9152866 1.1877844 -1.9281625e+38
2.7995906 -0.92025614 1.1877844 -1.91487e+38
2.7995791 -0.92522568 1.1877844 -1.8615968e+38
2.7995679 -0.93019515 1.1877844 -1.7949793e+38
2.7995565 -0.93516469 1.1877844 -1.8346999e+38
2.799545 -0.94013417 1.1877844 -1.8747851e+38
2.7995336 -0.9451037 1.1877844 -1.9147664e+38
2.7995224 -0.95007324 1.1877844 -1.9414562e+38
2.7795267 -0.94827312 1.1881845 -1.9548537e+38
2.76053 -0.94673723 1.1885645 -1.954957e+38
2.7605188 -0.95163244 1.1885645 -1.9682486e+38
2.7605076 -0.95652765 1.1885645 -1.9816446e+38
2.7604964 -0.96142286 1.1885645 -1.9816446e+38
2.7604852 -0.96631813 1.1885645 -1.9683521e+38
2.7414889 -0.9645651 1.1889445 -1.9683521e+38
2.741478 -0.96942413 1.1889445 -1.9683521e+38
2.7414668 -0.97428316 1.1889445 -1.9683521e+38
2.7414556 -0.97914219 1.1889445 -1.9549557e+38
2.7414443 -0.98400122 1.1889445 -1.9549553e+38
2.7044637 -0.97556126 1.1896845 -1.9550079e+38
2.6864676 -0.97384578 1.1900445 -1.9949372e+38
2.6864567 -0.97860003 1.1900445 -2.0349703e+38
2.6864457 -0.98335433 1.1900445 -2.0217303e+38
2.686435 -0.98810858 1.1900445 -2.0084376e+38
2.686424 -0.99286288 1.1900445 -2.0349181e+38
2.6684284 -0.9909417 1.1904045 -2.0616589e+38
2.6684177 -0.99566168 1.1904045 -2.0617112e+38
2.668407 -1.0003816 1.1904045 -2.048471e+38
2.668396 -1.0051016 1.1904045 -2.0351268e+38
2.6504006 -1.003009 1.1907644 -2.0218348e+38
2.6503899 -1.0076946 1.1907644 -2.0751081e+38
2.6503792 -1.0123804 1.1907644 -2.1283296e+38
2.6503685 -1.0170661 1.1907644 -2.168259e+38
2.6503577 -1.0217518 1.1907644 -2.1949476e+38
2.650347 -1.0264374 1.1907644 -2.1949997e+38
2.6683204 -1.0381416 1.1904045 -2.1951041e+38
2.6683095 -1.0428616 1.1904045 -2.1952086e+38
2.6682987 -1.0475816 1.1904045 -2.1952088e+38
2.6862717 -1.0594227 1.1900445 -2.2085015e+38
2.6862607 -1.0641769 1.1900445 -2.2216895e+38
2.6862497 -1.0689312 1.1900445 -2.2481698e+38
2.686239 -1.0736855 1.1900445 -2.2611481e+38
2.686228 -1.0784398 1.1900445 -2.007606e+38
2.7042005 -1.0904868 1.1896845 -1.7557855e+38
2.6862063 -1.0879483 1.1900445 -2.0642138e+38
2.7041786 -1.1000639 1.1896845 -2.3717637e+38
2.7041676 -1.1048523 1.1896845 -2.5190793e+38
2.7041566 -1.109641 1.1896845 -2.6544987e+38
2.7041457 -1.1144295 1.1896845 nan
2.8198509 -0.80657649 1.1823769 -2.048106e+38
2.8398268 -0.81721085 1.1819388 -2.1819139e+38
2.8398151 -0.82225657 1.1819388 -2.3282332e+38
2.8198166 -0.8215993 1.1823769 -2.2750124e+38
2.8198051 -0.82660693 1.1823769 -2.2350321e+38
2.8197937 -0.83161455 1.1823769 -2.1951037e+38
2.8197823 -0.83662218 1.1823769 -2.1684668e+38
2.8197708 -0.84162974 1.1823769 -2.155174e+38
2.8197594 -0.84663731 1.1823769 -2.1284847e+38
2.7997613 -0.84571344 1.182815 -2.1150878e+38
2.7997499 -0.85068297 1.182815 -2.10164e+38
2.8197248 -0.86166018 1.1823769 -2.0883477e+38
2.8197134 -0.86666775 1.1823769 -2.0882956e+38
2.7997158 -0.86559153 1.182815 -2.074899e+38
2.8196905 -0.876683 1.1823769 -2.0616589e+38
2.819679 -0.88169062 1.1823769 -2.0483149e+38
2.8196676 -0.88669819 1.1823769 -2.0481072e+38
2.8196561 -0.89170581 1.1823769 -2.0349705e+38
2.8196447 -0.89671344 1.1823769 -2.0349703e+38
2.8196332 -0.90172106 1.1823769 -2.0216778e+38
2.8196216 -0.90672863 1.1823769 -1.9950407e+38
2.7996247 -0.90534765 1.182815 -1.9683517e+38
2.7996135 -0.91031712 1.182815 -1.9283189e+38
2.799602 -0.9152866 1.182815 -1.9283187e+38
2.7995906 -0.92025614 1.182815 -1.9149742e+38
2.7995791 -0.92522568 1.182815 -1.8748893e+38
2.7995679 -0.93019515 1.182815 -1.8215638e+38
2.7995565 -0.93516469 1.182815 -1.8481995e+38
2.799545 -0.94013417 1.182815 -1.8748368e+38
2.7995336 -0.9451037 1.182815 -1.9014739e+38
2.7995224 -0.95007324 1.182815 -1.9281116e+38
2.7795267 -0.94827312 1.183253 -1.9548012e+38
2.7795153 -0.95320445 1.183253 -1.9948334e+38
2.7605188 -0.95163244 1.1836692 -1.9949368e+38
2.7605076 -0.95652765 1.1836692 -1.9950409e+38
2.7604964 -0.96142286 1.1836692 -2.0083334e+38
2.7604852 -0.96631813 1.1836692 -2.0082812e+38
2.760474 -0.97121334 1.1836692 -1.9950407e+38
2.741478 -0.96942413 1.1840855 -1.9816965e+38
2.7414668 -0.97428316 1.1840855 -1.9683521e+38
2.7414556 -0.97914219 1.1840855 -1.9682482e+38
2.7414443 -0.98400122 1.1840855 -1.9683002e+38
2.7044637 -0.97556126 1.1848959 -1.9683523e+38
2.6864676 -0.97384578 1.1852902 -2.0082812e+38
2.6864567 -0.97860003 1.1852902 -2.0349701e+38
2.6864457 -0.98335433 1.1852902 -2.0350222e+38
2.686435 -0.98810858 1.1852902 -2.0350739e+38
2.686424 -0.99286288 1.1852902 -2.0483658e+38
2.6684284 -0.9909417 1.1856844 -2.0617104e+38
2.6684177 -0.99566168 1.1856844 -2.0351262e+38
2.668407 -1.0003816 1.1856844 -2.0218859e+38
2.668396 -1.0051016 1.1856844 -2.0217301e+38
2.6504006 -1.003009 1.1860788 -2.034867e+38
2.6503899 -1.0076946 1.1860788 -2.074952e+38
2.6503792 -1.0123804 1.1860788 -2.1283811e+38
2.6503685 -1.0170661 1.1860788 -2.155018e+38
2.6683421 -1.0287015 1.1856844 -2.194947e+38
2.6683311 -1.0334215 1.1856844 -2.1951029e+38
2.6683204 -1.0381416 1.1856844 -2.2084999e+38
2.6683095 -1.0428616 1.1856844 -2.2085007e+38
2.6682987 -1.0475816 1.1856844 -2.2085011e+38
2.6862717 -1.0594227 1.1852902 -2.2084494e+38
2.6862607 -1.0641769 1.1852902 -2.2082932e+38
2.6862497 -1.0689312 1.1852902 -2.2082928e+38
2.686239 -1.0736855 1.1852902 -2.1949453e+38
2.686228 -1.0784398 1.1852902 -2.0343443e+38
2.6862171 -1.0831941 1.1852902 -1.8744267e+38
2.6862063 -1.0879483 1.1852902 -2.3963093e+38
2.7041786 -1.1000639 1.1848959 -2.9291008e+38
2.7041676 -1.1048523 1.1848959 -3.331202e+38
2.7041566 -1.109641 1.1848959 nan
2.7041457 -1.1144295 1.1848959 nan
2.8198509 -0.80657649 1.1773692 -1.8358455e+38
2.8398268 -0.81721085 1.176893 -2.0759922e+38
2.8398151 -0.82225657 1.176893 -2.3149933e+38
2.8198166 -0.8215993 1.1773692 -2.2750124e+38
2.8198051 -0.82660693 1.1773692 -2.2217396e+38
2.8197937 -0.83161455 1.1773692 -2.1951033e+38
2.8197823 -0.83662218 1.1773692 -2.1551742e+38
2.8197708 -0.84162974 1.1773692 -2.1418296e+38
2.7997727 -0.84074396 1.1778455 -2.1284849e+38
2.7997613 -0.84571344 1.1778455 -2.1283809e+38
2.7997499 -0.85068297 1.1778455 -2.1150367e+38
2.8197248 -0.86166018 1.1773692 -2.114933e+38
2.8197134 -0.86666775 1.1773692 -2.1148803e+38
2.8197019 -0.87167537 1.1773692 -2.0880355e+38
2.8196905 -0.876683 1.1773692 -2.061555e+38
2.819679 -0.88169062 1.1773692 -2.0484187e+38
2.8196676 -0.88669819 1.1773692 -2.0217822e+38
2.8196561 -0.89170581 1.1773692 -2.0351264e+38
2.8196447 -0.89671344 1.1773692 -2.0483664e+38
2.8196332 -0.90172106 1.1773692 -2.0217295e+38
2.7996361 -0.90037811 1.1778455 -1.9817484e+38
2.7996247 -0.90534765 1.1778455 -1.9551636e+38
2.7996135 -0.91031712 1.1778455 -1.9284748e+38
2.799602 -0.9152866 1.1778455 -1.9284746e+38
2.7995906 -0.92025614 1.1778455 -1.9149742e+38
2.7995791 -0.92522568 1.1778455 -1.8881299e+38
2.7995679 -0.93019515 1.1778455 -1.8482524e+38
2.7995565 -0.93516469 1.1778455 -1.861596e+38
2.799545 -0.94013417 1.1778455 -1.8615445e+38
2.7995336 -0.9451037 1.1778455 -1.8881295e+38
2.7995224 -0.95007324 1.1778455 -1.9015266e+38
2.7795267 -0.94827312 1.1783216 -1.9680409e+38
2.7795153 -0.95320445 1.1783216 -2.03471e+38
2.7605188 -0.95163244 1.178774 -2.0215735e+38
2.7605076 -0.95652765 1.178774 -2.0083334e+38
2.7604964 -0.96142286 1.178774 -2.0350222e+38
2.7604852 -0.96631813 1.178774 -2.0483143e+38
2.760474 -0.97121334 1.178774 -2.0217816e+38
2.741478 -0.96942413 1.1792264 -1.9818005e+38
2.7414668 -0.97428316 1.1792264 -1.9816446e+38
2.7414556 -0.97914219 1.1792264 -1.9815926e+38
2.7414443 -0.98400122 1.1792264 -1.9815405e+38
2.7224488 -0.98203105 1.1796788 -1.9816446e+38
2.6864676 -0.97384578 1.1805359 -2.0083332e+38
2.6864567 -0.97860003 1.1805359 -2.0349699e+38
2.6864457 -0.98335433 1.1805359 -2.0483145e+38
2.686435 -0.98810858 1.1805359 -2.0483143e+38
2.686424 -0.99286288 1.1805359 -2.048366e+38
2.6684284 -0.9909417 1.1809645 -2.048366e+38
2.6684177 -0.99566168 1.1809645 -2.0217297e+38
2.668407 -1.0003816 1.1809645 -1.9818009e+38
2.668396 -1.0051016 1.1809645 -2.0082297e+38
2.6504006 -1.003009 1.181393 -2.0348668e+38
2.6503899 -1.0076946 1.181393 -2.0880887e+38
2.6503792 -1.0123804 1.181393 -2.1283292e+38
2.6503685 -1.0170661 1.181393 -2.1550699e+38
2.6683421 -1.0287015 1.1809645 -2.1817585e+38
2.6683311 -1.0334215 1.1809645 -2.1951551e+38
2.6683204 -1.0381416 1.1809645 -2.2084997e+38
2.6683095 -1.0428616 1.1809645 -2.2217923e+38
2.6682987 -1.0475816 1.1809645 -2.221741e+38
2.6862717 -1.0594227 1.1805359 -2.2083974e+38
2.6862607 -1.0641769 1.1805359 -2.1950524e+38
2.6862497 -1.0689312 1.1805359 -2.1683632e+38
2.686239 -1.0736855 1.1805359 -2.1280675e+38
2.686228 -1.0784398 1.1805359 -2.0604606e+38
2.6862171 -1.0831941 1.1805359 -1.9958761e+38
2.6862063 -1.0879483 1.1805359 -2.7440419e+38
2.7041786 -1.1000639 1.1801074 nan
2.6861844 -1.0974569 1.1805359 nan
2.6861737 -1.1022111 1.1805359 nan
2.6861627 -1.1069654 1.1805359 nan
2.6861517 -1.1117197 1.1805359 nan
2.8198509 -0.80657649 1.1723616 -1.9144577e+38
2.8198395 -0.81158412 1.1723616 -2.1153511e+38
2.819828 -0.81659174 1.1723616 -2.31489e+38
2.8198166 -0.8215993 1.1723616 -2.261668e+38
2.8198051 -0.82660693 1.1723616 -2.2216875e+38
2.8197937 -0.83161455 1.1723616 -2.1818106e+38
2.8197823 -0.83662218 1.1723616 -2.1552257e+38
2.7997842 -0.83577448 1.1728759 -2.1418291e+38
2.7997727 -0.84074396 1.1728759 -2.1417257e+38
2.7997613 -0.84571344 1.1728759 -2.1284336e+38
2.7997499 -0.85068297 1.1728759 -2.1284336e+38
2.8197248 -0.86166018 1.1723616 -2.1283817e+38
2.8197134 -0.86666775 1.1723616 -2.1150884e+38
2.8197019 -0.87167537 1.1723616 -2.0881913e+38
2.8196905 -0.876683 1.1723616 -2.0613993e+38
2.819679 -0.88169062 1.1723616 -2.061555e+38
2.8196676 -0.88669819 1.1723616 -2.061711e+38
2.8196561 -0.89170581 1.1723616 -2.0485228e+38
2.8196447 -0.89671344 1.1723616 -2.0352299e+38
2.8196332 -0.90172106 1.1723616 -2.0083851e+38
2.8196216 -0.90672863 1.1723616 -1.994937e+38
2.8196101 -0.91173619 1.1723616 -1.9683523e+38
2.8195987 -0.91674381 1.1723616 -1.9550077e+38
2.8195872 -0.92175144 1.1723616 -1.941715e+38
2.7995906 -0.92025614 1.1728759 -1.9282667e+38
2.7995791 -0.92522568 1.1728759 -1.8882856e+38
2.8195529 -0.93677425 1.1723616 -1.8483565e+38
2.8195415 -0.94178188 1.1723616 -1.8615964e+38
2.799545 -0.94013417 1.1728759 -1.8615447e+38
2.7995336 -0.9451037 1.1728759 -1.8881812e+38
2.7995224 -0.95007324 1.1728759 -1.9148185e+38
2.7795267 -0.94827312 1.1733902 -1.9680921e+38
2.7795153 -0.95320445 1.1733902 -2.0215212e+38
2.7605188 -0.95163244 1.1738788 -2.0215216e+38
2.7605076 -0.95652765 1.1738788 -2.0347624e+38
2.7604964 -0.96142286 1.1738788 -2.0483666e+38
2.7604852 -0.96631813 1.1738788 -2.0617108e+38
2.7414889 -0.9645651 1.1743673 -2.0351262e+38
2.741478 -0.96942413 1.1743673 -1.9951971e+38
2.7414668 -0.97428316 1.1743673 -1.9817486e+38
2.7414556 -0.97914219 1.1743673 -1.9683523e+38
2.7414443 -0.98400122 1.1743673 -1.9683002e+38
2.7044637 -0.97556126 1.1753187 -1.9682484e+38
2.6864676 -0.97384578 1.1757816 -2.008281e+38
2.6864567 -0.97860003 1.1757816 -2.0350218e+38
2.6864457 -0.98335433 1.1757816 -2.0349701e+38
2.686435 -0.98810858 1.1757816 -2.0349181e+38
2.686424 -0.99286288 1.1757816 -2.0349699e+38
2.6684284 -0.9909417 1.1762445 -2.0350218e+38
2.6684177 -0.99566168 1.1762445 -2.0083332e+38
2.668407 -1.0003816 1.1762445 -1.994937e+38
2.668396 -1.0051016 1.1762445 -2.0215214e+38
2.6683853 -1.0098217 1.1762445 -2.048211e+38
2.6503899 -1.0076946 1.1767074 -2.0882966e+38
2.6503792 -1.0123804 1.1767074 -2.1283813e+38
2.6503685 -1.0170661 1.1767074 -2.1550697e+38
2.6683421 -1.0287015 1.1762445 -2.1950508e+38
2.6683311 -1.0334215 1.1762445 -2.195207e+38
2.6683204 -1.0381416 1.1762445 -2.2086033e+38
2.6683095 -1.0428616 1.1762445 -2.2084475e+38
2.6682987 -1.0475816 1.1762445 -2.2215849e+38
2.6862717 -1.0594227 1.1757816 -2.2083972e+38
2.6862607 -1.0641769 1.1757816 -2.2083962e+38
2.6862497 -1.0689312 1.1757816 -2.1950508e+38
2.686239 -1.0736855 1.1757816 -2.1815474e+38
2.686228 -1.0784398 1.1757816 -2.074842e+38
2.6862171 -1.0831941 1.1757816 -1.9824297e+38
2.6862063 -1.0879483 1.1757816 -2.4369739e+38
2.6861954 -1.0927026 1.1757816 -2.8914155e+38
2.6861844 -1.0974569 1.1757816 nan
2.6861737 -1.1022111 1.1757816 nan
2.6861627 -1.1069654 1.1757816 nan
2.668169 -1.1042213 1.1762445 nan
2.8198509 -0.80657649 1.167354 -1.995512e+38
2.8198395 -0.81158412 1.167354 -2.1559554e+38
2.819828 -0.81659174 1.167354 -2.3150462e+38
2.8198166 -0.8215993 1.167354 -2.2617203e+38
2.8198051 -0.82660693 1.167354 -2.2083952e+38
2.8197937 -0.83161455 1.167354 -2.1818104e+38
2.7997954 -0.83080494 1.1679064 -2.1418815e+38
2.8197708 -0.84162974 1.167354 -2.1417774e+38
2.7997727 -0.84074396 1.1679064 -2.1417774e+38
2.7997613 -0.84571344 1.1679064 -2.1417776e+38
2.7997499 -0.85068297 1.1679064 -2.141778e+38
2.8197248 -0.86166018 1.167354 -2.1285379e+38
2.8197134 -0.86666775 1.167354 -2.1149333e+38
2.8197019 -0.87167537 1.167354 -2.0881404e+38
2.8196905 -0.876683 1.167354 -2.061556e+38
2.819679 -0.88169062 1.167354 -2.0747447e+38
2.8196676 -0.88669819 1.167354 -2.0883483e+38
2.8196561 -0.89170581 1.167354 -2.0619712e+38
