# .PCD v0.7 - Point Cloud Data file format
VERSION 0.7
FIELDS x y z rgb
SIZE 4 4 4 4
TYPE F F F F
COUNT 1 1 1 1
WIDTH 1060
HEIGHT 1
VIEWPOINT 0 0 0 1 0 0 0
POINTS 1060
DATA ascii
5.9055839 -0.56709027 2.4436779 nan
6.0015383 -0.58653086 2.4638836 nan
6.0015121 -0.59760708 2.4638836 nan
6.0014858 -0.60868317 2.4638836 nan
5.9064097 -0.21850455 2.4327846 nan
6.0023775 -0.23209378 2.4528074 nan
5.9063578 -0.24029115 2.4327846 nan
6.1023183 -0.25743532 2.4736645 nan
6.1022916 -0.26870197 2.4736645 nan
6.0022726 -0.27639842 2.4528074 nan
6.0022464 -0.28747457 2.4528074 nan
6.0022202 -0.29855072 2.4528074 nan
6.0021939 -0.30962688 2.4528074 nan
6.0021677 -0.32070306 2.4528074 nan
6.0021415 -0.33177924 2.4528074 nan
6.0021152 -0.34285542 2.4528074 nan
6.002089 -0.35393155 2.4528074 nan
6.0020628 -0.3650077 2.4528074 nan
6.0020366 -0.37608388 2.4528074 nan
6.0020103 -0.38716003 2.4528074 -2.8091007e+38
6.0019841 -0.39823619 2.4528074 -2.5799077e+38
6.0019579 -0.40931234 2.4528074 -2.3579989e+38
6.0019317 -0.42038852 2.4528074 nan
6.0019054 -0.43146467 2.4528074 nan
6.1018643 -0.44896814 2.4736645 nan
6.1018376 -0.46023479 2.4736645 nan
6.1018109 -0.47150141 2.4736645 nan
6.1017842 -0.48276803 2.4736645 nan
6.2047405 -0.50143957 2.4951475 nan
6.1017313 -0.5053013 2.4736645 nan
6.0017219 -0.5089978 2.4528074 nan
6.0016956 -0.52007401 2.4528074 nan
6.0016694 -0.5311501 2.4528074 -3.3365787e+38
6.0016432 -0.54222631 2.4528074 -2.8092587e+38
6.001617 -0.55330241 2.4528074 nan
6.0015907 -0.56437862 2.4528074 nan
6.0015645 -0.57545477 2.4528074 nan
6.1015177 -0.59543443 2.4736645 nan
6.101491 -0.60670102 2.4736645 nan
6.204442 -0.62753063 2.4951475 nan
6.2044148 -0.6389935 2.4951475 nan
5.9064097 -0.21850455 2.4218912 nan
5.906384 -0.22939785 2.4218912 nan
5.9063578 -0.24029115 2.4218912 nan
6.0023251 -0.25424612 2.4417312 nan
6.0022988 -0.26532227 2.4417312 nan
6.0022726 -0.27639842 2.4417312 nan
5.9062548 -0.28386438 2.4218912 nan
6.0022202 -0.29855072 2.4417312 nan
6.0021939 -0.30962688 2.4417312 nan
6.0021677 -0.32070306 2.4417312 nan
6.0021415 -0.33177924 2.4417312 nan
6.0021152 -0.34285542 2.4417312 nan
6.002089 -0.35393155 2.4417312 nan
6.0020628 -0.3650077 2.4417312 nan
6.0020366 -0.37608388 2.4417312 -3.155116e+38
6.0020103 -0.38716003 2.4417312 -2.8477789e+38
6.0019841 -0.39823619 2.4417312 -2.5808896e+38
6.0019579 -0.40931234 2.4417312 -2.3287644e+38
6.0019317 -0.42038852 2.4417312 -2.956993e+38
6.0019054 -0.43146467 2.4417312 nan
6.1018643 -0.44896814 2.4623981 nan
6.1018376 -0.46023479 2.4623981 nan
6.1018109 -0.47150141 2.4623981 nan
6.1017842 -0.48276803 2.4623981 nan
6.2047405 -0.50143957 2.4836845 nan
6.2047133 -0.51290238 2.4836845 nan
6.1017046 -0.51656795 2.4623981 nan
6.0016956 -0.52007401 2.4417312 -3.063059e+38
6.0016694 -0.5311501 2.4417312 -3.0202678e+38
6.0016432 -0.54222631 2.4417312 -2.9939514e+38
6.001617 -0.55330241 2.4417312 nan
6.0015907 -0.56437862 2.4417312 nan
6.0015645 -0.57545477 2.4417312 nan
6.0015383 -0.58653086 2.4417312 nan
6.0015121 -0.59760708 2.4417312 nan
6.1014643 -0.61796767 2.4623981 nan
6.1014376 -0.62923431 2.4623981 nan
6.0014334 -0.63083553 2.4417312 nan
6.0014071 -0.64191169 2.4417312 nan
5.9064097 -0.21850455 2.4109979 nan
5.906384 -0.22939785 2.4109979 nan
5.9063578 -0.24029115 2.4109979 nan
5.906332 -0.25118446 2.4109979 nan
5.9063063 -0.26207775 2.4109979 nan
6.0022726 -0.27639842 2.430655 nan
5.9062548 -0.28386438 2.4109979 nan
6.0022202 -0.29855072 2.430655 nan
6.0021939 -0.30962688 2.430655 nan
6.0021677 -0.32070306 2.430655 -3.3022692e+38
6.0021415 -0.33177924 2.430655 -3.033566e+38
6.0021152 -0.34285542 2.430655 -2.7559333e+38
6.002089 -0.35393155 2.430655 -2.6877061e+38
6.0020628 -0.3650077 2.430655 -2.6096644e+38
6.0020366 -0.37608388 2.430655 -2.7549437e+38
6.0020103 -0.38716003 2.430655 -2.8875527e+38
6.0019841 -0.39823619 2.430655 -2.5937182e+38
6.0019579 -0.40931234 2.430655 -2.2886229e+38
5.9059453 -0.41458404 2.4109979 -2.4083613e+38
6.0019054 -0.43146467 2.430655 -2.518133e+38
6.0018792 -0.44254082 2.430655 nan
6.001853 -0.45361701 2.430655 nan
6.0018268 -0.46469316 2.430655 nan
6.0018005 -0.47576931 2.430655 nan
6.2047405 -0.50143957 2.4722219 nan
6.2047133 -0.51290238 2.4722219 nan
6.1017046 -0.51656795 2.4511313 -3.2202303e+38
6.1016779 -0.52783459 2.4511313 -2.2494221e+38
6.0016694 -0.5311501 2.430655 -2.7140764e+38
6.0016432 -0.54222631 2.430655 -3.1684111e+38
6.1015978 -0.56163454 2.4511313 nan
6.0015907 -0.56437862 2.430655 nan
6.0015645 -0.57545477 2.430655 nan
6.0015383 -0.58653086 2.430655 nan
6.0015121 -0.59760708 2.430655 nan
6.1014643 -0.61796767 2.4511313 nan
6.1014376 -0.62923431 2.4511313 nan
6.1014109 -0.64050096 2.4511313 nan
6.0014071 -0.64191169 2.430655 nan
6.0013809 -0.65298784 2.430655 nan
6.0024037 -0.22101763 2.4195788 nan
6.0023775 -0.23209378 2.4195788 nan
6.0023513 -0.24316995 2.4195788 nan
6.0023251 -0.25424612 2.4195788 nan
5.9063063 -0.26207775 2.4001045 nan
5.9062805 -0.27297106 2.4001045 nan
6.0022464 -0.28747457 2.4195788 nan
6.0022202 -0.29855072 2.4195788 -3.3824342e+38
6.0021939 -0.30962688 2.4195788 -3.2217827e+38
5.9061775 -0.31654429 2.4001045 -3.0476332e+38
6.0021415 -0.33177924 2.4195788 -2.8613338e+38
6.0021152 -0.34285542 2.4195788 -2.6749296e+38
6.002089 -0.35393155 2.4195788 -2.6884804e+38
6.0020628 -0.3650077 2.4195788 -2.70224e+38
6.0020366 -0.37608388 2.4195788 -2.7687012e+38
6.0020103 -0.38716003 2.4195788 -2.835319e+38
6.0019841 -0.39823619 2.4195788 -2.6747736e+38
6.0019579 -0.40931234 2.4195788 -2.5148464e+38
5.9059453 -0.41458404 2.4001045 -2.461413e+38
5.9059196 -0.42547736 2.4001045 -2.3948096e+38
5.9058938 -0.43637064 2.4001045 -3.2630274e+38
6.001853 -0.45361701 2.4195788 nan
6.0018268 -0.46469316 2.4195788 nan
6.0018005 -0.47576931 2.4195788 nan
6.0017743 -0.48684549 2.4195788 nan
6.1017313 -0.5053013 2.4398646 -3.1836771e+38
6.1017046 -0.51656795 2.4398646 -2.8077996e+38
6.1016779 -0.52783459 2.4398646 -2.4328621e+38
6.1016512 -0.53910124 2.4398646 -2.6344769e+38
6.0016432 -0.54222631 2.4195788 -2.8226547e+38
6.1015978 -0.56163454 2.4398646 -3.0366379e+38
6.1015711 -0.57290113 2.4398646 -3.2651033e+38
6.0015645 -0.57545477 2.4195788 nan
6.0015383 -0.58653086 2.4195788 nan
6.0015121 -0.59760708 2.4195788 nan
6.1014643 -0.61796767 2.4398646 nan
6.1014376 -0.62923431 2.4398646 nan
6.0014334 -0.63083553 2.4195788 nan
6.0014071 -0.64191169 2.4195788 nan
5.9054036 -0.64334345 2.4001045 nan
5.9064097 -0.21850455 2.3892112 nan
5.906384 -0.22939785 2.3892112 nan
5.9063578 -0.24029115 2.3892112 nan
6.0023251 -0.25424612 2.4085026 nan
5.9063063 -0.26207775 2.3892112 -3.2731408e+38
5.9062805 -0.27297106 2.3892112 -2.5432059e+38
5.9062548 -0.28386438 2.3892112 -2.5811599e+38
5.906229 -0.29475766 2.3892112 -2.62249e+38
5.9062033 -0.30565098 2.3892112 -2.7150163e+38
5.9061775 -0.31654429 2.3892112 -2.7952373e+38
5.9061518 -0.32743761 2.3892112 -2.6892108e+38
5.906126 -0.33833089 2.3892112 -2.5825604e+38
5.9060998 -0.34922421 2.3892112 -2.6891058e+38
6.0020628 -0.3650077 2.4085026 -2.7821511e+38
5.9060483 -0.37101081 2.3892112 -2.7822543e+38
5.9060225 -0.38190413 2.3892112 -2.7820469e+38
5.9059968 -0.39279744 2.3892112 -2.7685471e+38
5.9059711 -0.40369073 2.3892112 -2.7412328e+38
5.9059453 -0.41458404 2.3892112 -2.5144306e+38
5.9059196 -0.42547736 2.3892112 -2.2758533e+38
5.9058938 -0.43637064 2.3892112 -2.9290532e+38
5.9058676 -0.44726396 2.3892112 nan
5.9058418 -0.45815724 2.3892112 nan
5.9058161 -0.46905056 2.3892112 nan
6.0017743 -0.48684549 2.4085026 -3.2190878e+38
6.0017481 -0.49792165 2.4085026 -2.1695657e+38
6.1017046 -0.51656795 2.4285979 -2.3943894e+38
6.1016779 -0.52783459 2.4285979 -2.620565e+38
6.1016512 -0.53910124 2.4285979 -2.5549338e+38
6.1016245 -0.55036783 2.4285979 -2.4756001e+38
6.1015978 -0.56163454 2.4285979 -2.1950648e+38
6.1015711 -0.57290113 2.4285979 -1.9187865e+38
6.1015444 -0.58416772 2.4285979 -2.9435419e+38
6.1015177 -0.59543443 2.4285979 nan
6.101491 -0.60670102 2.4285979 nan
6.1014643 -0.61796767 2.4285979 nan
6.1014376 -0.62923431 2.4285979 nan
6.0014334 -0.63083553 2.4085026 nan
6.0014071 -0.64191169 2.4085026 nan
5.9054036 -0.64334345 2.3892112 nan
6.0024037 -0.22101763 2.3974266 nan
5.906384 -0.22939785 2.3783178 nan
5.9063578 -0.24029115 2.3783178 nan
5.906332 -0.25118446 2.3783178 -3.2618747e+38
5.9063063 -0.26207775 2.3783178 -2.9946734e+38
5.9062805 -0.27297106 2.3783178 -2.7151723e+38
5.9062548 -0.28386438 2.3783178 -2.7016723e+38
5.906229 -0.29475766 2.3783178 -2.6885886e+38
5.9062033 -0.30565098 2.3783178 -2.728622e+38
5.9061775 -0.31654429 2.3783178 -2.7688623e+38
5.9061518 -0.32743761 2.3783178 -2.7024007e+38
5.906126 -0.33833089 2.3783178 -2.6359391e+38
5.9060998 -0.34922421 2.3783178 -2.6890559e+38
5.906074 -0.36011752 2.3783178 -2.7422759e+38
5.9060483 -0.37101081 2.3783178 -2.7421708e+38
5.9060225 -0.38190413 2.3783178 -2.7419631e+38
5.9059968 -0.39279744 2.3783178 -2.7419112e+38
5.9059711 -0.40369073 2.3783178 -2.7285141e+38
5.9059453 -0.41458404 2.3783178 -2.5815191e+38
5.9059196 -0.42547736 2.3783178 -2.4480292e+38
5.9058938 -0.43637064 2.3783178 -2.7687093e+38
5.9058676 -0.44726396 2.3783178 -3.0900669e+38
5.9058418 -0.45815724 2.3783178 nan
5.9058161 -0.46905056 2.3783178 nan
6.0017743 -0.48684549 2.3974266 -3.0338708e+38
6.0017481 -0.49792165 2.3974266 -2.340181e+38
6.0017219 -0.5089978 2.3974266 -2.5010913e+38
6.0016956 -0.52007401 2.3974266 -2.6481896e+38
6.1016512 -0.53910124 2.4173312 -2.6085211e+38
6.1016245 -0.55036783 2.4173312 -2.5823004e+38
6.1015978 -0.56163454 2.4173312 -2.4087221e+38
6.1015711 -0.57290113 2.4173312 -2.2488546e+38
6.1015444 -0.58416772 2.4173312 -2.6495473e+38
6.0015383 -0.58653086 2.3974266 -3.0631191e+38
6.0015121 -0.59760708 2.3974266 nan
6.1014643 -0.61796767 2.4173312 nan
6.1014376 -0.62923431 2.4173312 nan
6.0014334 -0.63083553 2.3974266 nan
6.0014071 -0.64191169 2.3974266 nan
5.9054036 -0.64334345 2.3783178 nan
6.0024037 -0.22101763 2.3863502 nan
5.906384 -0.22939785 2.3674245 nan
5.9063578 -0.24029115 2.3674245 -2.9806086e+38
5.906332 -0.25118446 2.3674245 -2.5161031e+38
5.9063063 -0.26207775 2.3674245 -2.7018806e+38
5.9062805 -0.27297106 2.3674245 -2.8881283e+38
5.9062548 -0.28386438 2.3674245 -2.8217186e+38
5.906229 -0.29475766 2.3674245 -2.7419134e+38
5.9062033 -0.30565098 2.3674245 -2.7420175e+38
5.9061775 -0.31654429 2.3674245 -2.7421211e+38
5.9061518 -0.32743761 2.3674245 -2.7155364e+38
5.906126 -0.33833089 2.3674245 -2.6889514e+38
5.9060998 -0.34922421 2.3674245 -2.6888474e+38
5.906074 -0.36011752 2.3674245 -2.6888987e+38
5.9060483 -0.37101081 2.3674245 -2.7020865e+38
5.9060225 -0.38190413 2.3674245 -2.7020344e+38
5.9059968 -0.39279744 2.3674245 -2.7153267e+38
5.9059711 -0.40369073 2.3674245 -2.7151703e+38
5.9059453 -0.41458404 2.3674245 -2.6617409e+38
5.9059196 -0.42547736 2.3674245 -2.608054e+38
5.9058938 -0.43637064 2.3674245 -2.5944518e+38
5.9058676 -0.44726396 2.3674245 -2.5831371e+38
5.9058418 -0.45815724 2.3674245 -2.8904738e+38
5.9058161 -0.46905056 2.3674245 -3.1950981e+38
6.0017743 -0.48684549 2.3863502 -2.8599277e+38
6.0017481 -0.49792165 2.3863502 -2.5144854e+38
6.0017219 -0.5089978 2.3863502 -2.5949674e+38
6.0016956 -0.52007401 2.3863502 -2.6749813e+38
6.0016694 -0.5311501 2.3863502 -2.6751896e+38
6.1016245 -0.55036783 2.4060645 -2.6751902e+38
6.1015978 -0.56163454 2.4060645 -2.6219178e+38
6.1015711 -0.57290113 2.4060645 -2.5684388e+38
6.1015444 -0.58416772 2.4060645 -2.3692122e+38
6.1015177 -0.59543443 2.4060645 -2.1575243e+38
6.0015121 -0.59760708 2.3863502 -2.6895812e+38
6.1014643 -0.61796767 2.4060645 -3.210112e+38
6.1014376 -0.62923431 2.4060645 nan
6.0014334 -0.63083553 2.3863502 nan
6.0014071 -0.64191169 2.3863502 nan
6.0013809 -0.65298784 2.3863502 nan
6.0013547 -0.66406405 2.3863502 nan
6.0024037 -0.22101763 2.3752742 nan
5.906384 -0.22939785 2.3565311 -2.9296722e+38
5.9063578 -0.24029115 2.3565311 -2.7951868e+38
5.906332 -0.25118446 2.3565311 -2.6620046e+38
5.9063063 -0.26207775 2.3565311 -2.7418621e+38
5.9062805 -0.27297106 2.3565311 -2.8351675e+38
5.9062548 -0.28386438 2.3565311 -2.7685499e+38
5.906229 -0.29475766 2.3565311 -2.7153287e+38
5.9062033 -0.30565098 2.3565311 -2.7153804e+38
5.9061775 -0.31654429 2.3565311 -2.7287763e+38
5.9061518 -0.32743761 2.3565311 -2.7154317e+38
5.906126 -0.33833089 2.3565311 -2.702139e+38
5.9060998 -0.34922421 2.3565311 -2.6887944e+38
5.906074 -0.36011752 2.3565311 -2.6754502e+38
5.9060483 -0.37101081 2.3565311 -2.6887423e+38
5.9060225 -0.38190413 2.3565311 -2.7019827e+38
5.9059968 -0.39279744 2.3565311 -2.7019305e+38
5.9059711 -0.40369073 2.3565311 -2.7018784e+38
5.9058938 -0.43637064 2.3565311 -2.6348436e+38
5.9058676 -0.44726396 2.3565311 -2.6348986e+38
5.9058418 -0.45815724 2.3565311 -2.7956551e+38
5.9058161 -0.46905056 2.3565311 -2.9547944e+38
5.9057903 -0.47994387 2.3565311 -2.7811593e+38
6.0017481 -0.49792165 2.3752742 -2.595069e+38
6.0017219 -0.5089978 2.3752742 -2.6218627e+38
6.0016956 -0.52007401 2.3752742 -2.6487075e+38
6.0016694 -0.5311501 2.3752742 -2.6486042e+38
5.9056616 -0.53441036 2.3565311 -2.6486052e+38
6.001617 -0.55330241 2.3752742 -2.6219176e+38
6.1015711 -0.57290113 2.3947978 -2.6084698e+38
6.0015645 -0.57545477 2.3752742 -2.515424e+38
6.0015383 -0.58653086 2.3752742 -2.4221694e+38
6.0015121 -0.59760708 2.3752742 -2.5820392e+38
6.0014858 -0.60868317 2.3752742 -2.7549489e+38
6.1014376 -0.62923431 2.3947978 -2.9965526e+38
6.0014334 -0.63083553 2.3752742 -3.2519122e+38
6.0014071 -0.64191169 2.3752742 nan
6.0013809 -0.65298784 2.3752742 nan
6.0013547 -0.66406405 2.3752742 nan
6.0024037 -0.22101763 2.3641977 -3.2594303e+38
5.906384 -0.22939785 2.3456378 -2.4226912e+38
5.9063578 -0.24029115 2.3456378 -2.6084714e+38
5.906332 -0.25118446 2.3456378 -2.7948227e+38
5.9063063 -0.26207775 2.3456378 -2.7816862e+38
5.9062805 -0.27297106 2.3456378 -2.7684457e+38
5.9062548 -0.28386438 2.3456378 -2.7284648e+38
5.906229 -0.29475766 2.3456378 -2.6886397e+38
5.9062033 -0.30565098 2.3456378 -2.7019319e+38
5.9061775 -0.31654429 2.3456378 -2.7019835e+38
6.0021415 -0.33177924 2.3641977 -2.7019833e+38
5.906126 -0.33833089 2.3456378 -2.7020867e+38
5.9060998 -0.34922421 2.3456378 -2.6755017e+38
5.906074 -0.36011752 2.3456378 -2.6488653e+38
5.9060483 -0.37101081 2.3456378 -2.6753981e+38
6.0020103 -0.38716003 2.3641977 -2.7019305e+38
6.0019841 -0.39823619 2.3641977 -2.7018784e+38
5.9059711 -0.40369073 2.3456378 -2.6885859e+38
5.9058938 -0.43637064 2.3456378 -2.6750849e+38
5.9058676 -0.44726396 2.3456378 -2.6752944e+38
5.9058418 -0.45815724 2.3456378 -2.7024518e+38
5.9058161 -0.46905056 2.3456378 -2.7152739e+38
5.9057903 -0.47994387 2.3456378 -2.7015113e+38
5.9057646 -0.49083716 2.3456378 -2.6750316e+38
6.0017219 -0.5089978 2.3641977 -2.6486038e+38
5.9057131 -0.51262379 2.3456378 -2.6086231e+38
6.0016694 -0.5311501 2.3641977 -2.6085195e+38
5.9056616 -0.53441036 2.3456378 -2.6086237e+38
6.1015978 -0.56163454 2.3835311 -2.635157e+38
6.1015711 -0.57290113 2.3835311 -2.6484497e+38
6.1015444 -0.58416772 2.3835311 -2.6617943e+38
6.0015383 -0.58653086 2.3641977 -2.6747227e+38
6.0015121 -0.59760708 2.3641977 -2.4880073e+38
6.0014858 -0.60868317 2.3641977 -2.2889878e+38
6.1014376 -0.62923431 2.3835311 -2.1025334e+38
6.0014334 -0.63083553 2.3641977 -1.9190411e+38
6.0014071 -0.64191169 2.3641977 -2.9973807e+38
6.0013809 -0.65298784 2.3641977 nan
5.9053774 -0.65423667 2.3456378 nan
5.9053516 -0.66513002 2.3456378 nan
6.0024037 -0.22101763 2.3531218 -2.9678214e+38
5.906384 -0.22939785 2.3347445 -2.581311e+38
5.9063578 -0.24029115 2.3347445 -2.6881208e+38
5.906332 -0.25118446 2.3347445 -2.7947702e+38
5.9063063 -0.26207775 2.3347445 -2.7815295e+38
5.9062805 -0.27297106 2.3347445 -2.7549968e+38
5.9062548 -0.28386438 2.3347445 -2.7284123e+38
5.906229 -0.29475766 2.3347445 -2.6885873e+38
5.9062033 -0.30565098 2.3347445 -2.6885871e+38
5.9061775 -0.31654429 2.3347445 -2.7018792e+38
6.0021415 -0.33177924 2.3531218 -2.6886384e+38
5.906126 -0.33833089 2.3347445 -2.6887421e+38
5.9060998 -0.34922421 2.3347445 -2.6753975e+38
5.906074 -0.36011752 2.3347445 -2.6753977e+38
5.9060483 -0.37101081 2.3347445 -2.6886382e+38
5.9060225 -0.38190413 2.3347445 -2.7019303e+38
6.0019841 -0.39823619 2.3531218 -2.6885857e+38
5.9058938 -0.43637064 2.3347445 -2.6619494e+38
5.9058676 -0.44726396 2.3347445 -2.6488653e+38
5.9058418 -0.45815724 2.3347445 -2.6753983e+38
5.9058161 -0.46905056 2.3347445 -2.6884297e+38
5.9057903 -0.47994387 2.3347445 -2.6750843e+38
5.9057646 -0.49083716 2.3347445 -2.6485521e+38
5.9057388 -0.50173044 2.3347445 -2.6352083e+38
5.9057131 -0.51262379 2.3347445 -2.6084676e+38
5.9056873 -0.52351707 2.3347445 -2.608571e+38
5.9056616 -0.53441036 2.3347445 -2.6086231e+38
6.1015978 -0.56163454 2.3722644 -2.6085712e+38
6.0015907 -0.56437862 2.3531218 -2.6218641e+38
6.0015645 -0.57545477 2.3531218 -2.635157e+38
6.0015383 -0.58653086 2.3531218 -2.66169e+38
6.0015121 -0.59760708 2.3531218 -2.5683327e+38
6.0014858 -0.60868317 2.3531218 -2.4751271e+38
6.0014596 -0.61975938 2.3531218 -2.31546e+38
6.0014334 -0.63083553 2.3531218 -2.1689378e+38
5.9054294 -0.6324501 2.3347445 -2.6631449e+38
5.9054036 -0.64334345 2.3347445 -3.1709073e+38
5.9053774 -0.65423667 2.3347445 nan
5.9053516 -0.66513002 2.3347445 nan
6.0024037 -0.22101763 2.3420455 -2.6609071e+38
6.0023775 -0.23209378 2.3420455 -2.7278387e+38
6.0023513 -0.24316995 2.3420455 -2.7679778e+38
6.0023251 -0.25424612 2.3420455 -2.7947179e+38
5.9063063 -0.26207775 2.3238511 -2.7681329e+38
5.9062805 -0.27297106 2.3238511 -2.7416001e+38
5.9062548 -0.28386438 2.3238511 -2.7149634e+38
5.906229 -0.29475766 2.3238511 -2.6884825e+38
5.9062033 -0.30565098 2.3238511 -2.6884825e+38
5.9061775 -0.31654429 2.3238511 -2.6885344e+38
6.0021415 -0.33177924 2.3420455 -2.6752423e+38
5.906126 -0.33833089 2.3238511 -2.6620018e+38
5.9060998 -0.34922421 2.3238511 -2.6752419e+38
5.906074 -0.36011752 2.3238511 -2.6885859e+38
5.9060483 -0.37101081 2.3238511 -2.6885859e+38
5.9060225 -0.38190413 2.3238511 -2.6885857e+38
6.0019841 -0.39823619 2.3420455 -2.6884817e+38
6.0019579 -0.40931234 2.3420455 -2.6752413e+38
6.0019317 -0.42038852 2.3420455 -2.6620012e+38
6.0019054 -0.43146467 2.3420455 -2.6487091e+38
5.9058938 -0.43637064 2.3238511 -2.6354168e+38
6.001853 -0.45361701 2.3420455 -2.6221247e+38
5.9058418 -0.45815724 2.3238511 -2.6485016e+38
5.9058161 -0.46905056 2.3238511 -2.6618452e+38
6.0017743 -0.48684549 2.3420455 -2.6485006e+38
5.9057646 -0.49083716 2.3238511 -2.621916e+38
5.9057388 -0.50173044 2.3238511 -2.621916e+38
5.9057131 -0.51262379 2.3238511 -2.6086235e+38
6.0016694 -0.5311501 2.3420455 -2.6086235e+38
5.9056616 -0.53441036 2.3238511 -2.5952791e+38
6.1015978 -0.56163454 2.3609979 -2.5951753e+38
6.0015907 -0.56437862 2.3420455 -2.5952795e+38
6.0015645 -0.57545477 2.3420455 -2.6218647e+38
6.0015383 -0.58653086 2.3420455 -2.635157e+38
6.0015121 -0.59760708 2.3420455 -2.6485014e+38
5.9055066 -0.59977019 2.3238511 -2.6482399e+38
5.9054809 -0.61066347 2.3238511 -2.5284518e+38
5.9054551 -0.62155682 2.3238511 -2.4085627e+38
5.9054294 -0.6324501 2.3238511 -2.3418429e+38
5.9054036 -0.64334345 2.3238511 -2.2649537e+38
5.9053774 -0.65423667 2.3238511 nan
5.9053516 -0.66513002 2.3238511 nan
6.0024037 -0.22101763 2.3309693 -2.5548829e+38
6.0023775 -0.23209378 2.3309693 -2.7682355e+38
6.0023513 -0.24316995 2.3309693 -2.7548406e+38
6.0023251 -0.25424612 2.3309693 -2.7548924e+38
5.9063063 -0.26207775 2.3129578 -2.7414441e+38
6.0022726 -0.27639842 2.3309693 -2.7149111e+38
5.9062548 -0.28386438 2.3129578 -2.7016182e+38
5.906229 -0.29475766 2.3129578 -2.6750855e+38
5.9062033 -0.30565098 2.3129578 -2.6751375e+38
6.0021677 -0.32070306 2.3309693 -2.6751898e+38
6.0021415 -0.33177924 2.3309693 -2.6752421e+38
5.906126 -0.33833089 2.3129578 -2.675294e+38
5.9060998 -0.34922421 2.3129578 -2.6752419e+38
6.0020628 -0.3650077 2.3309693 -2.6752936e+38
6.0020366 -0.37608388 2.3309693 -2.6752413e+38
6.0020103 -0.38716003 2.3309693 -2.6885334e+38
6.0019841 -0.39823619 2.3309693 -2.6752409e+38
5.9059711 -0.40369073 2.3129578 -2.661949e+38
5.9059196 -0.42547736 2.3129578 -2.6354687e+38
5.9058938 -0.43637064 2.3129578 -2.6354168e+38
5.9058676 -0.44726396 2.3129578 -2.6353647e+38
5.9058418 -0.45815724 2.3129578 -2.6352606e+38
5.9058161 -0.46905056 2.3129578 -2.6352608e+38
5.9057903 -0.47994387 2.3129578 -2.6219166e+38
5.9057646 -0.49083716 2.3129578 -2.5953319e+38
5.9057388 -0.50173044 2.3129578 -2.5820911e+38
5.9057131 -0.51262379 2.3129578 -2.5821432e+38
5.9056873 -0.52351707 2.3129578 -2.5820913e+38
5.9056616 -0.53441036 2.3129578 -2.5953315e+38
6.001617 -0.55330241 2.3309693 -2.5952791e+38
6.0015907 -0.56437862 2.3309693 -2.5952797e+38
6.0015645 -0.57545477 2.3309693 -2.6219166e+38
6.0015383 -0.58653086 2.3309693 -2.648501e+38
6.0015121 -0.59760708 2.3309693 -2.6485008e+38
5.9055066 -0.59977019 2.3129578 -2.6617415e+38
5.9054809 -0.61066347 2.3129578 -2.5951248e+38
5.9054551 -0.62155682 2.3129578 -2.5419015e+38
5.9054294 -0.6324501 2.3129578 -2.3023267e+38
5.9054036 -0.64334345 2.3129578 -2.0626604e+38
5.9053774 -0.65423667 2.3129578 -3.2236162e+38
6.0024037 -0.22101763 2.3198931 -2.4622517e+38
6.0023775 -0.23209378 2.3198931 -2.7947155e+38
6.0023513 -0.24316995 2.3198931 -2.7548915e+38
5.906332 -0.25118446 2.3020644 -2.7147549e+38
5.9063063 -0.26207775 2.3020644 -2.7011511e+38
5.9062805 -0.27297106 2.3020644 -2.6881182e+38
5.9062548 -0.28386438 2.3020644 -2.6748257e+38
5.906229 -0.29475766 2.3020644 -2.6617411e+38
5.9062033 -0.30565098 2.3020644 -2.6617933e+38
6.1021581 -0.32503513 2.3384645 -2.6618454e+38
6.0021415 -0.33177924 2.3198931 -2.6751381e+38
6.0021152 -0.34285542 2.3198931 -2.6751381e+38
6.002089 -0.35393155 2.3198931 -2.6750861e+38
6.0020628 -0.3650077 2.3198931 -2.6618973e+38
6.0020366 -0.37608388 2.3198931 -2.6751892e+38
5.9060225 -0.38190413 2.3020644 -2.6751892e+38
5.9059968 -0.39279744 2.3020644 -2.661949e+38
5.9059711 -0.40369073 2.3020644 -2.6486567e+38
5.9059453 -0.41458404 2.3020644 -2.6354683e+38
5.9059196 -0.42547736 2.3020644 -2.608832e+38
5.9058938 -0.43637064 2.3020644 -2.6353649e+38
5.9058676 -0.44726396 2.3020644 -2.648605e+38
5.9058418 -0.45815724 2.3020644 -2.635157e+38
5.9058161 -0.46905056 2.3020644 -2.6086243e+38
5.9057903 -0.47994387 2.3020644 -2.5953321e+38
5.9057646 -0.49083716 2.3020644 -2.5687992e+38
5.9057388 -0.50173044 2.3020644 -2.5555587e+38
5.9057131 -0.51262379 2.3020644 -2.5422145e+38
6.0016694 -0.5311501 2.3198931 -2.568799e+38
6.0016432 -0.54222631 2.3198931 -2.5820913e+38
6.001617 -0.55330241 2.3198931 -2.5820392e+38
6.0015907 -0.56437862 2.3198931 -2.5820394e+38
6.0015645 -0.57545477 2.3198931 -2.6219164e+38
6.0015383 -0.58653086 2.3198931 -2.648501e+38
6.0015121 -0.59760708 2.3198931 -2.6617413e+38
6.0014858 -0.60868317 2.3198931 -2.6617417e+38
6.0014596 -0.61975938 2.3198931 -2.6616902e+38
5.9054551 -0.62155682 2.3020644 -2.6616892e+38
5.9054294 -0.6324501 2.3020644 -2.2629198e+38
5.9054036 -0.64334345 2.3020644 -1.8646242e+38
5.9053774 -0.65423667 2.3020644 -2.9972254e+38
6.0024037 -0.22101763 2.3088169 -2.4753876e+38
6.0023775 -0.23209378 2.3088169 -2.7547859e+38
6.0023513 -0.24316995 2.3088169 -2.714806e+38
5.906332 -0.25118446 2.2911711 -2.6880137e+38
5.9063063 -0.26207775 2.2911711 -2.6747213e+38
5.9062805 -0.27297106 2.2911711 -2.6616369e+38
5.9062548 -0.28386438 2.2911711 -2.6482929e+38
5.906229 -0.29475766 2.2911711 -2.6484489e+38
5.9062033 -0.30565098 2.2911711 -2.6484489e+38
6.0021677 -0.32070306 2.3088169 -2.6617415e+38
6.0021415 -0.33177924 2.3088169 -2.6616898e+38
6.0021152 -0.34285542 2.3088169 -2.6749302e+38
6.002089 -0.35393155 2.3088169 -2.6617417e+38
6.0020628 -0.3650077 2.3088169 -2.6617933e+38
6.0020366 -0.37608388 2.3088169 -2.6617927e+38
5.9060225 -0.38190413 2.2911711 -2.6617931e+38
5.9059968 -0.39279744 2.2911711 -2.6485531e+38
5.9059711 -0.40369073 2.2911711 -2.6353125e+38
5.9059453 -0.41458404 2.2911711 -2.622072e+38
5.9059196 -0.42547736 2.2911711 -2.608728e+38
5.9058676 -0.44726396 2.2911711 -2.6485531e+38
5.9058418 -0.45815724 2.2911711 -2.6352608e+38
5.9058161 -0.46905056 2.2911711 -2.6219166e+38
5.9057903 -0.47994387 2.2911711 -2.5953319e+38
5.9057646 -0.49083716 2.2911711 -2.5820396e+38
5.9057388 -0.50173044 2.2911711 -2.5820396e+38
6.0016956 -0.52007401 2.3088169 -2.5820396e+38
6.0016694 -0.5311501 2.3088169 -2.5820913e+38
6.0016432 -0.54222631 2.3088169 -2.5820915e+38
6.001617 -0.55330241 2.3088169 -2.5953319e+38
6.0015907 -0.56437862 2.3088169 -2.5953319e+38
6.0015645 -0.57545477 2.3088169 -2.6086239e+38
6.0015383 -0.58653086 2.3088169 -2.6352087e+38
6.0015121 -0.59760708 2.3088169 -2.6351568e+38
5.9055066 -0.59977019 2.2911711 -2.6484497e+38
5.9054809 -0.61066347 2.2911711 -2.6351059e+38
5.9054551 -0.62155682 2.2911711 -2.6352099e+38
5.9054294 -0.6324501 2.2911711 -2.3957412e+38
5.9054036 -0.64334345 2.2911711 -2.16941e+38
5.9053774 -0.65423667 2.2911711 -3.0093167e+38
6.0024037 -0.22101763 2.2977407 -2.5019731e+38
6.0023775 -0.23209378 2.2977407 -2.7148058e+38
6.0023513 -0.24316995 2.2977407 -2.6880657e+38
6.0023251 -0.25424612 2.2977407 -2.6481367e+38
6.0022988 -0.26532227 2.2977407 -2.6348442e+38
6.0022726 -0.27639842 2.2977407 -2.6216041e+38
5.9062548 -0.28386438 2.2802777 -2.6348968e+38
5.906229 -0.29475766 2.2802777 -2.6350006e+38
5.9062033 -0.30565098 2.2802777 -2.6482931e+38
6.0021677 -0.32070306 2.2977407 -2.6483452e+38
6.0021415 -0.33177924 2.2977407 -2.6615858e+38
6.0021152 -0.34285542 2.2977407 -2.67493e+38
5.9060998 -0.34922421 2.2802777 -2.6617415e+38
5.906074 -0.36011752 2.2802777 -2.6484491e+38
6.0020366 -0.37608388 2.2977407 -2.6484487e+38
5.9060225 -0.38190413 2.2802777 -2.6352085e+38
5.9059968 -0.39279744 2.2802777 -2.6352087e+38
5.9059711 -0.40369073 2.2802777 -2.6219681e+38
5.9059453 -0.41458404 2.2802777 -2.6086759e+38
5.9059196 -0.42547736 2.2802777 -2.5953836e+38
5.9058938 -0.43637064 2.2802777 -2.6219681e+38
5.9058676 -0.44726396 2.2802777 -2.6353123e+38
5.9058418 -0.45815724 2.2802777 -2.6353643e+38
5.9058161 -0.46905056 2.2802777 -2.6219681e+38
5.9057903 -0.47994387 2.2802777 -2.608572e+38
5.9057646 -0.49083716 2.2802777 -2.5953317e+38
5.9057388 -0.50173044 2.2802777 -2.608572e+38
6.0016956 -0.52007401 2.2977407 -2.6086239e+38
6.0016694 -0.5311501 2.2977407 -2.5953836e+38
6.0016432 -0.54222631 2.2977407 -2.5820394e+38
6.001617 -0.55330241 2.2977407 -2.5952795e+38
6.0015907 -0.56437862 2.2977407 -2.6086237e+38
6.0015645 -0.57545477 2.2977407 -2.6086237e+38
6.0015383 -0.58653086 2.2977407 -2.6085718e+38
6.0015121 -0.59760708 2.2977407 -2.6218124e+38
6.0014858 -0.60868317 2.2977407 -2.6217611e+38
6.0014596 -0.61975938 2.2977407 -2.6216057e+38
6.0014334 -0.63083553 2.2977407 -2.6084694e+38
6.0014071 -0.64191169 2.2977407 -2.5419561e+38
5.9054036 -0.64334345 2.2802777 -2.4621511e+38
5.9053774 -0.65423667 2.2802777 -3.0348103e+38
6.1023984 -0.22363542 2.3046646 -2.4886819e+38
6.1023717 -0.23490204 2.3046646 -2.6883255e+38
6.0023513 -0.24316995 2.2866645 -2.661533e+38
6.0023251 -0.25424612 2.2866645 -2.6348442e+38
6.0022988 -0.26532227 2.2866645 -2.6214996e+38
6.0022726 -0.27639842 2.2866645 -2.6082077e+38
6.0022464 -0.28747457 2.2866645 -2.5949678e+38
5.906229 -0.29475766 2.2693844 -2.5950718e+38
5.9062033 -0.30565098 2.2693844 -2.5817798e+38
5.9061775 -0.31654429 2.2693844 -2.5818317e+38
6.0021415 -0.33177924 2.2866645 -2.6084162e+38
5.906126 -0.33833089 2.2693844 -2.6350529e+38
6.002089 -0.35393155 2.2866645 -2.6218126e+38
5.906074 -0.36011752 2.2693844 -2.6218645e+38
5.9060483 -0.37101081 2.2693844 -2.6218643e+38
6.0020103 -0.38716003 2.2866645 -2.6351566e+38
5.9059968 -0.39279744 2.2693844 -2.6218643e+38
5.9059711 -0.40369073 2.2693844 -2.6086239e+38
5.9059453 -0.41458404 2.2693844 -2.5953315e+38
5.9059196 -0.42547736 2.2693844 -2.5953834e+38
5.9058938 -0.43637064 2.2693844 -2.5953832e+38
5.9058676 -0.44726396 2.2693844 -2.6087793e+38
5.9058418 -0.45815724 2.2693844 -2.6086755e+38
5.9058161 -0.46905056 2.2693844 -2.6086237e+38
5.9057903 -0.47994387 2.2693844 -2.6086237e+38
5.9057646 -0.49083716 2.2693844 -2.5953315e+38
5.9057388 -0.50173044 2.2693844 -2.6085716e+38
5.9057131 -0.51262379 2.2693844 -2.621916e+38
6.0016694 -0.5311501 2.2866645 -2.6086239e+38
6.0016432 -0.54222631 2.2866645 -2.5952795e+38
5.9056358 -0.5453037 2.2693844 -2.5952791e+38
6.0015907 -0.56437862 2.2866645 -2.6086233e+38
5.9055839 -0.56709027 2.2693844 -2.6086233e+38
6.0015383 -0.58653086 2.2866645 -2.6085716e+38
5.9055324 -0.5888769 2.2693844 -2.6218122e+38
5.9055066 -0.59977019 2.2693844 -2.6350531e+38
5.9054809 -0.61066347 2.2693844 -2.6350016e+38
6.0014334 -0.63083553 2.2866645 -2.6483979e+38
6.0014071 -0.64191169 2.2866645 -2.568177e+38
5.9054036 -0.64334345 2.2693844 -2.5010929e+38
5.9053774 -0.65423667 2.2693844 -3.0481537e+38
6.0024037 -0.22101763 2.2755885 -2.4888896e+38
6.0023775 -0.23209378 2.2755885 -2.6482925e+38
6.0023513 -0.24316995 2.2755885 -2.634844e+38
6.0023251 -0.25424612 2.2755885 -2.6082073e+38
6.0022988 -0.26532227 2.2755885 -2.5948629e+38
6.0022726 -0.27639842 2.2755885 -2.5816228e+38
6.0022464 -0.28747457 2.2755885 -2.5683309e+38
6.0022202 -0.29855072 2.2755885 -2.5418504e+38
5.9062033 -0.30565098 2.2584913 -2.5285583e+38
5.9061775 -0.31654429 2.2584913 -2.515318e+38
6.0021415 -0.33177924 2.2755885 -2.5551431e+38
6.0021152 -0.34285542 2.2755885 -2.5818317e+38
6.002089 -0.35393155 2.2755885 -2.5951761e+38
5.906074 -0.36011752 2.2584913 -2.5952282e+38
6.0020366 -0.37608388 2.2755885 -2.6085724e+38
6.0020103 -0.38716003 2.2755885 -2.6218645e+38
6.0019841 -0.39823619 2.2755885 -2.6085203e+38
5.9059711 -0.40369073 2.2584913 -2.5952795e+38
5.9059453 -0.41458404 2.2584913 -2.5952793e+38
5.9059196 -0.42547736 2.2584913 -2.5819868e+38
5.9058938 -0.43637064 2.2584913 -2.5819868e+38
5.9058676 -0.44726396 2.2584913 -2.5819868e+38
5.9058418 -0.45815724 2.2584913 -2.5952793e+38
5.9058161 -0.46905056 2.2584913 -2.5952795e+38
5.9057903 -0.47994387 2.2584913 -2.5952797e+38
5.9057646 -0.49083716 2.2584913 -2.5952795e+38
5.9057388 -0.50173044 2.2584913 -2.6085199e+38
5.9057131 -0.51262379 2.2584913 -2.6218641e+38
6.0016694 -0.5311501 2.2755885 -2.6085718e+38
5.9056616 -0.53441036 2.2584913 -2.5952793e+38
5.9056358 -0.5453037 2.2584913 -2.5952791e+38
5.9056096 -0.55619693 2.2584913 -2.5952791e+38
6.0015645 -0.57545477 2.2755885 -2.5952789e+38
6.0015383 -0.58653086 2.2755885 -2.5952789e+38
5.9055324 -0.5888769 2.2584913 -2.6218637e+38
5.9055066 -0.59977019 2.2584913 -2.6350004e+38
6.0014596 -0.61975938 2.2755885 -2.6614815e+38
6.0014334 -0.63083553 2.2755885 -2.6747217e+38
6.0014071 -0.64191169 2.2755885 -2.6077928e+38
5.9054036 -0.64334345 2.2584913 -2.5280397e+38
5.9053774 -0.65423667 2.2584913 -3.0609257e+38
6.0024037 -0.22101763 2.2645121 -2.5685392e+38
6.0023775 -0.23209378 2.2645121 -2.6349481e+38
6.0023513 -0.24316995 2.2645121 -2.6082069e+38
6.0023251 -0.25424612 2.2645121 -2.5948108e+38
6.0022988 -0.26532227 2.2645121 -2.5815183e+38
6.0022726 -0.27639842 2.2645121 -2.5682782e+38
6.0022464 -0.28747457 2.2645121 -2.5417457e+38
6.0022202 -0.29855072 2.2645121 -2.5285575e+38
5.9062033 -0.30565098 2.2475979 -2.5153173e+38
5.9061775 -0.31654429 2.2475979 -2.5154214e+38
6.0021415 -0.33177924 2.2645121 -2.5552465e+38
6.0021152 -0.34285542 2.2645121 -2.5951757e+38
6.002089 -0.35393155 2.2645121 -2.5951761e+38
6.0020628 -0.3650077 2.2645121 -2.5952284e+38
6.0020366 -0.37608388 2.2645121 -2.6085728e+38
6.0020103 -0.38716003 2.2645121 -2.6085726e+38
6.0019841 -0.39823619 2.2645121 -2.5819357e+38
6.0019579 -0.40931234 2.2645121 -2.5685911e+38
5.9059453 -0.41458404 2.2475979 -2.5552982e+38
5.9059196 -0.42547736 2.2475979 -2.5552463e+38
5.9058938 -0.43637064 2.2475979 -2.5685384e+38
5.9058676 -0.44726396 2.2475979 -2.5685388e+38
5.9058418 -0.45815724 2.2475979 -2.5685909e+38
5.9058161 -0.46905056 2.2475979 -2.5818834e+38
5.9057903 -0.47994387 2.2475979 -2.5819355e+38
5.9057646 -0.49083716 2.2475979 -2.5952278e+38
5.9057388 -0.50173044 2.2475979 -2.5952276e+38
5.9057131 -0.51262379 2.2475979 -2.6085716e+38
5.9056873 -0.52351707 2.2475979 -2.5952791e+38
5.9056616 -0.53441036 2.2475979 -2.5952791e+38
5.9056358 -0.5453037 2.2475979 -2.5952791e+38
5.9056096 -0.55619693 2.2475979 -2.5952789e+38
5.9055839 -0.56709027 2.2475979 -2.608571e+38
5.9055581 -0.57798356 2.2475979 -2.608571e+38
5.9055324 -0.5888769 2.2475979 -2.6350515e+38
6.0014858 -0.60868317 2.2645121 -2.6481882e+38
6.0014596 -0.61975938 2.2645121 -2.6615324e+38
6.0014334 -0.63083553 2.2645121 -2.6748243e+38
6.0014071 -0.64191169 2.2645121 -2.5812066e+38
5.9054036 -0.64334345 2.2475979 -2.4873828e+38
5.9053774 -0.65423667 2.2475979 -2.9675153e+38
6.1023984 -0.22363542 2.2708645 -2.661688e+38
6.1023717 -0.23490204 2.2708645 -2.6083108e+38
6.102345 -0.24616867 2.2708645 -2.5948104e+38
6.1023183 -0.25743532 2.2708645 -2.5681739e+38
6.1022916 -0.26870197 2.2708645 -2.5548297e+38
6.1022649 -0.27996859 2.2708645 -2.5415896e+38
6.0022464 -0.28747457 2.2534361 -2.5282975e+38
6.0022202 -0.29855072 2.2534361 -2.5152131e+38
6.0021939 -0.30962688 2.2534361 -2.5152654e+38
5.9061775 -0.31654429 2.2367046 -2.5020772e+38
6.0021415 -0.33177924 2.2534361 -2.5552465e+38
6.0021152 -0.34285542 2.2534361 -2.5951236e+38
6.002089 -0.35393155 2.2534361 -2.5951759e+38
6.0020628 -0.3650077 2.2534361 -2.5952278e+38
6.0020366 -0.37608388 2.2534361 -2.5952799e+38
6.0020103 -0.38716003 2.2534361 -2.5952278e+38
6.0019841 -0.39823619 2.2534361 -2.568539e+38
6.0019579 -0.40931234 2.2534361 -2.5286618e+38
5.9059453 -0.41458404 2.2367046 -2.5286096e+38
5.9059196 -0.42547736 2.2367046 -2.5285575e+38
5.9058938 -0.43637064 2.2367046 -2.5417979e+38
5.9058676 -0.44726396 2.2367046 -2.5551423e+38
5.9058418 -0.45815724 2.2367046 -2.5551944e+38
5.9058161 -0.46905056 2.2367046 -2.5551946e+38
5.9057903 -0.47994387 2.2367046 -2.5685392e+38
5.9057646 -0.49083716 2.2367046 -2.5818834e+38
5.9057388 -0.50173044 2.2367046 -2.5818832e+38
5.9057131 -0.51262379 2.2367046 -2.5819351e+38
5.9056873 -0.52351707 2.2367046 -2.5819349e+38
5.9056616 -0.53441036 2.2367046 -2.5819868e+38
5.9056358 -0.5453037 2.2367046 -2.5952791e+38
5.9056096 -0.55619693 2.2367046 -2.5952789e+38
5.9055839 -0.56709027 2.2367046 -2.6086231e+38
5.9055581 -0.57798356 2.2367046 -2.6218116e+38
5.9055324 -0.5888769 2.2367046 -2.6482404e+38
6.0014858 -0.60868317 2.2534361 -2.6615328e+38
6.0014596 -0.61975938 2.2534361 -2.6748253e+38
6.0014334 -0.63083553 2.2534361 -2.6747217e+38
6.1013842 -0.65176755 2.2708645 -2.568124e+38
6.0013809 -0.65298784 2.2534361 -2.4481298e+38
5.9053774 -0.65423667 2.2367046 -2.8737424e+38
6.1023984 -0.22363542 2.2595978 -2.6614793e+38
6.1023717 -0.23490204 2.2595978 -2.6082063e+38
6.102345 -0.24616867 2.2595978 -2.5681735e+38
6.1023183 -0.25743532 2.2595978 -2.5415372e+38
6.1022916 -0.26870197 2.2595978 -2.5281411e+38
6.1022649 -0.27996859 2.2595978 -2.514901e+38
6.1022382 -0.29123521 2.2595978 -2.5150567e+38
6.0022202 -0.29855072 2.2423596 -2.5152131e+38
6.0021939 -0.30962688 2.2423596 -2.5419019e+38
5.9061775 -0.31654429 2.2258112 -2.5552463e+38
5.9061518 -0.32743761 2.2258112 -2.5684869e+38
5.906126 -0.33833089 2.2258112 -2.5950716e+38
6.002089 -0.35393155 2.2423596 -2.5818313e+38
6.0020628 -0.3650077 2.2423596 -2.5818832e+38
6.0020366 -0.37608388 2.2423596 -2.5818832e+38
6.0020103 -0.38716003 2.2423596 -2.5818311e+38
5.9059968 -0.39279744 2.2258112 -2.5551942e+38
6.0019579 -0.40931234 2.2423596 -2.5285575e+38
5.9059453 -0.41458404 2.2258112 -2.5285054e+38
5.9059196 -0.42547736 2.2258112 -2.5417457e+38
5.9058938 -0.43637064 2.2258112 -2.5550899e+38
5.9058676 -0.44726396 2.2258112 -2.5550899e+38
5.9058418 -0.45815724 2.2258112 -2.5550899e+38
5.9058161 -0.46905056 2.2258112 -2.5417983e+38
5.9057903 -0.47994387 2.2258112 -2.5551429e+38
5.9057646 -0.49083716 2.2258112 -2.5818313e+38
6.0017219 -0.5089978 2.2423596 -2.5818311e+38
6.0016956 -0.52007401 2.2423596 -2.5818311e+38
6.0016694 -0.5311501 2.2423596 -2.581883e+38
5.9056616 -0.53441036 2.2258112 -2.5952272e+38
5.9056358 -0.5453037 2.2258112 -2.5951753e+38
5.9056096 -0.55619693 2.2258112 -2.5952272e+38
6.0015645 -0.57545477 2.2423596 -2.6084674e+38
5.9055581 -0.57798356 2.2258112 -2.6217079e+38
5.9055324 -0.5888769 2.2258112 -2.6350002e+38
6.0014858 -0.60868317 2.2423596 -2.648241e+38
6.0014596 -0.61975938 2.2423596 -2.6482414e+38
6.0014334 -0.63083553 2.2423596 -2.6615345e+38
6.0014071 -0.64191169 2.2423596 -2.5548336e+38
5.9054036 -0.64334345 2.2258112 -2.4347347e+38
5.9053774 -0.65423667 2.2258112 -2.9412423e+38
5.9053516 -0.66513002 2.2258112 nan
6.2054191 -0.2148689 2.2658901 -2.7277326e+38
6.1023984 -0.22363542 2.2483311 -2.6745635e+38
6.2053647 -0.23779456 2.2658901 -2.6080499e+38
6.2053375 -0.24925739 2.2658901 -2.5547768e+38
6.1023183 -0.25743532 2.2483311 -2.501504e+38
6.1022916 -0.26870197 2.2483311 -2.4880044e+38
6.1022649 -0.27996859 2.2483311 -2.4750237e+38
6.1022382 -0.29123521 2.2483311 -2.5017123e+38
6.0022202 -0.29855072 2.2312837 -2.5152646e+38
6.0021939 -0.30962688 2.2312837 -2.5684861e+38
6.0021677 -0.32070306 2.2312837 -2.6083631e+38
6.0021415 -0.33177924 2.2312837 -2.5950193e+38
6.0021152 -0.34285542 2.2312837 -2.581779e+38
6.002089 -0.35393155 2.2312837 -2.5817792e+38
6.0020628 -0.3650077 2.2312837 -2.5684867e+38
6.0020366 -0.37608388 2.2312837 -2.5684347e+38
6.0020103 -0.38716003 2.2312837 -2.5684343e+38
6.0019841 -0.39823619 2.2312837 -2.5418496e+38
6.0019579 -0.40931234 2.2312837 -2.5152131e+38
5.9059453 -0.41458404 2.2149179 -2.5416936e+38
6.0019054 -0.43146467 2.2312837 -2.5550376e+38
6.0018792 -0.44254082 2.2312837 -2.5550376e+38
6.001853 -0.45361701 2.2312837 -2.5549857e+38
5.9058418 -0.45815724 2.2149179 -2.5415896e+38
5.9058161 -0.46905056 2.2149179 -2.5284015e+38
5.9057903 -0.47994387 2.2149179 -2.5549867e+38
5.9057646 -0.49083716 2.2149179 -2.5683828e+38
6.0017219 -0.5089978 2.2312837 -2.581727e+38
6.0016956 -0.52007401 2.2312837 -2.581779e+38
6.0016694 -0.5311501 2.2312837 -2.5950714e+38
5.9056616 -0.53441036 2.2149179 -2.5950712e+38
5.9056358 -0.5453037 2.2149179 -2.5949155e+38
5.9056096 -0.55619693 2.2149179 -2.5950712e+38
6.0015645 -0.57545477 2.2312837 -2.6082597e+38
5.9055581 -0.57798356 2.2149179 -2.6217077e+38
6.0015121 -0.59760708 2.2312837 -2.6217079e+38
6.0014858 -0.60868317 2.2312837 -2.6216562e+38
6.0014596 -0.61975938 2.2312837 -2.634897e+38
6.0014334 -0.63083553 2.2312837 -2.6481896e+38
6.1013842 -0.65176755 2.2483311 -2.5415922e+38
6.0013809 -0.65298784 2.2312837 -2.4219617e+38
6.0013547 -0.66406405 2.2312837 -3.0070299e+38
6.2054191 -0.2148689 2.2544274 -2.7012525e+38
6.1023984 -0.22363542 2.2370646 -2.6346343e+38
6.1023717 -0.23490204 2.2370646 -2.5813092e+38
6.2053375 -0.24925739 2.2544274 -2.541432e+38
6.1023183 -0.25743532 2.2370646 -2.514692e+38
6.1022916 -0.26870197 2.2370646 -2.4882117e+38
6.1022649 -0.27996859 2.2370646 -2.4618351e+38
6.1022382 -0.29123521 2.2370646 -2.4886275e+38
6.1022115 -0.30250186 2.2370646 -2.5287123e+38
6.1021848 -0.31376851 2.2370646 -2.5419009e+38
6.0021677 -0.32070306 2.2202075 -2.5684339e+38
6.0021415 -0.33177924 2.2202075 -2.5551421e+38
6.0021152 -0.34285542 2.2202075 -2.5551423e+38
6.002089 -0.35393155 2.2202075 -2.54185e+38
6.0020628 -0.3650077 2.2202075 -2.5418498e+38
6.0020366 -0.37608388 2.2202075 -2.5417977e+38
6.0020103 -0.38716003 2.2202075 -2.5417975e+38
5.9059968 -0.39279744 2.2040246 -2.528505e+38
6.0019579 -0.40931234 2.2202075 -2.5152127e+38
5.9059453 -0.41458404 2.2040246 -2.528453e+38
6.0019054 -0.43146467 2.2202075 -2.5416932e+38
6.0018792 -0.44254082 2.2202075 -2.5416928e+38
6.001853 -0.45361701 2.2202075 -2.5416411e+38
5.9058418 -0.45815724 2.2040246 -2.5284007e+38
5.9058161 -0.46905056 2.2040246 -2.528453e+38
5.9057903 -0.47994387 2.2040246 -2.5417457e+38
5.9057646 -0.49083716 2.2040246 -2.5550382e+38
6.0017219 -0.5089978 2.2202075 -2.5683305e+38
6.0016956 -0.52007401 2.2202075 -2.5816749e+38
5.9056873 -0.52351707 2.2040246 -2.5816751e+38
5.9056616 -0.53441036 2.2040246 -2.5816751e+38
5.9056358 -0.5453037 2.2040246 -2.5816749e+38
5.9056096 -0.55619693 2.2040246 -2.5817787e+38
6.0015645 -0.57545477 2.2202075 -2.5818307e+38
5.9055581 -0.57798356 2.2040246 -2.5951751e+38
6.0015121 -0.59760708 2.2202075 -2.6084676e+38
6.0014858 -0.60868317 2.2202075 -2.6217081e+38
6.0014596 -0.61975938 2.2202075 -2.6216562e+38
6.0014334 -0.63083553 2.2202075 -2.6217081e+38
6.1013842 -0.65176755 2.2370646 -2.4355124e+38
6.0013809 -0.65298784 2.2202075 -2.262818e+38
6.0013547 -0.66406405 2.2202075 -2.9817446e+38
6.1023984 -0.22363542 2.2257979 -2.6079984e+38
6.1023717 -0.23490204 2.2257979 -2.554777e+38
6.2053375 -0.24925739 2.2429645 -2.5414324e+38
6.1023183 -0.25743532 2.2257979 -2.514848e+38
6.1022916 -0.26870197 2.2257979 -2.4750752e+38
6.1022649 -0.27996859 2.2257979 -2.4354061e+38
6.1022382 -0.29123521 2.2257979 -2.4887829e+38
6.1022115 -0.30250186 2.2257979 -2.5286082e+38
6.1021848 -0.31376851 2.2257979 -2.5285048e+38
6.0021677 -0.32070306 2.2091312 -2.5152129e+38
6.1021314 -0.33630177 2.2257979 -2.5152133e+38
6.0021152 -0.34285542 2.2091312 -2.5152133e+38
6.002089 -0.35393155 2.2091312 -2.5152652e+38
6.0020628 -0.3650077 2.2091312 -2.515265e+38
6.0020366 -0.37608388 2.2091312 -2.5151612e+38
6.0020103 -0.38716003 2.2091312 -2.5018687e+38
5.9059968 -0.39279744 2.1931312 -2.5018685e+38
5.9059711 -0.40369073 2.1931312 -2.5018685e+38
5.9059453 -0.41458404 2.1931312 -2.5151088e+38
6.0019054 -0.43146467 2.2091312 -2.5151086e+38
6.0018792 -0.44254082 2.2091312 -2.5151084e+38
6.001853 -0.45361701 2.2091312 -2.5151084e+38
5.9058418 -0.45815724 2.1931312 -2.5151084e+38
6.0018005 -0.47576931 2.2091312 -2.5151608e+38
5.9057903 -0.47994387 2.1931312 -2.5284533e+38
6.0017481 -0.49792165 2.2091312 -2.5284015e+38
6.0017219 -0.5089978 2.2091312 -2.5549344e+38
6.0016956 -0.52007401 2.2091312 -2.5682786e+38
5.9056873 -0.52351707 2.1931312 -2.5682788e+38
5.9056616 -0.53441036 2.1931312 -2.5683305e+38
5.9056358 -0.5453037 2.1931312 -2.5682786e+38
5.9056096 -0.55619693 2.1931312 -2.555194e+38
6.0015645 -0.57545477 2.2091312 -2.568642e+38
6.0015383 -0.58653086 2.2091312 -2.5685903e+38
6.0015121 -0.59760708 2.2091312 -2.5951751e+38
6.0014858 -0.60868317 2.2091312 -2.621656e+38
6.0014596 -0.61975938 2.2091312 -2.608312e+38
6.0014334 -0.63083553 2.2091312 -2.5950708e+38
6.1013842 -0.65176755 2.2257979 -2.3425169e+38
6.0013809 -0.65298784 2.2091312 -2.0900703e+38
6.0013547 -0.66406405 2.2091312 -2.9686617e+38
6.1023984 -0.22363542 2.2145312 -2.5947066e+38
6.1023717 -0.23490204 2.2145312 -2.5547774e+38
6.102345 -0.24616867 2.2145312 -2.5281403e+38
6.1023183 -0.25743532 2.2145312 -2.5016079e+38
6.1022916 -0.26870197 2.2145312 -2.4751791e+38
6.1022649 -0.27996859 2.2145312 -2.448802e+38
6.1022382 -0.29123521 2.2145312 -2.4753864e+38
6.1022115 -0.30250186 2.2145312 -2.5019196e+38
6.1021848 -0.31376851 2.2145312 -2.5019202e+38
6.0021677 -0.32070306 2.198055 -2.5018687e+38
6.1021314 -0.33630177 2.2145312 -2.5018689e+38
6.0021152 -0.34285542 2.198055 -2.5018689e+38
6.002089 -0.35393155 2.198055 -2.5019208e+38
5.906074 -0.36011752 2.1822379 -2.5019727e+38
5.9060483 -0.37101081 2.1822379 -2.4885764e+38
6.0020103 -0.38716003 2.198055 -2.4885245e+38
5.9059968 -0.39279744 2.1822379 -2.4885243e+38
6.0019579 -0.40931234 2.198055 -2.4885243e+38
5.9059453 -0.41458404 2.1822379 -2.5018166e+38
6.0019054 -0.43146467 2.198055 -2.5150567e+38
6.0018792 -0.44254082 2.198055 -2.5017642e+38
6.001853 -0.45361701 2.198055 -2.5018162e+38
6.0018268 -0.46469316 2.198055 -2.5018162e+38
6.0018005 -0.47576931 2.198055 -2.5018164e+38
5.9057903 -0.47994387 2.1822379 -2.5151088e+38
5.9057646 -0.49083716 2.1822379 -2.515109e+38
6.0017219 -0.5089978 2.198055 -2.5416938e+38
6.0016956 -0.52007401 2.198055 -2.5549861e+38
6.0016694 -0.5311501 2.198055 -2.5549342e+38
6.0016432 -0.54222631 2.198055 -2.5549861e+38
6.001617 -0.55330241 2.198055 -2.555038e+38
6.0015907 -0.56437862 2.198055 -2.5419015e+38
6.1015444 -0.58416772 2.2145312 -2.5552457e+38
6.1015177 -0.59543443 2.2145312 -2.5685382e+38
6.101491 -0.60670102 2.2145312 -2.5817787e+38
6.1014643 -0.61796767 2.2145312 -2.6083116e+38
6.1014376 -0.62923431 2.2145312 -2.6083118e+38
6.1014109 -0.64050096 2.2145312 -2.6217065e+38
6.1013842 -0.65176755 2.2145312 -2.3686845e+38
6.1013575 -0.66303426 2.2145312 -2.128701e+38
6.1013308 -0.67430085 2.2145312 -3.0620208e+38
6.1023984 -0.22363542 2.2032645 -2.5814658e+38
6.1023717 -0.23490204 2.2032645 -2.5414849e+38
6.102345 -0.24616867 2.2032645 -2.5147963e+38
6.1023183 -0.25743532 2.2032645 -2.4750752e+38
6.1022916 -0.26870197 2.2032645 -2.4618349e+38
6.1022649 -0.27996859 2.2032645 -2.4486984e+38
6.1022382 -0.29123521 2.2032645 -2.4620428e+38
6.1022115 -0.30250186 2.2032645 -2.462043e+38
6.1021848 -0.31376851 2.2032645 -2.4752837e+38
6.1021581 -0.32503513 2.2032645 -2.4885762e+38
6.1021314 -0.33630177 2.2032645 -2.4885762e+38
6.0021152 -0.34285542 2.1869788 -2.4885762e+38
6.002089 -0.35393155 2.1869788 -2.4885762e+38
6.0020628 -0.3650077 2.1869788 -2.4752841e+38
6.0020366 -0.37608388 2.1869788 -2.4752322e+38
6.0020103 -0.38716003 2.1869788 -2.4752322e+38
6.0019841 -0.39823619 2.1869788 -2.4752322e+38
6.0019579 -0.40931234 2.1869788 -2.475232e+38
6.0019317 -0.42038852 2.1869788 -2.4885241e+38
6.0019054 -0.43146467 2.1869788 -2.5018162e+38
6.0018792 -0.44254082 2.1869788 -2.5017121e+38
6.1018376 -0.46023479 2.2032645 -2.4885239e+38
6.0018268 -0.46469316 2.1869788 -2.4885239e+38
6.0018005 -0.47576931 2.1869788 -2.4885241e+38
6.0017743 -0.48684549 2.1869788 -2.5017644e+38
6.0017481 -0.49792165 2.1869788 -2.5017646e+38
6.0017219 -0.5089978 2.1869788 -2.5283494e+38
6.0016956 -0.52007401 2.1869788 -2.5415898e+38
6.0016694 -0.5311501 2.1869788 -2.5414859e+38
6.0016432 -0.54222631 2.1869788 -2.5415898e+38
6.001617 -0.55330241 2.1869788 -2.54159e+38
6.1015711 -0.57290113 2.2032645 -2.5285054e+38
6.1015444 -0.58416772 2.2032645 -2.5419015e+38
6.1015177 -0.59543443 2.2032645 -2.555194e+38
6.101491 -0.60670102 2.2032645 -2.5817268e+38
6.1014643 -0.61796767 2.2032645 -2.5949676e+38
6.1014376 -0.62923431 2.2032645 -2.6215004e+38
6.1014109 -0.64050096 2.2032645 -2.634739e+38
6.1013842 -0.65176755 2.2032645 -2.4083009e+38
6.1013575 -0.66303426 2.2032645 -2.1694609e+38
6.1023984 -0.22363542 2.191998 -2.568121e+38
6.1023717 -0.23490204 2.191998 -2.5280886e+38
6.102345 -0.24616867 2.191998 -2.5016079e+38
6.1023183 -0.25743532 2.191998 -2.4884194e+38
6.1022916 -0.26870197 2.191998 -2.4752308e+38
6.1022649 -0.27996859 2.191998 -2.475335e+38
6.1022382 -0.29123521 2.191998 -2.4753354e+38
6.1022115 -0.30250186 2.191998 -2.4886279e+38
6.1021848 -0.31376851 2.191998 -2.488576e+38
6.0021677 -0.32070306 2.1759026 -2.4884722e+38
6.0021415 -0.33177924 2.1759026 -2.4885239e+38
5.906126 -0.33833089 2.1604512 -2.4885239e+38
5.9060998 -0.34922421 2.1604512 -2.4885758e+38
6.0020628 -0.3650077 2.1759026 -2.4885762e+38
5.9060483 -0.37101081 2.1604512 -2.4885764e+38
6.0020103 -0.38716003 2.1759026 -2.4885764e+38
6.0019841 -0.39823619 2.1759026 -2.4885764e+38
6.0019579 -0.40931234 2.1759026 -2.4885762e+38
6.0019317 -0.42038852 2.1759026 -2.4753354e+38
6.0019054 -0.43146467 2.1759026 -2.4753352e+38
6.0018792 -0.44254082 2.1759026 -2.4752831e+38
6.001853 -0.45361701 2.1759026 -2.4886275e+38
6.0018268 -0.46469316 2.1759026 -2.4885239e+38
6.0018005 -0.47576931 2.1759026 -2.4885239e+38
6.0017743 -0.48684549 2.1759026 -2.488472e+38
6.0017481 -0.49792165 2.1759026 -2.5017644e+38
6.0017219 -0.5089978 2.1759026 -2.5150048e+38
6.0016956 -0.52007401 2.1759026 -2.5414855e+38
6.0016694 -0.5311501 2.1759026 -2.5414855e+38
6.0016432 -0.54222631 2.1759026 -2.5548299e+38
6.001617 -0.55330241 2.1759026 -2.5416417e+38
6.1015711 -0.57290113 2.191998 -2.5417455e+38
6.1015444 -0.58416772 2.191998 -2.5550897e+38
6.1015177 -0.59543443 2.191998 -2.5684343e+38
6.101491 -0.60670102 2.191998 -2.5817268e+38
6.1014643 -0.61796767 2.191998 -2.5949676e+38
6.1014376 -0.62923431 2.191998 -2.6348448e+38
6.1014109 -0.64050096 2.191998 -2.6748231e+38
6.1013842 -0.65176755 2.191998 -2.4880018e+38
6.1013575 -0.66303426 2.191998 -2.3144302e+38
6.2053919 -0.22633173 2.197113 -2.5681204e+38
6.1023717 -0.23490204 2.1807313 -2.5148995e+38
6.2053375 -0.24925739 2.197113 -2.5016592e+38
6.1023183 -0.25743532 2.1807313 -2.488419e+38
6.1022916 -0.26870197 2.1807313 -2.5018153e+38
