# .PCD v0.7 - Point Cloud Data file format
VERSION 0.7
FIELDS x y z rgb
SIZE 4 4 4 4
TYPE F F F F
COUNT 1 1 1 1
WIDTH 1041
HEIGHT 1
VIEWPOINT 0 0 0 1 0 0 0
POINTS 1041
DATA ascii
4.6498504 -0.44060329 2.1538169 -2.5419021e+38
4.6498299 -0.44910419 2.1538169 -2.5286098e+38
4.6498098 -0.45760512 2.1538169 -2.5154216e+38
4.6497898 -0.46610606 2.1538169 -2.4888372e+38
4.6497698 -0.47460699 2.1538169 -2.5021297e+38
4.6497493 -0.48310792 2.1538169 -2.502234e+38
4.7077165 -0.49710429 2.165693 -2.5156824e+38
4.707696 -0.50571573 2.165693 -2.5289743e+38
4.7076755 -0.51432705 2.165693 -2.5555067e+38
4.707655 -0.52293849 2.165693 -2.5687469e+38
4.7076344 -0.53154993 2.165693 -2.581987e+38
4.7076144 -0.54016131 2.165693 -2.5819873e+38
4.7075939 -0.54877269 2.165693 -2.6085201e+38
4.7075734 -0.55738413 2.165693 -2.6217613e+38
4.7075529 -0.56599551 2.165693 -2.6482428e+38
4.7075329 -0.5746069 2.165693 -2.6749294e+38
4.7075124 -0.58321834 2.165693 -2.4887839e+38
4.7074919 -0.59182966 2.165693 -2.3031145e+38
4.7074714 -0.6004411 2.165693 nan
4.7074513 -0.60905254 2.165693 nan
4.6494474 -0.61062181 2.1538169 nan
4.8306947 -0.084161974 2.1818304 nan
4.8306737 -0.093005762 2.1818304 nan
4.8306527 -0.10184954 2.1818304 nan
4.7686329 -0.11013316 2.1692531 nan
4.7686124 -0.11885884 2.1692531 -2.8475669e+38
4.7685919 -0.12758455 2.1692531 -2.2881515e+38
4.7085729 -0.13542527 2.1570816 -2.4485442e+38
4.7085524 -0.14403668 2.1570816 -2.6081552e+38
4.7085319 -0.15264808 2.1570816 -2.5815704e+38
4.7085118 -0.16125947 2.1570816 -2.5681743e+38
4.7084913 -0.16987088 2.1570816 -2.5548299e+38
4.6504741 -0.17707446 2.1453159 -2.5548299e+38
4.7084503 -0.1870937 2.1570816 -2.5282452e+38
4.7084303 -0.1957051 2.1570816 -2.501765e+38
4.7084098 -0.20431651 2.1570816 -2.4884732e+38
4.7083893 -0.21292792 2.1570816 -2.4885253e+38
4.6503735 -0.2195791 2.1453159 -2.4885253e+38
4.6503534 -0.22808003 2.1453159 -2.5018697e+38
4.6503334 -0.23658095 2.1453159 -2.4885774e+38
4.6503134 -0.24508189 2.1453159 -2.4885776e+38
4.6502929 -0.25358284 2.1453159 -2.5018699e+38
4.6502728 -0.26208377 2.1453159 -2.5284545e+38
4.6502528 -0.27058467 2.1453159 -2.5417467e+38
4.5932384 -0.2763992 2.1337531 -2.5682794e+38
4.6502128 -0.28758654 2.1453159 -2.5549871e+38
4.6501923 -0.29608744 2.1453159 -2.5417467e+38
4.6501722 -0.30458838 2.1453159 -2.5285064e+38
4.6501522 -0.31308931 2.1453159 -2.5284023e+38
4.6501322 -0.32159024 2.1453159 -2.5151099e+38
4.6501117 -0.33009118 2.1453159 -2.5151097e+38
4.6500916 -0.33859214 2.1453159 -2.501765e+38
4.6500716 -0.34709305 2.1453159 -2.5017653e+38
4.6500516 -0.35559398 2.1453159 -2.4885768e+38
4.6500316 -0.36409491 2.1453159 -2.4752847e+38
4.6500111 -0.37259582 2.1453159 -2.4753369e+38
4.649991 -0.38109678 2.1453159 -2.4753371e+38
4.649971 -0.38959771 2.1453159 -2.4886296e+38
4.649951 -0.39809862 2.1453159 -2.5019738e+38
4.6499305 -0.40659955 2.1453159 -2.5152658e+38
4.6499104 -0.41510049 2.1453159 -2.5285579e+38
4.6498904 -0.42360142 2.1453159 -2.5418498e+38
4.6498704 -0.43210235 2.1453159 -2.5551423e+38
4.6498504 -0.44060329 2.1453159 -2.5551425e+38
4.6498299 -0.44910419 2.1453159 -2.5418502e+38
4.6498098 -0.45760512 2.1453159 -2.5286618e+38
4.6497898 -0.46610606 2.1453159 -2.5154216e+38
4.707757 -0.47988147 2.1570816 -2.528766e+38
4.7077365 -0.48849291 2.1570816 -2.5421106e+38
4.7077165 -0.49710429 2.1570816 -2.555455e+38
4.707696 -0.50571573 2.1570816 -2.568799e+38
4.7076755 -0.51432705 2.1570816 -2.5687986e+38
4.707655 -0.52293849 2.1570816 -2.5687467e+38
4.7076344 -0.53154993 2.1570816 -2.5686948e+38
4.7076144 -0.54016131 2.1570816 -2.568695e+38
4.7075939 -0.54877269 2.1570816 -2.5819353e+38
4.7075734 -0.55738413 2.1570816 -2.608469e+38
4.7075529 -0.56599551 2.1570816 -2.661691e+38
4.7075329 -0.5746069 2.1570816 -2.7151192e+38
4.7075124 -0.58321834 2.1570816 -2.5144363e+38
4.7074919 -0.59182966 2.1570816 -2.326323e+38
4.7074714 -0.6004411 2.1570816 nan
4.7074513 -0.60905254 2.1570816 nan
4.6494474 -0.61062181 2.1453159 nan
4.8306947 -0.084161974 2.1729865 nan
4.8306737 -0.093005762 2.1729865 nan
4.8306527 -0.10184954 2.1729865 nan
4.7686329 -0.11013316 2.1605275 -2.9021984e+38
4.7686124 -0.11885884 2.1605275 -2.6468857e+38
4.7685919 -0.12758455 2.1605275 -2.3817171e+38
4.7085729 -0.13542527 2.1484704 -2.4886807e+38
4.7085524 -0.14403668 2.1484704 -2.5816222e+38
4.7085319 -0.15264808 2.1484704 -2.5549853e+38
4.7085118 -0.16125947 2.1484704 -2.5282969e+38
4.7084913 -0.16987088 2.1484704 -2.5548297e+38
4.6504741 -0.17707446 2.1368151 -2.5680181e+38
4.650454 -0.18557538 2.1368151 -2.5281413e+38
4.650434 -0.19407631 2.1368151 -2.4750245e+38
4.650414 -0.20257725 2.1368151 -2.4750766e+38
4.650394 -0.21107817 2.1368151 -2.4751807e+38
4.6503735 -0.2195791 2.1368151 -2.4751807e+38
4.6503534 -0.22808003 2.1368151 -2.4752328e+38
4.6503334 -0.23658095 2.1368151 -2.4884736e+38
4.6503134 -0.24508189 2.1368151 -2.501818e+38
4.6502929 -0.25358284 2.1368151 -2.5151105e+38
4.6502728 -0.26208377 2.1368151 -2.5284027e+38
4.6502528 -0.27058467 2.1368151 -2.5549354e+38
4.6502328 -0.27908558 2.1368151 -2.5682277e+38
4.6502128 -0.28758654 2.1368151 -2.5549354e+38
4.6501923 -0.29608744 2.1368151 -2.5284025e+38
4.6501722 -0.30458838 2.1368151 -2.5284023e+38
4.6501522 -0.31308931 2.1368151 -2.5151099e+38
4.6501322 -0.32159024 2.1368151 -2.515006e+38
4.5931191 -0.32675332 2.1253607 -2.5150058e+38
4.6500916 -0.33859214 2.1368151 -2.5017133e+38
4.6500716 -0.34709305 2.1368151 -2.4884728e+38
4.6500516 -0.35559398 2.1368151 -2.4885247e+38
4.6500316 -0.36409491 2.1368151 -2.4752326e+38
4.6500111 -0.37259582 2.1368151 -2.4752328e+38
4.649991 -0.38109678 2.1368151 -2.4752849e+38
4.649971 -0.38959771 2.1368151 -2.4886293e+38
4.649951 -0.39809862 2.1368151 -2.5019214e+38
4.6499305 -0.40659955 2.1368151 -2.5284019e+38
4.6499104 -0.41510049 2.1368151 -2.5417461e+38
4.6498904 -0.42360142 2.1368151 -2.5550382e+38
4.6498704 -0.43210235 2.1368151 -2.5683307e+38
4.6498504 -0.44060329 2.1368151 -2.568279e+38
4.6498299 -0.44910419 2.1368151 -2.5551425e+38
4.6498098 -0.45760512 2.1368151 -2.5551946e+38
4.7077775 -0.47127005 2.1484704 -2.5419544e+38
4.707757 -0.47988147 2.1484704 -2.5685909e+38
4.7077365 -0.48849291 2.1484704 -2.5819353e+38
4.7077165 -0.49710429 2.1484704 -2.5952278e+38
4.707696 -0.50571573 2.1484704 -2.5953315e+38
4.7076755 -0.51432705 2.1484704 -2.5820909e+38
4.707655 -0.52293849 2.1484704 -2.555454e+38
4.7076344 -0.53154993 2.1484704 -2.5554019e+38
4.7076144 -0.54016131 2.1484704 -2.555298e+38
4.7075939 -0.54877269 2.1484704 -2.5685903e+38
4.7075734 -0.55738413 2.1484704 -2.5818315e+38
4.7075529 -0.56599551 2.1484704 -2.6616381e+38
4.7075329 -0.5746069 2.1484704 -2.7411307e+38
4.7075124 -0.58321834 2.1484704 -2.5539989e+38
4.7074919 -0.59182966 2.1484704 -2.3556595e+38
4.7074714 -0.6004411 2.1484704 nan
4.7074513 -0.60905254 2.1484704 nan
4.7074308 -0.61766398 2.1484704 nan
4.8306947 -0.084161974 2.1641426 nan
4.8306737 -0.093005762 2.1641426 nan
4.7686539 -0.10140747 2.1518016 nan
4.7086339 -0.10959105 2.1398587 -2.3418973e+38
4.7686124 -0.11885884 2.1518016 -2.4216447e+38
4.7685919 -0.12758455 2.1518016 -2.5151596e+38
4.7085729 -0.13542527 2.1398587 -2.5418496e+38
4.7085524 -0.14403668 2.1398587 -2.5816739e+38
4.7085319 -0.15264808 2.1398587 -2.5549847e+38
4.7085118 -0.16125947 2.1398587 -2.5415368e+38
4.7084913 -0.16987088 2.1398587 -2.5547255e+38
4.6504741 -0.17707446 2.128314 -2.5545699e+38
4.650454 -0.18557538 2.128314 -2.5147971e+38
4.650434 -0.19407631 2.128314 -2.4749205e+38
4.650414 -0.20257725 2.128314 -2.461732e+38
4.650394 -0.21107817 2.128314 -2.4485957e+38
4.6503735 -0.2195791 2.128314 -2.4485957e+38
4.6503534 -0.22808003 2.128314 -2.4486481e+38
4.6503334 -0.23658095 2.128314 -2.4619407e+38
4.6503134 -0.24508189 2.128314 -2.4752334e+38
4.6502929 -0.25358284 2.128314 -2.5018182e+38
4.6502728 -0.26208377 2.128314 -2.528403e+38
4.6502528 -0.27058467 2.128314 -2.5416433e+38
4.6502328 -0.27908558 2.128314 -2.5549356e+38
4.6502128 -0.28758654 2.128314 -2.5416431e+38
4.6501923 -0.29608744 2.128314 -2.5283506e+38
4.6501722 -0.30458838 2.128314 -2.5151099e+38
4.6501522 -0.31308931 2.128314 -2.5151099e+38
4.6501322 -0.32159024 2.128314 -2.5150058e+38
4.5931191 -0.32675332 2.1169684 -2.5282462e+38
4.5930996 -0.33514571 2.1169684 -2.5149537e+38
4.5930796 -0.34353805 2.1169684 -2.5016612e+38
4.6500516 -0.35559398 2.128314 -2.4884724e+38
4.6500316 -0.36409491 2.128314 -2.4885245e+38
4.6500111 -0.37259582 2.128314 -2.4752324e+38
4.649991 -0.38109678 2.128314 -2.4619405e+38
4.649971 -0.38959771 2.128314 -2.4752849e+38
4.649951 -0.39809862 2.128314 -2.488577e+38
4.6499305 -0.40659955 2.128314 -2.5151093e+38
4.6499104 -0.41510049 2.128314 -2.5416421e+38
4.6498904 -0.42360142 2.128314 -2.541694e+38
4.6498704 -0.43210235 2.128314 -2.5416423e+38
4.6498504 -0.44060329 2.128314 -2.5417461e+38
4.707818 -0.45404726 2.1398587 -2.5418504e+38
4.6498098 -0.45760512 2.128314 -2.5419025e+38
4.7077775 -0.47127005 2.1398587 -2.5419025e+38
4.707757 -0.47988147 2.1398587 -2.568539e+38
4.7077365 -0.48849291 2.1398587 -2.5951755e+38
4.7077165 -0.49710429 2.1398587 -2.5952274e+38
4.707696 -0.50571573 2.1398587 -2.6085716e+38
4.7076755 -0.51432705 2.1398587 -2.5952791e+38
4.707655 -0.52293849 2.1398587 -2.5952787e+38
4.7076344 -0.53154993 2.1398587 -2.5951743e+38
4.7076144 -0.54016131 2.1398587 -2.5950185e+38
4.7075939 -0.54877269 2.1398587 -2.5950183e+38
4.7075734 -0.55738413 2.1398587 -2.5950191e+38
4.7075529 -0.56599551 2.1398587 -2.6748253e+38
4.7075329 -0.5746069 2.1398587 -2.767869e+38
4.7075124 -0.58321834 2.1398587 -2.5941845e+38
4.7074919 -0.59182966 2.1398587 -2.4208745e+38
4.7074714 -0.6004411 2.1398587 nan
4.7074513 -0.60905254 2.1398587 nan
4.7074308 -0.61766398 2.1398587 nan
4.8306947 -0.084161974 2.1552987 nan
4.8306737 -0.093005762 2.1552987 nan
4.8306527 -0.10184954 2.1552987 -3.3930279e+38
4.7086339 -0.10959105 2.1312475 -1.7700161e+38
4.7686124 -0.11885884 2.1430759 -2.2091769e+38
4.7685919 -0.12758455 2.1430759 -2.6348422e+38
4.7085729 -0.13542527 2.1312475 -2.6084142e+38
4.7085524 -0.14403668 2.1312475 -2.568381e+38
4.7085319 -0.15264808 2.1312475 -2.5682246e+38
4.7085118 -0.16125947 2.1312475 -2.5548285e+38
4.7084913 -0.16987088 2.1312475 -2.5546729e+38
4.6504741 -0.17707446 2.119813 -2.5413811e+38
4.650454 -0.18557538 2.119813 -2.5148486e+38
4.650434 -0.19407631 2.119813 -2.4749199e+38
4.650414 -0.20257725 2.119813 -2.4483872e+38
4.650394 -0.21107817 2.119813 -2.4219586e+38
4.6503735 -0.2195791 2.119813 -2.4220108e+38
4.6503534 -0.22808003 2.119813 -2.4087708e+38
4.6503334 -0.23658095 2.119813 -2.4353039e+38
4.6503134 -0.24508189 2.119813 -2.4486485e+38
4.6502929 -0.25358284 2.119813 -2.4884738e+38
4.5932784 -0.25961447 2.1085761 -2.5284025e+38
4.6502528 -0.27058467 2.119813 -2.5283508e+38
4.6502328 -0.27908558 2.119813 -2.5284025e+38
4.6502128 -0.28758654 2.119813 -2.5284025e+38
4.6501923 -0.29608744 2.119813 -2.5283504e+38
4.6501722 -0.30458838 2.119813 -2.5150579e+38
4.6501522 -0.31308931 2.119813 -2.5017135e+38
4.6501322 -0.32159024 2.119813 -2.514902e+38
4.6501117 -0.33009118 2.119813 -2.5282458e+38
4.5930996 -0.33514571 2.1085761 -2.5281936e+38
4.5930796 -0.34353805 2.1085761 -2.515005e+38
4.6500516 -0.35559398 2.119813 -2.5018166e+38
4.6500316 -0.36409491 2.119813 -2.4884724e+38
4.6500111 -0.37259582 2.119813 -2.461888e+38
4.649991 -0.38109678 2.119813 -2.4353556e+38
4.649971 -0.38959771 2.119813 -2.4619923e+38
4.649951 -0.39809862 2.119813 -2.4752843e+38
4.6499305 -0.40659955 2.119813 -2.501765e+38
4.6499104 -0.41510049 2.119813 -2.5284017e+38
4.6498904 -0.42360142 2.119813 -2.5284017e+38
4.6498704 -0.43210235 2.119813 -2.5151616e+38
4.7078385 -0.44543588 2.1312475 -2.5151618e+38
4.707818 -0.45404726 2.1312475 -2.5152139e+38
4.707798 -0.46265867 2.1312475 -2.5285585e+38
4.7077775 -0.47127005 2.1312475 -2.5419027e+38
4.707757 -0.47988147 2.1312475 -2.5684873e+38
4.7077365 -0.48849291 2.1312475 -2.5951238e+38
4.7077165 -0.49710429 2.1312475 -2.608416e+38
4.707696 -0.50571573 2.1312475 -2.6084678e+38
4.7076755 -0.51432705 2.1312475 -2.62176e+38
4.707655 -0.52293849 2.1312475 -2.6350519e+38
4.7076344 -0.53154993 2.1312475 -2.6349996e+38
4.7076144 -0.54016131 2.1312475 -2.6348957e+38
4.7075939 -0.54877269 2.1312475 -2.6214475e+38
4.7675586 -0.56386906 2.1430759 -2.6082077e+38
4.7075529 -0.56599551 2.1312475 -2.7012545e+38
4.7075329 -0.5746069 2.1312475 -2.7809021e+38
4.7075124 -0.58321834 2.1312475 -2.6340098e+38
4.7674756 -0.59877193 2.1430759 -2.4887379e+38
4.7674551 -0.60749757 2.1430759 nan
4.7074513 -0.60905254 2.1312475 nan
4.8307157 -0.075318187 2.146455 nan
4.8306947 -0.084161974 2.146455 nan
4.8306737 -0.093005762 2.146455 nan
4.7686539 -0.10140747 2.1343503 -3.3272889e+38
4.7086339 -0.10959105 2.1226358 -1.741301e+38
4.7086139 -0.11820246 2.1226358 -2.182126e+38
4.7685919 -0.12758455 2.1343503 -2.6218097e+38
4.7085729 -0.13542527 2.1226358 -2.581829e+38
4.7085524 -0.14403668 2.1226358 -2.5417439e+38
4.7085319 -0.15264808 2.1226358 -2.5416395e+38
4.7085118 -0.16125947 2.1226358 -2.5282435e+38
4.7084913 -0.16987088 2.1226358 -2.5280878e+38
4.6504741 -0.17707446 2.1113122 -2.514744e+38
4.650454 -0.18557538 2.1113122 -2.501504e+38
4.650434 -0.19407631 2.1113122 -2.4881596e+38
4.650414 -0.20257725 2.1113122 -2.4616787e+38
4.650394 -0.21107817 2.1113122 -2.4351984e+38
4.6503735 -0.2195791 2.1113122 -2.4353026e+38
4.6503534 -0.22808003 2.1113122 -2.435355e+38
4.6503334 -0.23658095 2.1113122 -2.4486476e+38
4.6503134 -0.24508189 2.1113122 -2.4619923e+38
4.6502929 -0.25358284 2.1113122 -2.4885253e+38
4.6502728 -0.26208377 2.1113122 -2.515162e+38
4.6502528 -0.27058467 2.1113122 -2.5151101e+38
4.6502328 -0.27908558 2.1113122 -2.5284023e+38
4.6502128 -0.28758654 2.1113122 -2.5150579e+38
4.6501923 -0.29608744 2.1113122 -2.515006e+38
4.6501722 -0.30458838 2.1113122 -2.5017137e+38
4.6501522 -0.31308931 2.1113122 -2.4883693e+38
4.6501322 -0.32159024 2.1113122 -2.5017133e+38
4.5931191 -0.32675332 2.1001835 -2.5017648e+38
4.5930996 -0.33514571 2.1001835 -2.5150048e+38
4.5930796 -0.34353805 2.1001835 -2.5150567e+38
4.6500516 -0.35559398 2.1113122 -2.5017644e+38
4.6500316 -0.36409491 2.1113122 -2.4884202e+38
4.6500111 -0.37259582 2.1113122 -2.4751799e+38
4.649991 -0.38109678 2.1113122 -2.4618878e+38
4.649971 -0.38959771 2.1113122 -2.4619397e+38
4.649951 -0.39809862 2.1113122 -2.4752841e+38
4.6499305 -0.40659955 2.1113122 -2.4885247e+38
4.6499104 -0.41510049 2.1113122 -2.5018172e+38
4.6498904 -0.42360142 2.1113122 -2.5018691e+38
4.6498704 -0.43210235 2.1113122 -2.5019733e+38
4.7078385 -0.44543588 2.1226358 -2.515162e+38
4.707818 -0.45404726 2.1226358 -2.5151103e+38
4.707798 -0.46265867 2.1226358 -2.5285066e+38
4.7077775 -0.47127005 2.1226358 -2.541851e+38
4.707757 -0.47988147 2.1226358 -2.5684875e+38
4.7077365 -0.48849291 2.1226358 -2.5818317e+38
4.7077165 -0.49710429 2.1226358 -2.5951757e+38
4.707696 -0.50571573 2.1226358 -2.5951757e+38
4.7076755 -0.51432705 2.1226358 -2.6084678e+38
4.707655 -0.52293849 2.1226358 -2.6350002e+38
4.7076344 -0.53154993 2.1226358 -2.6216558e+38
4.7076144 -0.54016131 2.1226358 -2.6215519e+38
4.7075939 -0.54877269 2.1226358 -2.6082075e+38
4.7675586 -0.56386906 2.1343503 -2.6082081e+38
4.7075529 -0.56599551 2.1226358 -2.6614298e+38
4.7675171 -0.58132041 2.1343503 -2.7279409e+38
4.7674966 -0.59004617 2.1343503 -2.5408083e+38
4.8294587 -0.60594523 2.146455 -2.366667e+38
4.8294377 -0.61478913 2.146455 nan
4.8294172 -0.62363291 2.146455 nan
4.8307157 -0.075318187 2.1376112 nan
4.8306947 -0.084161974 2.1376112 nan
4.8306737 -0.093005762 2.1376112 nan
4.8306527 -0.10184954 2.1376112 -3.2586965e+38
4.7686329 -0.11013316 2.1256247 -1.7027217e+38
4.7686124 -0.11885884 2.1256247 -2.1562696e+38
4.7685919 -0.12758455 2.1256247 -2.5951223e+38
4.7085729 -0.13542527 2.1140246 -2.5552972e+38
4.7085524 -0.14403668 2.1140246 -2.5151602e+38
4.7085319 -0.15264808 2.1140246 -2.5149517e+38
4.7085118 -0.16125947 2.1140246 -2.5016073e+38
4.7084913 -0.16987088 2.1140246 -2.5014513e+38
4.6504741 -0.17707446 2.1028113 -2.4882109e+38
4.7084503 -0.1870937 2.1140246 -2.4882111e+38
4.650434 -0.19407631 2.1028113 -2.4882111e+38
4.650414 -0.20257725 2.1028113 -2.4617304e+38
4.650394 -0.21107817 2.1028113 -2.4351982e+38
4.6503735 -0.2195791 2.1028113 -2.4485947e+38
4.6503534 -0.22808003 2.1028113 -2.4485951e+38
4.6503334 -0.23658095 2.1028113 -2.4618878e+38
4.6503134 -0.24508189 2.1028113 -2.4752322e+38
4.6502929 -0.25358284 2.1028113 -2.4885249e+38
4.6502728 -0.26208377 2.1028113 -2.5018172e+38
4.6502528 -0.27058467 2.1028113 -2.5150577e+38
4.6502328 -0.27908558 2.1028113 -2.5151095e+38
4.6502128 -0.28758654 2.1028113 -2.5150575e+38
4.6501923 -0.29608744 2.1028113 -2.5017135e+38
4.6501722 -0.30458838 2.1028113 -2.4884215e+38
4.6501522 -0.31308931 2.1028113 -2.4751288e+38
4.6501322 -0.32159024 2.1028113 -2.4751286e+38
4.5931191 -0.32675332 2.0917912 -2.4751801e+38
4.5930996 -0.33514571 2.0917912 -2.5017642e+38
4.5930796 -0.34353805 2.0917912 -2.5150565e+38
4.6500516 -0.35559398 2.1028113 -2.5017123e+38
4.6500316 -0.36409491 2.1028113 -2.488472e+38
4.6500111 -0.37259582 2.1028113 -2.4884722e+38
4.649991 -0.38109678 2.1028113 -2.4751799e+38
4.649971 -0.38959771 2.1028113 -2.4751801e+38
4.649951 -0.39809862 2.1028113 -2.4619397e+38
4.6499305 -0.40659955 2.1028113 -2.4751803e+38
4.6499104 -0.41510049 2.1028113 -2.4752322e+38
4.6498904 -0.42360142 2.1028113 -2.4885247e+38
4.6498704 -0.43210235 2.1028113 -2.4885768e+38
4.7078385 -0.44543588 2.1140246 -2.5018695e+38
4.707818 -0.45404726 2.1140246 -2.515162e+38
4.707798 -0.46265867 2.1140246 -2.5284547e+38
4.7077775 -0.47127005 2.1140246 -2.5418508e+38
4.707757 -0.47988147 2.1140246 -2.5551433e+38
4.7077365 -0.48849291 2.1140246 -2.5685392e+38
4.7077165 -0.49710429 2.1140246 -2.5818834e+38
4.707696 -0.50571573 2.1140246 -2.5818832e+38
4.7076755 -0.51432705 2.1140246 -2.6084678e+38
4.707655 -0.52293849 2.1140246 -2.6217079e+38
4.7076344 -0.53154993 2.1140246 -2.6083637e+38
4.7076144 -0.54016131 2.1140246 -2.5949676e+38
4.7675791 -0.55514336 2.1256247 -2.5948118e+38
4.7675586 -0.56386906 2.1256247 -2.5949161e+38
4.7675376 -0.57259476 2.1256247 -2.6348452e+38
4.7675171 -0.58132041 2.1256247 -2.6612722e+38
4.7674966 -0.59004617 2.1256247 -2.4612631e+38
4.8294587 -0.60594523 2.1376112 -2.2493726e+38
4.8294377 -0.61478913 2.1376112 nan
4.8307157 -0.075318187 2.1287675 nan
4.8936944 -0.084371179 2.1408274 nan
4.8306737 -0.093005762 2.1287675 nan
4.8306527 -0.10184954 2.1287675 -3.1136732e+38
4.7686329 -0.11013316 2.1168988 -1.9142552e+38
4.7686124 -0.11885884 2.1168988 -2.2620898e+38
4.7685919 -0.12758455 2.1168988 -2.6085195e+38
4.7685709 -0.13631022 2.1168988 -2.5551942e+38
4.7085524 -0.14403668 2.1054132 -2.5018166e+38
4.7085319 -0.15264808 2.1054132 -2.50166e+38
4.7085118 -0.16125947 2.1054132 -2.514848e+38
4.7084913 -0.16987088 2.1054132 -2.5015551e+38
4.7084708 -0.17848229 2.1054132 -2.501503e+38
4.7084503 -0.1870937 2.1054132 -2.4882103e+38
4.650434 -0.19407631 2.0943103 -2.4882107e+38
4.7084098 -0.20431651 2.1054132 -2.4750744e+38
4.7083893 -0.21292792 2.1054132 -2.4484903e+38
4.6503735 -0.2195791 2.0943103 -2.4485424e+38
4.6503534 -0.22808003 2.0943103 -2.4617833e+38
4.6503334 -0.23658095 2.0943103 -2.475128e+38
4.6503134 -0.24508189 2.0943103 -2.4884724e+38
4.6502929 -0.25358284 2.0943103 -2.5018166e+38
4.6502728 -0.26208377 2.0943103 -2.515109e+38
4.6502528 -0.27058467 2.0943103 -2.515109e+38
4.6502328 -0.27908558 2.0943103 -2.515109e+38
4.6502128 -0.28758654 2.0943103 -2.5150052e+38
4.6501923 -0.29608744 2.0943103 -2.528246e+38
4.6501722 -0.30458838 2.0943103 -2.5017135e+38
4.6501522 -0.31308931 2.0943103 -2.4751805e+38
4.6501322 -0.32159024 2.0943103 -2.4751801e+38
4.6501117 -0.33009118 2.0943103 -2.4884722e+38
4.5930996 -0.33514571 2.0833988 -2.4884718e+38
4.5930796 -0.34353805 2.0833988 -2.501764e+38
4.6500516 -0.35559398 2.0943103 -2.4884716e+38
4.59304 -0.36032277 2.0833988 -2.4884718e+38
4.6500111 -0.37259582 2.0943103 -2.48842e+38
4.5929999 -0.3771075 2.0833988 -2.4883683e+38
4.649971 -0.38959771 2.0943103 -2.475128e+38
4.649951 -0.39809862 2.0943103 -2.4618878e+38
4.6499305 -0.40659955 2.0943103 -2.4486474e+38
4.6499104 -0.41510049 2.0943103 -2.4486994e+38
4.6498904 -0.42360142 2.0943103 -2.4486994e+38
4.6498704 -0.43210235 2.0943103 -2.4619401e+38
4.6498504 -0.44060329 2.0943103 -2.4752847e+38
4.707818 -0.45404726 2.1054132 -2.5019216e+38
4.707798 -0.46265867 2.1054132 -2.5019218e+38
4.7077775 -0.47127005 2.1054132 -2.5153182e+38
4.707757 -0.47988147 2.1054132 -2.5419029e+38
4.7077365 -0.48849291 2.1054132 -2.5552469e+38
4.7077165 -0.49710429 2.1054132 -2.5686428e+38
4.707696 -0.50571573 2.1054132 -2.5819351e+38
4.7076755 -0.51432705 2.1054132 -2.581883e+38
4.707655 -0.52293849 2.1054132 -2.5950714e+38
4.7076344 -0.53154993 2.1054132 -2.5817792e+38
4.7076144 -0.54016131 2.1054132 -2.5683832e+38
4.7075939 -0.54877269 2.1054132 -2.5815717e+38
4.7675586 -0.56386906 2.1168988 -2.6082605e+38
4.7675376 -0.57259476 2.1168988 -2.6481375e+38
4.7675171 -0.58132041 2.1168988 -2.6881168e+38
4.8294797 -0.59710157 2.1287675 -2.4346272e+38
4.8294587 -0.60594523 2.1287675 -2.1812492e+38
4.8924203 -0.62219834 2.1408274 nan
4.9587588 -0.057324249 2.1441827 nan
4.8307157 -0.075318187 2.1199236 nan
4.8936944 -0.084371179 2.1318636 nan
4.8936729 -0.093334973 2.1318636 nan
4.8306527 -0.10184954 2.1199236 -2.9779946e+38
4.7686329 -0.11013316 2.1081731 -2.1149874e+38
4.7686124 -0.11885884 2.1081731 -2.3693623e+38
4.7685919 -0.12758455 2.1081731 -2.6084672e+38
4.7685709 -0.13631022 2.1081731 -2.5551421e+38
4.7685504 -0.14503592 2.1081731 -2.4885241e+38
4.7085319 -0.15264808 2.0968018 -2.5016598e+38
4.7085118 -0.16125947 2.0968018 -2.5150036e+38
4.7084913 -0.16987088 2.0968018 -2.5149513e+38
4.7084708 -0.17848229 2.0968018 -2.5015551e+38
4.7084503 -0.1870937 2.0968018 -2.5015034e+38
4.7084303 -0.1957051 2.0968018 -2.4883154e+38
4.7084098 -0.20431651 2.0968018 -2.4751793e+38
4.7083893 -0.21292792 2.0968018 -2.4618351e+38
4.6503735 -0.2195791 2.0858092 -2.4617831e+38
4.6503534 -0.22808003 2.0858092 -2.4617833e+38
4.6503334 -0.23658095 2.0858092 -2.4751278e+38
4.6503134 -0.24508189 2.0858092 -2.4884722e+38
4.6502929 -0.25358284 2.0858092 -2.5018164e+38
4.6502728 -0.26208377 2.0858092 -2.5151088e+38
4.6502528 -0.27058467 2.0858092 -2.5150573e+38
4.6502328 -0.27908558 2.0858092 -2.5150573e+38
4.6502128 -0.28758654 2.0858092 -2.5282458e+38
4.6501923 -0.29608744 2.0858092 -2.54159e+38
4.6501722 -0.30458838 2.0858092 -2.5150056e+38
4.6501522 -0.31308931 2.0858092 -2.4751286e+38
4.6501322 -0.32159024 2.0858092 -2.4884726e+38
4.6501117 -0.33009118 2.0858092 -2.4885243e+38
4.6500916 -0.33859214 2.0858092 -2.488472e+38
4.6500716 -0.34709305 2.0858092 -2.4751795e+38
4.6500516 -0.35559398 2.0858092 -2.4884718e+38
4.6500316 -0.36409491 2.0858092 -2.4884198e+38
4.6500111 -0.37259582 2.0858092 -2.5016604e+38
4.649991 -0.38109678 2.0858092 -2.5016606e+38
4.649971 -0.38959771 2.0858092 -2.4884202e+38
4.649951 -0.39809862 2.0858092 -2.4618876e+38
4.6499305 -0.40659955 2.0858092 -2.435303e+38
4.6499104 -0.41510049 2.0858092 -2.4088221e+38
4.6498904 -0.42360142 2.0858092 -2.4222182e+38
4.6498704 -0.43210235 2.0858092 -2.4354071e+38
4.6498504 -0.44060329 2.0858092 -2.4619401e+38
4.707818 -0.45404726 2.0968018 -2.4752847e+38
4.707798 -0.46265867 2.0968018 -2.4885774e+38
4.7077775 -0.47127005 2.0968018 -2.4886817e+38
4.707757 -0.47988147 2.0968018 -2.5152666e+38
4.7077365 -0.48849291 2.0968018 -2.5420066e+38
4.7077165 -0.49710429 2.0968018 -2.5554025e+38
4.707696 -0.50571573 2.0968018 -2.5686428e+38
4.7076755 -0.51432705 2.0968018 -2.5686426e+38
4.707655 -0.52293849 2.0968018 -2.5552465e+38
4.7076344 -0.53154993 2.0968018 -2.5551946e+38
4.7076144 -0.54016131 2.0968018 -2.5417465e+38
4.7075939 -0.54877269 2.0968018 -2.5814678e+38
4.7675586 -0.56386906 2.1081731 -2.6082088e+38
4.8295217 -0.57941401 2.1199236 -2.6613264e+38
4.8295007 -0.58825767 2.1199236 -2.701046e+38
4.8924627 -0.6042707 2.1318636 -2.4078875e+38
4.8924417 -0.61323452 2.1318636 -2.116866e+38
4.8937578 -0.057479829 2.1228998 nan
4.8937368 -0.066443615 2.1228998 nan
4.8307157 -0.075318187 2.1110797 nan
4.8936944 -0.084371179 2.1228998 nan
4.8936729 -0.093334973 2.1228998 nan
4.893652 -0.10229875 2.1228998 -3.0597175e+38
4.7686329 -0.11013316 2.0994473 -2.1819139e+38
4.7686124 -0.11885884 2.0994473 -2.3954791e+38
4.7685919 -0.12758455 2.0994473 -2.6083631e+38
4.7685709 -0.13631022 2.0994473 -2.5550378e+38
4.7685504 -0.14503592 2.0994473 -2.5017123e+38
4.7085319 -0.15264808 2.0881903 -2.4884711e+38
4.7085118 -0.16125947 2.0881903 -2.4885746e+38
4.7084913 -0.16987088 2.0881903 -2.4883665e+38
4.7084708 -0.17848229 2.0881903 -2.4883152e+38
4.7084503 -0.1870937 2.0881903 -2.4749714e+38
4.7084303 -0.1957051 2.0881903 -2.4751278e+38
4.7084098 -0.20431651 2.0881903 -2.4617842e+38
4.7083893 -0.21292792 2.0881903 -2.4484915e+38
4.7083688 -0.22153932 2.0881903 -2.4484911e+38
4.7083483 -0.23015073 2.0881903 -2.4351988e+38
4.7083282 -0.23876214 2.0881903 -2.448543e+38
4.6503134 -0.24508189 2.0773084 -2.4618874e+38
4.6502929 -0.25358284 2.0773084 -2.4618874e+38
4.6502728 -0.26208377 2.0773084 -2.4618878e+38
4.6502528 -0.27058467 2.0773084 -2.4751286e+38
4.6502328 -0.27908558 2.0773084 -2.4884208e+38
4.6502128 -0.28758654 2.0773084 -2.4884208e+38
4.6501923 -0.29608744 2.0773084 -2.5017131e+38
4.6501722 -0.30458838 2.0773084 -2.4883689e+38
4.6501522 -0.31308931 2.0773084 -2.4617844e+38
4.6501322 -0.32159024 2.0773084 -2.4618882e+38
4.6501117 -0.33009118 2.0773084 -2.4486996e+38
4.5930996 -0.33514571 2.0666142 -2.4486472e+38
4.5930796 -0.34353805 2.0666142 -2.4619393e+38
4.6500516 -0.35559398 2.0773084 -2.4751276e+38
4.6500316 -0.36409491 2.0773084 -2.5016604e+38
4.6500111 -0.37259582 2.0773084 -2.4883681e+38
4.649991 -0.38109678 2.0773084 -2.4883683e+38
4.649971 -0.38959771 2.0773084 -2.475128e+38
4.649951 -0.39809862 2.0773084 -2.4618876e+38
4.6499305 -0.40659955 2.0773084 -2.448647e+38
4.6499104 -0.41510049 2.0773084 -2.4221142e+38
4.6498904 -0.42360142 2.0773084 -2.435458e+38
4.6498704 -0.43210235 2.0773084 -2.4354586e+38
4.6498504 -0.44060329 2.0773084 -2.4619916e+38
4.707818 -0.45404726 2.0881903 -2.4753365e+38
4.707798 -0.46265867 2.0881903 -2.4885772e+38
4.7077775 -0.47127005 2.0881903 -2.501922e+38
4.707757 -0.47988147 2.0881903 -2.5286628e+38
4.7077365 -0.48849291 2.0881903 -2.5686952e+38
4.7077165 -0.49710429 2.0881903 -2.5819351e+38
4.707696 -0.50571573 2.0881903 -2.5952274e+38
4.7076755 -0.51432705 2.0881903 -2.581883e+38
4.707655 -0.52293849 2.0881903 -2.5817272e+38
4.7076344 -0.53154993 2.0881903 -2.5551425e+38
4.7076144 -0.54016131 2.0881903 -2.5417465e+38
4.7675791 -0.55514336 2.0994473 -2.5816236e+38
4.7675586 -0.56386906 2.0994473 -2.6083128e+38
4.8295217 -0.57941401 2.1110797 -2.6747229e+38
4.8924842 -0.59530687 2.1228998 -2.7411829e+38
4.8294797 -0.59710157 2.1110797 -2.4747647e+38
4.8924417 -0.61323452 2.1228998 -2.208667e+38
4.8937578 -0.057479829 2.1139359 nan
4.8937368 -0.066443615 2.1139359 nan
4.8307157 -0.075318187 2.102236 nan
4.8936944 -0.084371179 2.1139359 nan
4.8936729 -0.093334973 2.1139359 nan
4.893652 -0.10229875 2.1139359 -3.1376545e+38
4.8306317 -0.11069333 2.102236 -2.235083e+38
4.8306108 -0.11953712 2.102236 -2.4223227e+38
4.8305898 -0.12838089 2.102236 -2.5949664e+38
4.8305688 -0.13722469 2.102236 -2.5548816e+38
4.7685504 -0.14503592 2.0907216 -2.5017121e+38
4.7685299 -0.15376161 2.0907216 -2.4884192e+38
4.7685089 -0.1624873 2.0907216 -2.4617823e+38
4.7084913 -0.16987088 2.0795789 -2.4749186e+38
4.7084708 -0.17848229 2.0795789 -2.4749708e+38
4.7084503 -0.1870937 2.0795789 -2.461575e+38
4.7084303 -0.1957051 2.0795789 -2.4483872e+38
4.7084098 -0.20431651 2.0795789 -2.4483361e+38
4.7083893 -0.21292792 2.0795789 -2.4350953e+38
4.7083688 -0.22153932 2.0795789 -2.4218027e+38
4.7083483 -0.23015073 2.0795789 -2.4086142e+38
4.7083282 -0.23876214 2.0795789 -2.4219584e+38
4.7083077 -0.24737354 2.0795789 -2.4219586e+38
4.7082872 -0.25598496 2.0795789 -2.4220106e+38
4.6502728 -0.26208377 2.0688074 -2.4086668e+38
4.6502528 -0.27058467 2.0688074 -2.4351998e+38
4.6502328 -0.27908558 2.0688074 -2.448544e+38
4.6502128 -0.28758654 2.0688074 -2.4617846e+38
4.6501923 -0.29608744 2.0688074 -2.4617844e+38
4.6501722 -0.30458838 2.0688074 -2.4616805e+38
4.6501522 -0.31308931 2.0688074 -2.448544e+38
4.5931392 -0.31836098 2.0582218 -2.4353036e+38
4.5931191 -0.32675332 2.0582218 -2.4087708e+38
4.5930996 -0.33514571 2.0582218 -2.4220629e+38
4.5930796 -0.34353805 2.0582218 -2.435303e+38
4.5930595 -0.35193041 2.0582218 -2.475076e+38
4.59304 -0.36032277 2.0582218 -2.5016606e+38
4.6500111 -0.37259582 2.0688074 -2.4883683e+38
4.649991 -0.38109678 2.0688074 -2.475128e+38
4.649971 -0.38959771 2.0688074 -2.4751799e+38
4.649951 -0.39809862 2.0688074 -2.4618874e+38
4.6499305 -0.40659955 2.0688074 -2.448647e+38
4.6499104 -0.41510049 2.0688074 -2.4353546e+38
4.6498904 -0.42360142 2.0688074 -2.4353544e+38
4.6498704 -0.43210235 2.0688074 -2.4353548e+38
4.7078385 -0.44543588 2.0795789 -2.4619397e+38
4.707818 -0.45404726 2.0795789 -2.4751805e+38
4.707798 -0.46265867 2.0795789 -2.5016616e+38
4.7077775 -0.47127005 2.0795789 -2.5152139e+38
4.707757 -0.47988147 2.0795789 -2.555299e+38
4.7077365 -0.48849291 2.0795789 -2.5818315e+38
4.7077165 -0.49710429 2.0795789 -2.5951238e+38
4.707696 -0.50571573 2.0795789 -2.6084158e+38
4.7076755 -0.51432705 2.0795789 -2.6084678e+38
4.707655 -0.52293849 2.0795789 -2.5951232e+38
4.7076344 -0.53154993 2.0795789 -2.5685384e+38
4.7675996 -0.54641771 2.0907216 -2.54185e+38
4.7675791 -0.55514336 2.0907216 -2.5817268e+38
4.8295426 -0.57057023 2.102236 -2.6083124e+38
4.8925056 -0.58634305 2.1139359 -2.6879632e+38
4.8924842 -0.59530687 2.1139359 -2.7677676e+38
4.8924627 -0.6042707 2.1139359 -2.5280902e+38
4.8924417 -0.61323452 2.1139359 -2.2896672e+38
4.8307576 -0.057630617 2.0933921 nan
4.8307366 -0.0664744 2.0933921 nan
4.8307157 -0.075318187 2.0933921 nan
4.8306947 -0.084161974 2.0933921 nan
4.8936729 -0.093334973 2.1049721 -2.9440481e+38
4.893652 -0.10229875 2.1049721 -2.7009827e+38
4.8306317 -0.11069333 2.0933921 -2.4744477e+38
4.8306108 -0.11953712 2.0933921 -2.5282967e+38
4.8305898 -0.12838089 2.0933921 -2.5948619e+38
4.8305688 -0.13722469 2.0933921 -2.5548812e+38
4.7685504 -0.14503592 2.081996 -2.5149523e+38
4.7685299 -0.15376161 2.081996 -2.4883673e+38
4.7685089 -0.1624873 2.081996 -2.4616787e+38
4.7084913 -0.16987088 2.0709674 -2.448386e+38
4.7084708 -0.17848229 2.0709674 -2.4350939e+38
4.7084503 -0.1870937 2.0709674 -2.435042e+38
4.7084303 -0.1957051 2.0709674 -2.4350947e+38
4.7084098 -0.20431651 2.0709674 -2.4350436e+38
4.7083893 -0.21292792 2.0709674 -2.4349396e+38
4.7083688 -0.22153932 2.0709674 -2.4218027e+38
4.7083483 -0.23015073 2.0709674 -2.4218546e+38
4.7083282 -0.23876214 2.0709674 -2.4351988e+38
4.7083077 -0.24737354 2.0709674 -2.4351471e+38
4.7082872 -0.25598496 2.0709674 -2.4219067e+38
4.7082667 -0.26459634 2.0709674 -2.4086668e+38
4.6502528 -0.27058467 2.0603065 -2.408667e+38
4.6502328 -0.27908558 2.0603065 -2.4219596e+38
4.6502128 -0.28758654 2.0603065 -2.4352521e+38
4.6501923 -0.29608744 2.0603065 -2.4484923e+38
4.6501722 -0.30458838 2.0603065 -2.4351996e+38
4.5931592 -0.30996865 2.0498292 -2.4353034e+38
4.5931392 -0.31836098 2.0498292 -2.4220112e+38
4.6501117 -0.33009118 2.0603065 -2.4220112e+38
4.5930996 -0.33514571 2.0498292 -2.4220112e+38
4.5930796 -0.34353805 2.0498292 -2.4353554e+38
4.6500516 -0.35559398 2.0603065 -2.4618359e+38
4.59304 -0.36032277 2.0498292 -2.4883685e+38
4.6500111 -0.37259582 2.0603065 -2.4884202e+38
4.649991 -0.38109678 2.0603065 -2.4751799e+38
4.649971 -0.38959771 2.0603065 -2.4751797e+38
4.649951 -0.39809862 2.0603065 -2.4618355e+38
4.6499305 -0.40659955 2.0603065 -2.4485951e+38
4.6499104 -0.41510049 2.0603065 -2.4353028e+38
4.6498904 -0.42360142 2.0603065 -2.4353026e+38
4.6498704 -0.43210235 2.0603065 -2.4485951e+38
4.6498504 -0.44060329 2.0603065 -2.4618876e+38
4.707818 -0.45404726 2.0709674 -2.4751284e+38
4.707798 -0.46265867 2.0709674 -2.4885247e+38
4.7077775 -0.47127005 2.0709674 -2.5152656e+38
4.707757 -0.47988147 2.0709674 -2.5418506e+38
4.7077365 -0.48849291 2.0709674 -2.5683834e+38
4.7077165 -0.49710429 2.0709674 -2.5684354e+38
4.707696 -0.50571573 2.0709674 -2.5684354e+38
4.7076755 -0.51432705 2.0709674 -2.5684871e+38
4.707655 -0.52293849 2.0709674 -2.5685905e+38
4.7076344 -0.53154993 2.0709674 -2.5551938e+38
4.7675996 -0.54641771 2.081996 -2.5418494e+38
4.7675791 -0.55514336 2.081996 -2.5551415e+38
4.8295426 -0.57057023 2.0933921 -2.5817794e+38
4.8925056 -0.58634305 2.1049721 -2.6615862e+38
4.8924842 -0.59530687 2.1049721 -2.7416508e+38
4.8924627 -0.6042707 2.1049721 -2.5408639e+38
4.7687569 -0.057779018 2.0732703 nan
4.7687364 -0.066504709 2.0732703 nan
4.8307157 -0.075318187 2.0845485 nan
4.8936944 -0.084371179 2.0960083 nan
4.8936729 -0.093334973 2.0960083 -1.8376729e+38
4.893652 -0.10229875 2.0960083 -2.2744394e+38
4.8306317 -0.11069333 2.0845485 -2.7007819e+38
4.8306108 -0.11953712 2.0845485 -2.648187e+38
4.8305898 -0.12838089 2.0845485 -2.5948102e+38
4.8305688 -0.13722469 2.0845485 -2.5548295e+38
4.8305483 -0.14606847 2.0845485 -2.5149003e+38
4.7685299 -0.15376161 2.0732703 -2.4883156e+38
4.7685089 -0.1624873 2.0732703 -2.4616789e+38
4.7084913 -0.16987088 2.062356 -2.4350422e+38
4.7084708 -0.17848229 2.062356 -2.3951654e+38
4.7084503 -0.1870937 2.062356 -2.4084057e+38
4.7084303 -0.1957051 2.062356 -2.4084581e+38
4.7084098 -0.20431651 2.062356 -2.4217507e+38
4.7083893 -0.21292792 2.062356 -2.4217507e+38
4.7083688 -0.22153932 2.062356 -2.4350949e+38
4.7083483 -0.23015073 2.062356 -2.4350947e+38
4.7083282 -0.23876214 2.062356 -2.4484389e+38
4.7083077 -0.24737354 2.062356 -2.4483868e+38
4.7082872 -0.25598496 2.062356 -2.4217503e+38
4.7082667 -0.26459634 2.062356 -2.39527e+38
4.7082467 -0.27320778 2.062356 -2.3953224e+38
4.6502328 -0.27908558 2.0518055 -2.3953745e+38
4.6502128 -0.28758654 2.0518055 -2.4087191e+38
4.6501923 -0.29608744 2.0518055 -2.4219594e+38
4.6501722 -0.30458838 2.0518055 -2.4219594e+38
4.5931592 -0.30996865 2.0414369 -2.4219592e+38
4.6501322 -0.32159024 2.0518055 -2.4219592e+38
4.6501117 -0.33009118 2.0518055 -2.421959e+38
4.6500916 -0.33859214 2.0518055 -2.4351994e+38
4.5930796 -0.34353805 2.0414369 -2.435303e+38
4.6500516 -0.35559398 2.0518055 -2.4618876e+38
4.6500316 -0.36409491 2.0518055 -2.4751799e+38
4.6500111 -0.37259582 2.0518055 -2.4751799e+38
4.649991 -0.38109678 2.0518055 -2.4751801e+38
4.649971 -0.38959771 2.0518055 -2.4751803e+38
4.649951 -0.39809862 2.0518055 -2.461888e+38
4.6499305 -0.40659955 2.0518055 -2.4485957e+38
4.6499104 -0.41510049 2.0518055 -2.4353032e+38
4.6498904 -0.42360142 2.0518055 -2.4485955e+38
4.6498704 -0.43210235 2.0518055 -2.4485953e+38
4.6498504 -0.44060329 2.0518055 -2.4618876e+38
4.6498299 -0.44910419 2.0518055 -2.4752318e+38
4.6498098 -0.45760512 2.0518055 -2.4885243e+38
4.7077775 -0.47127005 2.062356 -2.5018172e+38
4.6497698 -0.47460699 2.0518055 -2.5284023e+38
4.6497493 -0.48310792 2.0518055 -2.5417467e+38
4.7077165 -0.49710429 2.062356 -2.541747e+38
4.707696 -0.50571573 2.062356 -2.5285066e+38
4.7076755 -0.51432705 2.062356 -2.5417989e+38
4.707655 -0.52293849 2.062356 -2.5419023e+38
4.7076344 -0.53154993 2.062356 -2.54185e+38
4.8295846 -0.55288261 2.0845485 -2.5285573e+38
4.8295636 -0.56172639 2.0845485 -2.5418494e+38
4.8295426 -0.57057023 2.0845485 -2.5551946e+38
4.8295217 -0.57941401 2.0845485 -2.6348976e+38
4.8924842 -0.59530687 2.0960083 -2.7144932e+38
4.8924627 -0.6042707 2.0960083 -2.5539973e+38
4.8294587 -0.60594523 2.0845485 -2.3823489e+38
4.7687364 -0.066504709 2.0645447 nan
4.7687159 -0.075230397 2.0645447 nan
4.8306947 -0.084161974 2.0757046 -3.3416264e+38
4.8936729 -0.093334973 2.0870445 -1.821057e+38
4.893652 -0.10229875 2.0870445 -2.2615661e+38
4.8306317 -0.11069333 2.0757046 -2.7149068e+38
4.8306108 -0.11953712 2.0757046 -2.6614274e+38
4.8305898 -0.12838089 2.0757046 -2.5946025e+38
4.8305688 -0.13722469 2.0757046 -2.5547776e+38
4.8305483 -0.14606847 2.0757046 -2.5147967e+38
4.8305273 -0.15491226 2.0757046 -2.4882637e+38
4.7685089 -0.1624873 2.0645447 -2.4616272e+38
4.7684884 -0.171213 2.0645447 -2.4349905e+38
4.7684679 -0.17993867 2.0645447 -2.4084059e+38
4.7084503 -0.1870937 2.0537446 -2.421698e+38
4.7084303 -0.1957051 2.0537446 -2.4349386e+38
4.7084098 -0.20431651 2.0537446 -2.4350424e+38
4.7083893 -0.21292792 2.0537446 -2.4350945e+38
4.7083688 -0.22153932 2.0537446 -2.4350947e+38
4.7083483 -0.23015073 2.0537446 -2.4350428e+38
4.7083282 -0.23876214 2.0537446 -2.4350426e+38
4.7083077 -0.24737354 2.0537446 -2.4349903e+38
4.7082872 -0.25598496 2.0537446 -2.4218014e+38
4.7082667 -0.26459634 2.0537446 -2.4085098e+38
4.6502528 -0.27058467 2.0433044 -2.4085621e+38
4.6502328 -0.27908558 2.0433044 -2.4086144e+38
4.6502128 -0.28758654 2.0433044 -2.4219071e+38
4.6501923 -0.29608744 2.0433044 -2.4351996e+38
4.6501722 -0.30458838 2.0433044 -2.4352517e+38
4.6501522 -0.31308931 2.0433044 -2.4485438e+38
4.6501322 -0.32159024 2.0433044 -2.4485436e+38
4.6501117 -0.33009118 2.0433044 -2.4485436e+38
4.6500916 -0.33859214 2.0433044 -2.4485434e+38
4.6500716 -0.34709305 2.0433044 -2.4618874e+38
4.6500516 -0.35559398 2.0433044 -2.4618872e+38
4.6500316 -0.36409491 2.0433044 -2.4751797e+38
4.6500111 -0.37259582 2.0433044 -2.4618876e+38
4.649991 -0.38109678 2.0433044 -2.4485957e+38
4.649971 -0.38959771 2.0433044 -2.4485961e+38
4.649951 -0.39809862 2.0433044 -2.4485442e+38
4.6499305 -0.40659955 2.0433044 -2.4353039e+38
4.6499104 -0.41510049 2.0433044 -2.4353039e+38
4.6498904 -0.42360142 2.0433044 -2.4485961e+38
4.6498704 -0.43210235 2.0433044 -2.4485957e+38
4.6498504 -0.44060329 2.0433044 -2.448647e+38
4.6498299 -0.44910419 2.0433044 -2.4619912e+38
4.6498098 -0.45760512 2.0433044 -2.4752316e+38
4.7077775 -0.47127005 2.0537446 -2.4884208e+38
4.6497698 -0.47460699 2.0433044 -2.5018176e+38
4.6497493 -0.48310792 2.0433044 -2.5151101e+38
4.6497293 -0.49160883 2.0433044 -2.5152141e+38
4.6497092 -0.50010979 2.0433044 -2.5152143e+38
4.7076755 -0.51432705 2.0537446 -2.5153184e+38
4.707655 -0.52293849 2.0537446 -2.5153699e+38
4.7076344 -0.53154993 2.0537446 -2.5152656e+38
4.8295846 -0.55288261 2.0757046 -2.5152652e+38
4.8295636 -0.56172639 2.0757046 -2.5285571e+38
4.8295426 -0.57057023 2.0757046 -2.5552984e+38
4.8295217 -0.57941401 2.0757046 -2.5684879e+38
4.8924842 -0.59530687 2.0870445 -2.5951207e+38
4.8924627 -0.6042707 2.0870445 -2.6207151e+38
4.8294587 -0.60594523 2.0757046 -2.6462202e+38
4.7687364 -0.066504709 2.0558188 nan
4.7687159 -0.075230397 2.0558188 nan
4.8306947 -0.084161974 2.0668607 -3.2869462e+38
4.8936729 -0.093334973 2.0780807 -1.7961323e+38
4.893652 -0.10229875 2.0780807 -2.2623991e+38
4.8936305 -0.11126254 2.0780807 -2.7278886e+38
4.8936095 -0.12022632 2.0780807 -2.6613235e+38
4.8305898 -0.12838089 2.0668607 -2.5947583e+38
4.8305688 -0.13722469 2.0668607 -2.5548295e+38
4.8305483 -0.14606847 2.0668607 -2.5015561e+38
4.8305273 -0.15491226 2.0668607 -2.4882637e+38
4.7685089 -0.1624873 2.0558188 -2.4616272e+38
4.7684884 -0.171213 2.0558188 -2.448231e+38
4.7684679 -0.17993867 2.0558188 -2.4216984e+38
4.7084503 -0.1870937 2.0451331 -2.4350426e+38
4.7084303 -0.1957051 2.0451331 -2.4483349e+38
4.7084098 -0.20431651 2.0451331 -2.4483868e+38
4.7083893 -0.21292792 2.0451331 -2.4350945e+38
4.7083688 -0.22153932 2.0451331 -2.4350947e+38
4.7083483 -0.23015073 2.0451331 -2.4350945e+38
4.7083282 -0.23876214 2.0451331 -2.4350426e+38
4.7083077 -0.24737354 2.0451331 -2.4218019e+38
4.7082872 -0.25598496 2.0451331 -2.4219055e+38
4.7082667 -0.26459634 2.0451331 -2.421854e+38
4.6502528 -0.27058467 2.0348036 -2.4218544e+38
4.6502328 -0.27908558 2.0348036 -2.4218546e+38
4.6502128 -0.28758654 2.0348036 -2.4351473e+38
4.6501923 -0.29608744 2.0348036 -2.4351994e+38
4.6501722 -0.30458838 2.0348036 -2.4484919e+38
4.6501522 -0.31308931 2.0348036 -2.4617842e+38
4.6501322 -0.32159024 2.0348036 -2.4750766e+38
4.6501117 -0.33009118 2.0348036 -2.4751284e+38
4.6500916 -0.33859214 2.0348036 -2.4751801e+38
4.6500716 -0.34709305 2.0348036 -2.4752318e+38
4.6500516 -0.35559398 2.0348036 -2.4751799e+38
4.6500316 -0.36409491 2.0348036 -2.4752318e+38
4.6500111 -0.37259582 2.0348036 -2.4485955e+38
4.649991 -0.38109678 2.0348036 -2.4220112e+38
4.649971 -0.38959771 2.0348036 -2.4219596e+38
4.649951 -0.39809862 2.0348036 -2.4219596e+38
4.6499305 -0.40659955 2.0348036 -2.4352521e+38
4.6499104 -0.41510049 2.0348036 -2.4353039e+38
4.6498904 -0.42360142 2.0348036 -2.4486479e+38
4.6498704 -0.43210235 2.0348036 -2.4486476e+38
4.6498504 -0.44060329 2.0348036 -2.4486474e+38
4.6498299 -0.44910419 2.0348036 -2.4353552e+38
4.6498098 -0.45760512 2.0348036 -2.4485957e+38
4.7077775 -0.47127005 2.0451331 -2.4619403e+38
4.707757 -0.47988147 2.0451331 -2.4752851e+38
4.7077365 -0.48849291 2.0451331 -2.4753373e+38
4.7077165 -0.49710429 2.0451331 -2.4886819e+38
4.6497092 -0.50010979 2.0348036 -2.5020261e+38
4.7076755 -0.51432705 2.0451331 -2.4888379e+38
4.8296266 -0.53519499 2.0668607 -2.4753892e+38
4.8296056 -0.54403877 2.0668607 -2.488577e+38
4.8295846 -0.55288261 2.0668607 -2.5018172e+38
4.8925481 -0.56841558 2.0780807 -2.5284013e+38
4.8925266 -0.57737935 2.0780807 -2.5417983e+38
4.8295217 -0.57941401 2.0668607 -2.5152143e+38
4.8924842 -0.59530687 2.0780807 -2.4751273e+38
4.8924627 -0.6042707 2.0780807 -2.6874379e+38
4.8924417 -0.61323452 2.0780807 -2.9019934e+38
4.7687364 -0.066504709 2.0470932 nan
4.7687159 -0.075230397 2.0470932 nan
4.8936944 -0.084371179 2.0691171 -3.2734408e+38
4.9586725 -0.09367463 2.0805693 -2.1269319e+38
4.9586511 -0.10276222 2.0805693 -2.4346816e+38
4.8936305 -0.11126254 2.0691171 -2.7411299e+38
4.8936095 -0.12022632 2.0691171 -2.6746156e+38
4.8305898 -0.12838089 2.0580168 -2.6080504e+38
4.8305688 -0.13722469 2.0580168 -2.5548293e+38
4.8305483 -0.14606847 2.0580168 -2.5015042e+38
4.7685299 -0.15376161 2.0470932 -2.4882117e+38
4.7685089 -0.1624873 2.0470932 -2.4616272e+38
4.7684884 -0.171213 2.0470932 -2.448231e+38
4.7684679 -0.17993867 2.0470932 -2.434939e+38
4.7084503 -0.1870937 2.0365217 -2.4482832e+38
4.7684264 -0.19739006 2.0470932 -2.4483351e+38
4.7084098 -0.20431651 2.0365217 -2.4350428e+38
4.7083893 -0.21292792 2.0365217 -2.4349909e+38
4.7083688 -0.22153932 2.0365217 -2.4350945e+38
4.7083483 -0.23015073 2.0365217 -2.4350945e+38
4.7083282 -0.23876214 2.0365217 -2.421854e+38
4.7083077 -0.24737354 2.0365217 -2.4219057e+38
4.7082872 -0.25598496 2.0365217 -2.4351459e+38
4.7082667 -0.26459634 2.0365217 -2.4351463e+38
4.6502528 -0.27058467 2.0263026 -2.4351465e+38
4.6502328 -0.27908558 2.0263026 -2.4351467e+38
4.6502128 -0.28758654 2.0263026 -2.4351469e+38
4.6501923 -0.29608744 2.0263026 -2.4484915e+38
4.6501722 -0.30458838 2.0263026 -2.4484917e+38
4.6501522 -0.31308931 2.0263026 -2.4484921e+38
4.6501322 -0.32159024 2.0263026 -2.4618884e+38
4.6501117 -0.33009118 2.0263026 -2.4751805e+38
4.6500916 -0.33859214 2.0263026 -2.4619397e+38
4.6500716 -0.34709305 2.0263026 -2.4619916e+38
4.6500516 -0.35559398 2.0263026 -2.4619916e+38
4.6500316 -0.36409491 2.0263026 -2.4619919e+38
4.6500111 -0.37259582 2.0263026 -2.4486476e+38
4.649991 -0.38109678 2.0263026 -2.4485959e+38
4.649971 -0.38959771 2.0263026 -2.4352517e+38
4.649951 -0.39809862 2.0263026 -2.4352519e+38
4.6499305 -0.40659955 2.0263026 -2.4353041e+38
4.6499104 -0.41510049 2.0263026 -2.4353039e+38
4.6498904 -0.42360142 2.0263026 -2.4486476e+38
4.6498704 -0.43210235 2.0263026 -2.4619921e+38
4.6498504 -0.44060329 2.0263026 -2.4619401e+38
4.6498299 -0.44910419 2.0263026 -2.4751807e+38
4.6498098 -0.45760512 2.0263026 -2.4619403e+38
4.7077775 -0.47127005 2.0365217 -2.4620446e+38
4.707757 -0.47988147 2.0365217 -2.4886813e+38
4.7077365 -0.48849291 2.0365217 -2.501974e+38
4.7077165 -0.49710429 2.0365217 -2.5019744e+38
4.7676826 -0.5115149 2.0470932 -2.5153188e+38
4.8296475 -0.52635121 2.0580168 -2.5020265e+38
4.8296266 -0.53519499 2.0580168 -2.5018699e+38
4.8296056 -0.54403877 2.0580168 -2.5150575e+38
4.8925691 -0.55945182 2.0691171 -2.5281938e+38
4.8925481 -0.56841558 2.0691171 -2.5416417e+38
4.8925266 -0.57737935 2.0691171 -2.5683305e+38
4.8295217 -0.57941401 2.0580168 -2.5150579e+38
4.8295007 -0.58825767 2.0580168 -2.4749722e+38
4.8924627 -0.6042707 2.0691171 -2.9140833e+38
4.8924417 -0.61323452 2.0691171 -3.3666524e+38
4.9587374 -0.066411845 2.0714817 nan
4.958694 -0.08458703 2.0714817 -3.2704797e+38
4.9586725 -0.09367463 2.0714817 -2.4467764e+38
4.9586511 -0.10276222 2.0714817 -2.6082075e+38
4.8936305 -0.11126254 2.060153 -2.7544216e+38
4.8936095 -0.12022632 2.060153 -2.6879594e+38
4.8935881 -0.12919012 2.060153 -2.6080499e+38
4.8305688 -0.13722469 2.0491731 -2.5548289e+38
4.8305483 -0.14606847 2.0491731 -2.5015559e+38
4.7685299 -0.15376161 2.0383673 -2.4882117e+38
4.7685089 -0.1624873 2.0383673 -2.461575e+38
4.7684884 -0.171213 2.0383673 -2.4614712e+38
4.7084708 -0.17848229 2.0279102 -2.4481789e+38
4.7084503 -0.1870937 2.0279102 -2.4481272e+38
4.7084303 -0.1957051 2.0279102 -2.448283e+38
4.7684059 -0.20611575 2.0383673 -2.4350947e+38
4.7083893 -0.21292792 2.0279102 -2.4218025e+38
4.7083688 -0.22153932 2.0279102 -2.4218025e+38
4.7083483 -0.23015073 2.0279102 -2.4218542e+38
4.7083282 -0.23876214 2.0279102 -2.421854e+38
4.7083077 -0.24737354 2.0279102 -2.421854e+38
4.7082872 -0.25598496 2.0279102 -2.4350943e+38
4.7082667 -0.26459634 2.0279102 -2.4484387e+38
4.6502528 -0.27058467 2.0178018 -2.4484389e+38
4.6502328 -0.27908558 2.0178018 -2.4484389e+38
4.6502128 -0.28758654 2.0178018 -2.4483872e+38
4.6501923 -0.29608744 2.0178018 -2.4484915e+38
4.6501722 -0.30458838 2.0178018 -2.4485438e+38
4.6501522 -0.31308931 2.0178018 -2.4353036e+38
4.6501322 -0.32159024 2.0178018 -2.4487002e+38
4.6501117 -0.33009118 2.0178018 -2.4619403e+38
4.6500916 -0.33859214 2.0178018 -2.4619401e+38
4.6500716 -0.34709305 2.0178018 -2.4486998e+38
4.6500516 -0.35559398 2.0178018 -2.4486996e+38
4.6500316 -0.36409491 2.0178018 -2.4486998e+38
4.6500111 -0.37259582 2.0178018 -2.4619921e+38
4.649991 -0.38109678 2.0178018 -2.4618884e+38
4.649971 -0.38959771 2.0178018 -2.4485444e+38
4.649951 -0.39809862 2.0178018 -2.4352523e+38
4.6499305 -0.40659955 2.0178018 -2.4353045e+38
4.6499104 -0.41510049 2.0178018 -2.4353041e+38
4.6498904 -0.42360142 2.0178018 -2.4618884e+38
4.6498704 -0.43210235 2.0178018 -2.4751805e+38
4.6498504 -0.44060329 2.0178018 -2.4884208e+38
4.6498299 -0.44910419 2.0178018 -2.5018172e+38
4.6498098 -0.45760512 2.0178018 -2.4885251e+38
4.6497898 -0.46610606 2.0178018 -2.4620444e+38
4.6497698 -0.47460699 2.0178018 -2.5020253e+38
4.7077365 -0.48849291 2.0279102 -2.52861e+38
4.6497293 -0.49160883 2.0178018 -2.5285585e+38
4.6497092 -0.50010979 2.0178018 -2.5153182e+38
4.7076755 -0.51432705 2.0279102 -2.5285587e+38
4.8296266 -0.53519499 2.0491731 -2.5284023e+38
4.8925905 -0.550488 2.060153 -2.5415384e+38
4.8925691 -0.55945182 2.060153 -2.5415904e+38
4.8925481 -0.56841558 2.060153 -2.5682788e+38
4.8925266 -0.57737935 2.060153 -2.5815715e+38
4.8925056 -0.58634305 2.060153 -2.5281951e+38
4.8295007 -0.58825767 2.0491731 -2.4620973e+38
4.8924627 -0.6042707 2.060153 -3.1538155e+38
4.8924417 -0.61323452 2.060153 nan
4.9586725 -0.09367463 2.0623941 -2.1537221e+38
4.9586511 -0.10276222 2.0623941 -2.4346802e+38
4.9586296 -0.11184981 2.0623941 -2.7144405e+38
4.8936095 -0.12022632 2.0511894 -2.6480302e+38
4.8935881 -0.12919012 2.0511894 -2.5947053e+38
4.8305688 -0.13722469 2.0403292 -2.541536e+38
4.8305483 -0.14606847 2.0403292 -2.5016075e+38
4.7685299 -0.15376161 2.0296416 -2.461627e+38
4.7685089 -0.1624873 2.0296416 -2.4348866e+38
4.7684884 -0.171213 2.0296416 -2.4215942e+38
4.7084708 -0.17848229 2.0192988 -2.4083019e+38
4.7084503 -0.1870937 2.0192988 -2.4083538e+38
4.7084303 -0.1957051 2.0192988 -2.4217503e+38
4.7084098 -0.20431651 2.0192988 -2.4218025e+38
4.7083893 -0.21292792 2.0192988 -2.4351467e+38
4.7083688 -0.22153932 2.0192988 -2.4351986e+38
4.7083483 -0.23015073 2.0192988 -2.4351465e+38
4.7083282 -0.23876214 2.0192988 -2.4351463e+38
4.7083077 -0.24737354 2.0192988 -2.4351465e+38
4.7082872 -0.25598496 2.0192988 -2.4484387e+38
4.7082667 -0.26459634 2.0192988 -2.4484389e+38
4.6502528 -0.27058467 2.0093007 -2.4617312e+38
