# .PCD v0.7 - Point Cloud Data file format
VERSION 0.7
FIELDS x y z rgb
SIZE 4 4 4 4
TYPE F F F F
COUNT 1 1 1 1
WIDTH 1124
HEIGHT 1
VIEWPOINT 0 0 0 1 0 0 0
POINTS 1124
DATA ascii
3.5096967 1.5091218 1.1674817 -3.3690958e+38
3.5096653 1.5028189 1.1674817 -3.3823883e+38
3.509634 1.4965162 1.1674817 -3.3958366e+38
3.541678 1.5053229 1.1667807 nan
3.5416462 1.4989592 1.1667807 nan
3.5416148 1.4925953 1.1667807 nan
3.5736575 1.5011584 1.1660798 nan
3.5736258 1.4947337 1.1660798 nan
3.5735939 1.4883091 1.1660798 nan
3.5429413 1.7598722 1.1604168 -3.2092246e+38
3.5429099 1.7535083 1.1604168 -3.1825869e+38
3.574965 1.7645704 1.159655 -3.1425014e+38
3.5749333 1.7581458 1.159655 -3.115812e+38
3.5749013 1.751721 1.159655 -3.0892268e+38
3.5427835 1.7280535 1.1604168 -3.0892264e+38
3.5427518 1.7216898 1.1604168 -3.0890702e+38
3.5748057 1.7324469 1.159655 -3.075622e+38
3.5747738 1.7260224 1.159655 -3.049037e+38
3.5426571 1.7025986 1.1604168 -3.0092638e+38
3.5747099 1.7131729 1.159655 -2.9690233e+38
3.607765 1.7241528 1.1588693 -2.9289388e+38
3.6077328 1.7176653 1.1588693 -2.8755096e+38
3.6417892 1.7289802 1.1580597 -2.8885938e+38
3.6076684 1.7046902 1.1588693 -2.8886457e+38
3.6076362 1.6982027 1.1588693 -2.9019897e+38
3.5745187 1.6746248 1.159655 -2.9018857e+38
3.5424044 1.6516887 1.1604168 -2.9018338e+38
3.5102911 1.6288745 1.1611788 -2.9020412e+38
3.5102599 1.6225718 1.1611788 -2.9155412e+38
3.5102284 1.616269 1.1611788 -2.9154386e+38
3.5101972 1.6099662 1.1611788 -2.8223936e+38
3.4780848 1.5874567 1.1619407 -2.7296612e+38
3.4780538 1.5812149 1.1619407 -3.0625412e+38
3.5101032 1.5910579 1.1611788 -3.382179e+38
3.510072 1.5847551 1.1611788 -3.3423022e+38
3.5100408 1.5784522 1.1611788 -3.3023728e+38
3.5100095 1.5721495 1.1611788 -3.2889763e+38
3.5099783 1.5658468 1.1611788 -3.2624956e+38
3.5099468 1.559544 1.1611788 -3.2492035e+38
3.5099156 1.5532411 1.1611788 -3.2359629e+38
3.5098844 1.5469384 1.1611788 -3.2492033e+38
3.5098531 1.5406356 1.1611788 -3.2625992e+38
3.5098217 1.5343329 1.1611788 -3.302528e+38
3.5097904 1.5280302 1.1611788 -3.3290608e+38
3.5097592 1.5217272 1.1611788 -3.3289054e+38
3.509728 1.5154245 1.1611788 -3.329062e+38
3.5096967 1.5091218 1.1611788 -3.3424588e+38
3.5096653 1.5028189 1.1611788 -3.3558032e+38
3.5417094 1.5116866 1.1604168 -3.3958879e+38
3.541678 1.5053229 1.1604168 nan
3.5416462 1.4989592 1.1604168 nan
3.5416148 1.4925953 1.1604168 nan
3.5415831 1.4862317 1.1604168 nan
3.5736258 1.4947337 1.159655 nan
3.6066701 1.5035765 1.1588693 nan
3.5429413 1.7598722 1.1540531 -3.235549e+38
3.5749969 1.770995 1.1532302 -3.1956709e+38
3.574965 1.7645704 1.1532302 -3.168878e+38
3.5749333 1.7581458 1.1532302 -3.1290004e+38
3.5749013 1.751721 1.1532302 -3.1023631e+38
3.5748694 1.7452964 1.1532302 -3.1023623e+38
3.5427518 1.7216898 1.1540531 -3.1022584e+38
3.5427203 1.715326 1.1540531 -3.0756737e+38
3.5426886 1.7089623 1.1540531 -3.0490368e+38
3.5426571 1.7025986 1.1540531 -3.0088999e+38
3.5747099 1.7131729 1.1532302 -2.9820038e+38
3.607765 1.7241528 1.1523817 -2.9421787e+38
3.6077328 1.7176653 1.1523817 -2.9155418e+38
3.6077006 1.7111778 1.1523817 -2.9286779e+38
3.6076684 1.7046902 1.1523817 -2.94197e+38
3.6076362 1.6982027 1.1523817 -2.9419698e+38
3.5745187 1.6746248 1.1532302 -2.9418664e+38
3.5424044 1.6516887 1.1540531 -2.915438e+38
3.5423729 1.6453251 1.1540531 -2.9023534e+38
3.5102599 1.6225718 1.1548759 -2.8757169e+38
3.5102284 1.616269 1.1548759 -2.8623218e+38
3.5101972 1.6099662 1.1548759 -2.7293481e+38
3.4780848 1.5874567 1.1556988 -2.5964788e+38
3.4780538 1.5812149 1.1556988 -2.9428584e+38
3.5101032 1.5910579 1.1548759 -3.2890288e+38
3.510072 1.5847551 1.1548759 -3.2887173e+38
3.5100408 1.5784522 1.1548759 -3.3018012e+38
3.4779298 1.5562476 1.1556988 -3.30206e+38
3.5099783 1.5658468 1.1548759 -3.3021643e+38
3.5099468 1.559544 1.1548759 -3.2756838e+38
3.5099156 1.5532411 1.1548759 -3.2623917e+38
3.5098844 1.5469384 1.1548759 -3.235911e+38
3.5098531 1.5406356 1.1548759 -3.2226704e+38
3.5098217 1.5343329 1.1548759 -3.2624432e+38
3.5097904 1.5280302 1.1548759 -3.3022684e+38
3.5097592 1.5217272 1.1548759 -3.3155089e+38
3.509728 1.5154245 1.1548759 -3.3289056e+38
3.5096967 1.5091218 1.1548759 -3.3289582e+38
3.5096653 1.5028189 1.1548759 -3.3424064e+38
3.5417094 1.5116866 1.1540531 -3.3558547e+38
3.541678 1.5053229 1.1540531 -3.3826993e+38
3.5416462 1.4989592 1.1540531 nan
3.5416148 1.4925953 1.1540531 nan
3.5415831 1.4862317 1.1540531 nan
3.6067023 1.510064 1.1523817 nan
3.6066701 1.5035765 1.1523817 nan
3.6757965 1.5288805 1.1506073 nan
3.5429413 1.7598722 1.1476892 -3.2488926e+38
3.5749969 1.770995 1.1468054 -3.2222031e+38
3.574965 1.7645704 1.1468054 -3.1822216e+38
3.5749333 1.7581458 1.1468054 -3.1554805e+38
3.5749013 1.751721 1.1468054 -3.1156028e+38
3.5748694 1.7452964 1.1468054 -3.1155503e+38
3.5427518 1.7216898 1.1476892 -3.102258e+38
3.5427203 1.715326 1.1476892 -3.0756733e+38
3.5426886 1.7089623 1.1476892 -3.0355366e+38
3.5426571 1.7025986 1.1476892 -3.0086405e+38
3.5747099 1.7131729 1.1468054 -2.9821596e+38
3.607765 1.7241528 1.1458941 -2.9688154e+38
3.6077328 1.7176653 1.1458941 -2.9421783e+38
3.6077006 1.7111778 1.1458941 -2.9686586e+38
3.6076684 1.7046902 1.1458941 -2.9952949e+38
3.6076362 1.6982027 1.1458941 -2.9819507e+38
3.607604 1.6917152 1.1458941 -2.9687105e+38
3.5744867 1.6682001 1.1468054 -2.9422298e+38
3.5423729 1.6453251 1.1476892 -2.9023013e+38
3.5423412 1.6389612 1.1476892 -2.8491325e+38
3.5423098 1.6325976 1.1476892 -2.7958083e+38
3.5101972 1.6099662 1.148573 -2.6361459e+38
3.4780848 1.5874567 1.1494569 -2.4636593e+38
3.4780538 1.5812149 1.1494569 -2.8366234e+38
3.4780228 1.5749731 1.1494569 -3.1955685e+38
3.4779918 1.5687312 1.1494569 -3.2483238e+38
3.4779608 1.5624894 1.1494569 -3.2885625e+38
3.4779298 1.5562476 1.1494569 -3.3152493e+38
3.5099783 1.5658468 1.148573 -3.3420415e+38
3.5099468 1.559544 1.148573 -3.3155091e+38
3.5099156 1.5532411 1.148573 -3.2757365e+38
3.5098844 1.5469384 1.148573 -3.2358601e+38
3.5098531 1.5406356 1.148573 -3.182638e+38
3.5098217 1.5343329 1.148573 -3.2222542e+38
3.5097904 1.5280302 1.148573 -3.262183e+38
3.5097592 1.5217272 1.148573 -3.2887158e+38
3.509728 1.5154245 1.148573 -3.3153012e+38
3.5096967 1.5091218 1.148573 -3.3154059e+38
3.5096653 1.5028189 1.148573 -3.3155099e+38
3.5417094 1.5116866 1.1476892 -3.3289065e+38
3.541678 1.5053229 1.1476892 -3.3424068e+38
3.5416462 1.4989592 1.1476892 -3.3822841e+38
3.5416148 1.4925953 1.1476892 nan
3.5736575 1.5011584 1.1468054 nan
3.5736258 1.4947337 1.1468054 nan
3.6066701 1.5035765 1.1458941 nan
3.6407161 1.5127542 1.1449549 nan
3.5750289 1.7774198 1.1403806 -3.2753207e+38
3.5749969 1.770995 1.1403806 -3.2354948e+38
3.574965 1.7645704 1.1403806 -3.1955133e+38
3.5749333 1.7581458 1.1403806 -3.1688758e+38
3.5749013 1.751721 1.1403806 -3.142187e+38
3.5748694 1.7452964 1.1403806 -3.1288422e+38
3.5427518 1.7216898 1.1413255 -3.115498e+38
3.5427203 1.715326 1.1413255 -3.075569e+38
3.5747738 1.7260224 1.1403806 -3.0354328e+38
3.5747418 1.7195977 1.1403806 -2.9956598e+38
3.5747099 1.7131729 1.1403806 -2.9690752e+38
3.607765 1.7241528 1.1394064 -2.9556789e+38
3.6077328 1.7176653 1.1394064 -2.9556264e+38
3.6077006 1.7111778 1.1394064 -2.9688661e+38
3.6076684 1.7046902 1.1394064 -2.9955547e+38
3.6417243 1.7158755 1.1384026 -2.9821067e+38
3.607604 1.6917152 1.1394064 -2.9688142e+38
3.6075718 1.6852275 1.1394064 -2.9288333e+38
3.5744548 1.6617755 1.1403806 -2.8888013e+38
3.5423412 1.6389612 1.1413255 -2.8356845e+38
3.5423098 1.6325976 1.1413255 -2.7825158e+38
3.5101972 1.6099662 1.1422702 -2.6493857e+38
3.5101659 1.6036634 1.1422702 -2.5163605e+38
3.4780538 1.5812149 1.1432149 -2.8625842e+38
3.4780228 1.5749731 1.1432149 -3.2221021e+38
3.510072 1.5847551 1.1422702 -3.3289109e+38
3.5100408 1.5784522 1.1422702 nan
3.5100095 1.5721495 1.1422702 -3.395419e+38
3.5099783 1.5658468 1.1422702 -3.3687825e+38
3.5099468 1.559544 1.1422702 -3.369094e+38
3.5099156 1.5532411 1.1422702 -3.3556468e+38
3.5098844 1.5469384 1.1422702 -3.3292186e+38
3.4777751 1.5250385 1.1432149 -3.2889246e+38
3.4777441 1.5187967 1.1432149 -3.3156629e+38
3.5097904 1.5280302 1.1422702 -3.3550726e+38
3.5097592 1.5217272 1.1422702 -3.3686245e+38
3.509728 1.5154245 1.1422702 -3.3946908e+38
3.5096967 1.5091218 1.1422702 -3.3818667e+38
3.5096653 1.5028189 1.1422702 -3.3817115e+38
3.5417094 1.5116866 1.1413255 -3.3820234e+38
3.541678 1.5053229 1.1413255 -3.3819721e+38
3.5416462 1.4989592 1.1413255 -3.3956802e+38
3.5416148 1.4925953 1.1413255 nan
3.5415831 1.4862317 1.1413255 nan
3.5736258 1.4947337 1.1403806 nan
3.5735939 1.4883091 1.1403806 nan
3.606638 1.497089 1.1394064 nan
3.6066058 1.4906014 1.1394064 nan
3.5750289 1.7774198 1.133956 -3.3020594e+38
3.5749969 1.770995 1.133956 -3.2488384e+38
3.6080549 1.7825407 1.1329187 -3.1955648e+38
3.6080227 1.7760532 1.1329187 -3.18222e+38
3.5749013 1.751721 1.133956 -3.1555314e+38
3.5748694 1.7452964 1.133956 -3.1421353e+38
3.5748374 1.7388717 1.133956 -3.1287909e+38
3.5748057 1.7324469 1.133956 -3.0888619e+38
3.5747738 1.7260224 1.133956 -3.0356926e+38
3.5747418 1.7195977 1.133956 -2.9959715e+38
3.5747099 1.7131729 1.133956 -2.9425947e+38
3.607765 1.7241528 1.1329187 -2.9558351e+38
3.6077328 1.7176653 1.1329187 -2.9557308e+38
3.6077006 1.7111778 1.1329187 -2.9822113e+38
3.6076684 1.7046902 1.1329187 -2.9954515e+38
3.6417243 1.7158755 1.1318502 -2.9820034e+38
3.607604 1.6917152 1.1329187 -2.9554187e+38
3.5744867 1.6682001 1.133956 -2.9153861e+38
3.5744548 1.6617755 1.133956 -2.8622169e+38
3.5744231 1.6553508 1.133956 -2.809048e+38
3.5743911 1.6489261 1.133956 -2.7558272e+38
3.5422781 1.6262337 1.1349616 -2.6625737e+38
3.5101659 1.6036634 1.1359674 -2.5562353e+38
3.4780538 1.5812149 1.136973 -2.9017307e+38
3.4780228 1.5749731 1.136973 -3.2483725e+38
3.4779918 1.5687312 1.136973 nan
3.5100408 1.5784522 1.1359674 nan
3.4779298 1.5562476 1.136973 nan
3.4778988 1.5500057 1.136973 -3.396198e+38
3.5099468 1.559544 1.1359674 nan
3.5099156 1.5532411 1.1359674 nan
3.5098844 1.5469384 1.1359674 nan
3.5098531 1.5406356 1.1359674 -3.3961451e+38
3.5098217 1.5343329 1.1359674 nan
3.5097904 1.5280302 1.1359674 nan
3.5097592 1.5217272 1.1359674 nan
3.509728 1.5154245 1.1359674 nan
3.5096967 1.5091218 1.1359674 nan
3.5417411 1.5180504 1.1349616 nan
3.5417094 1.5116866 1.1349616 nan
3.541678 1.5053229 1.1349616 nan
3.5416462 1.4989592 1.1349616 nan
3.5416148 1.4925953 1.1349616 nan
3.5736575 1.5011584 1.133956 nan
3.5736258 1.4947337 1.133956 nan
3.5735939 1.4883091 1.133956 nan
3.606638 1.497089 1.1329187 nan
3.5750289 1.7774198 1.1275312 -3.1423428e+38
3.5749969 1.770995 1.1275312 -3.1690839e+38
3.574965 1.7645704 1.1275312 -3.2088048e+38
3.6080227 1.7760532 1.1264311 -3.1821681e+38
3.542815 1.7344172 1.1285979 -3.1688241e+38
3.5748694 1.7452964 1.1275312 -3.1554801e+38
3.5748374 1.7388717 1.1275312 -3.155428e+38
3.5748057 1.7324469 1.1275312 -3.1022065e+38
3.5747738 1.7260224 1.1275312 -3.0490372e+38
3.5747418 1.7195977 1.1275312 -2.9958679e+38
3.5747099 1.7131729 1.1275312 -2.9557833e+38
3.607765 1.7241528 1.1264311 -2.9558353e+38
3.6077328 1.7176653 1.1264311 -2.9690237e+38
3.6077006 1.7111778 1.1264311 -2.9689718e+38
3.6076684 1.7046902 1.1264311 -2.98216e+38
3.6417243 1.7158755 1.1252978 -2.9687635e+38
3.6416917 1.7093233 1.1252978 -2.9553673e+38
3.6416593 1.7027711 1.1252978 -2.9153867e+38
3.6075397 1.67874 1.1264311 -2.8754058e+38
3.5744231 1.6553508 1.1275312 -2.8355804e+38
3.5743911 1.6489261 1.1275312 -2.7823594e+38
3.5743592 1.6425015 1.1275312 -2.7424306e+38
3.5101659 1.6036634 1.1296644 -2.6892082e+38
3.4780538 1.5812149 1.1307311 -2.8616427e+38
3.4780228 1.5749731 1.1307311 -3.0475318e+38
3.4779918 1.5687312 1.1307311 -3.2758937e+38
3.5100408 1.5784522 1.1296644 nan
3.5100095 1.5721495 1.1296644 -3.3832175e+38
3.5099783 1.5658468 1.1296644 -3.2638985e+38
3.5099468 1.559544 1.1296644 -3.3701329e+38
3.5099156 1.5532411 1.1296644 nan
3.5098844 1.5469384 1.1296644 nan
3.5098531 1.5406356 1.1296644 nan
3.5098217 1.5343329 1.1296644 nan
3.5097904 1.5280302 1.1296644 nan
3.5418358 1.5371416 1.1285979 nan
3.5418043 1.5307778 1.1285979 nan
3.5417726 1.5244141 1.1285979 nan
3.5417411 1.5180504 1.1285979 nan
3.5417094 1.5116866 1.1285979 nan
3.541678 1.5053229 1.1285979 nan
3.5416462 1.4989592 1.1285979 nan
3.5416148 1.4925953 1.1285979 nan
3.5415831 1.4862317 1.1285979 nan
3.5415516 1.4798679 1.1285979 nan
3.5735939 1.4883091 1.1275312 nan
3.5735619 1.4818844 1.1275312 nan
3.5750289 1.7774198 1.1211064 -2.9827308e+38
3.6080871 1.7890283 1.1199435 -3.1028306e+38
3.6080549 1.7825407 1.1199435 -3.208909e+38
3.6080227 1.7760532 1.1199435 -3.1954608e+38
3.5749013 1.751721 1.1211064 -3.182117e+38
3.6079583 1.7630781 1.1199435 -3.1820135e+38
3.6079261 1.7565905 1.1199435 -3.1686693e+38
3.6078939 1.750103 1.1199435 -3.1154481e+38
3.5747738 1.7260224 1.1211064 -3.0489861e+38
3.5747418 1.7195977 1.1211064 -3.0091608e+38
3.5426254 1.6962348 1.122234 -2.9691797e+38
3.607765 1.7241528 1.1199435 -2.9691793e+38
3.6077328 1.7176653 1.1199435 -2.9690754e+38
3.6077006 1.7111778 1.1199435 -2.9689718e+38
3.6076684 1.7046902 1.1199435 -2.9688677e+38
3.6417243 1.7158755 1.1187454 -2.9687637e+38
3.607604 1.6917152 1.1199435 -2.9553156e+38
3.6416593 1.7027711 1.1187454 -2.9285753e+38
3.6075397 1.67874 1.1199435 -2.8886978e+38
3.6075075 1.6722525 1.1199435 -2.8488206e+38
3.6074753 1.6657649 1.1199435 -2.8089438e+38
3.6074431 1.6592774 1.1199435 -2.822288e+38
3.5422466 1.6198701 1.122234 -2.8218192e+38
3.5101347 1.5973606 1.1233616 -2.8345909e+38
3.4780228 1.5749731 1.1244892 -2.8353233e+38
3.510072 1.5847551 1.1233616 -3.1300435e+38
3.5100408 1.5784522 1.1233616 nan
3.5100095 1.5721495 1.1233616 -3.2773019e+38
3.5099783 1.5658468 1.1233616 -3.1310319e+38
3.5099468 1.559544 1.1233616 -3.3169652e+38
3.5099156 1.5532411 1.1233616 nan
3.5098844 1.5469384 1.1233616 nan
3.5098531 1.5406356 1.1233616 nan
3.5098217 1.5343329 1.1233616 nan
3.5418675 1.5435053 1.122234 nan
3.5418358 1.5371416 1.122234 nan
3.5418043 1.5307778 1.122234 nan
3.5417726 1.5244141 1.122234 nan
3.5417411 1.5180504 1.122234 nan
3.5417094 1.5116866 1.122234 nan
3.541678 1.5053229 1.122234 nan
3.5416462 1.4989592 1.122234 nan
3.5416148 1.4925953 1.122234 nan
3.5415831 1.4862317 1.122234 nan
3.5415516 1.4798679 1.122234 nan
3.5735939 1.4883091 1.1211064 nan
3.5735619 1.4818844 1.1211064 nan
3.5750289 1.7774198 1.1146816 -2.9029245e+38
3.6080871 1.7890283 1.1134559 -3.0760388e+38
3.6080549 1.7825407 1.1134559 -3.2621305e+38
3.6080227 1.7760532 1.1134559 -3.2354417e+38
3.6079905 1.7695657 1.1134559 -3.2087541e+38
3.6079583 1.7630781 1.1134559 -3.1686701e+38
3.6079261 1.7565905 1.1134559 -3.14193e+38
3.5748057 1.7324469 1.1146816 -3.0888128e+38
3.5747738 1.7260224 1.1146816 -3.0487794e+38
3.5747418 1.7195977 1.1146816 -3.0090054e+38
3.5747099 1.7131729 1.1146816 -2.9823683e+38
3.5746782 1.7067482 1.1146816 -2.9824713e+38
3.6077328 1.7176653 1.1134559 -2.9824715e+38
3.5746143 1.6938989 1.1146816 -2.9823158e+38
3.5745823 1.6874743 1.1146816 -2.9954004e+38
3.6076362 1.6982027 1.1134559 -2.982056e+38
3.607604 1.6917152 1.1134559 -2.9686079e+38
3.6416593 1.7027711 1.1121931 -2.9286791e+38
3.6075397 1.67874 1.1134559 -2.9019901e+38
3.6075075 1.6722525 1.1134559 -2.8621646e+38
3.6074753 1.6657649 1.1134559 -2.8355281e+38
3.6074431 1.6592774 1.1134559 -2.8352683e+38
3.5422466 1.6198701 1.1158702 -2.8348517e+38
3.5101347 1.5973606 1.1170588 -2.7681293e+38
3.4780228 1.5749731 1.1182474 -2.714603e+38
3.510072 1.5847551 1.1170588 -3.0089604e+38
3.5100408 1.5784522 1.1170588 -3.3168171e+38
3.5100095 1.5721495 1.1170588 nan
3.5099783 1.5658468 1.1170588 nan
3.5099468 1.559544 1.1170588 nan
3.5099156 1.5532411 1.1170588 nan
3.5098844 1.5469384 1.1170588 nan
3.5098531 1.5406356 1.1170588 nan
3.5098217 1.5343329 1.1170588 nan
3.5097904 1.5280302 1.1170588 nan
3.5418358 1.5371416 1.1158702 nan
3.5418043 1.5307778 1.1158702 nan
3.5417726 1.5244141 1.1158702 nan
3.5417411 1.5180504 1.1158702 nan
3.5417094 1.5116866 1.1158702 nan
3.541678 1.5053229 1.1158702 nan
3.5416462 1.4989592 1.1158702 nan
3.5416148 1.4925953 1.1158702 nan
3.5415831 1.4862317 1.1158702 nan
3.5415516 1.4798679 1.1158702 nan
3.5735939 1.4883091 1.1146816 nan
3.5735619 1.4818844 1.1146816 nan
3.5750289 1.7774198 1.1082568 -2.8231171e+38
3.6080871 1.7890283 1.1069683 -3.062743e+38
3.6080549 1.7825407 1.1069683 -3.3020053e+38
3.6080227 1.7760532 1.1069683 -3.2753702e+38
3.5749013 1.751721 1.1082568 -3.2352865e+38
3.5748694 1.7452964 1.1082568 -3.1685663e+38
3.5748374 1.7388717 1.1082568 -3.1021047e+38
3.5748057 1.7324469 1.1082568 -3.0755719e+38
3.5747738 1.7260224 1.1082568 -3.0355906e+38
3.5747418 1.7195977 1.1082568 -3.0222977e+38
3.5426254 1.6962348 1.1095064 -2.9957642e+38
3.5746782 1.7067482 1.1082568 -2.9958153e+38
3.6077328 1.7176653 1.1069683 -2.9957634e+38
3.5746143 1.6938989 1.1082568 -3.0089521e+38
3.5745823 1.6874743 1.1082568 -3.0087963e+38
3.6417243 1.7158755 1.1056406 -2.9953482e+38
3.607604 1.6917152 1.1069683 -2.9686598e+38
3.6075718 1.6852275 1.1069683 -2.9420751e+38
3.6416266 1.6962186 1.1056406 -2.9021976e+38
3.6415942 1.6896664 1.1056406 -2.8756122e+38
3.6074753 1.6657649 1.1069683 -2.8487685e+38
3.6074431 1.6592774 1.1069683 -2.8483533e+38
3.5422466 1.6198701 1.1095064 -2.8349568e+38
3.5101347 1.5973606 1.1107559 -2.7149626e+38
3.5101032 1.5910579 1.1107559 -2.5818325e+38
3.510072 1.5847551 1.1107559 -2.9008995e+38
3.5100408 1.5784522 1.1107559 -3.2093849e+38
3.5100095 1.5721495 1.1107559 nan
3.5099783 1.5658468 1.1107559 nan
3.5099468 1.559544 1.1107559 nan
3.5099156 1.5532411 1.1107559 nan
3.5098844 1.5469384 1.1107559 nan
3.5098531 1.5406356 1.1107559 -3.3833262e+38
3.5098217 1.5343329 1.1107559 nan
3.5418675 1.5435053 1.1095064 nan
3.5418358 1.5371416 1.1095064 nan
3.5418043 1.5307778 1.1095064 nan
3.5417726 1.5244141 1.1095064 nan
3.5417411 1.5180504 1.1095064 nan
3.5417094 1.5116866 1.1095064 nan
3.541678 1.5053229 1.1095064 nan
3.5416462 1.4989592 1.1095064 nan
3.5416148 1.4925953 1.1095064 nan
3.5415831 1.4862317 1.1095064 nan
3.5415516 1.4798679 1.1095064 nan
3.5735939 1.4883091 1.1082568 nan
3.5414884 1.4671404 1.1095064 nan
3.5750289 1.7774198 1.1018322 -3.2347087e+38
3.5749969 1.770995 1.1018322 -3.2353833e+38
3.6080549 1.7825407 1.1004807 -3.2221979e+38
3.5749333 1.7581458 1.1018322 -3.2222007e+38
3.5749013 1.751721 1.1018322 -3.2351825e+38
3.5748694 1.7452964 1.1018322 -3.1686701e+38
3.5748374 1.7388717 1.1018322 -3.1021562e+38
3.5748057 1.7324469 1.1018322 -3.0622788e+38
3.5747738 1.7260224 1.1018322 -3.0356421e+38
3.5747418 1.7195977 1.1018322 -3.0091092e+38
3.5426254 1.6962348 1.1031426 -2.9958162e+38
3.542594 1.6898711 1.1031426 -2.9957632e+38
3.5746462 1.7003236 1.1018322 -3.0090036e+38
3.5746143 1.6938989 1.1018322 -3.0088997e+38
3.5745823 1.6874743 1.1018322 -3.0221403e+38
3.6076362 1.6982027 1.1004807 -2.9953482e+38
3.607604 1.6917152 1.1004807 -2.9686596e+38
3.6416593 1.7027711 1.0990883 -2.9421787e+38
3.6416266 1.6962186 1.0990883 -2.9156972e+38
3.6415942 1.6896664 1.0990883 -2.9021964e+38
3.6074753 1.6657649 1.1004807 -2.8886453e+38
3.6074431 1.6592774 1.1004807 -2.8619575e+38
3.5743272 1.6360767 1.1018322 -2.8353216e+38
3.5101347 1.5973606 1.1044531 -2.7682897e+38
3.4780228 1.5749731 1.1057636 -2.7013038e+38
3.4779918 1.5687312 1.1057636 -2.834429e+38
3.5100408 1.5784522 1.1044531 -2.980349e+38
3.5100095 1.5721495 1.1044531 nan
3.5099783 1.5658468 1.1044531 nan
3.5099468 1.559544 1.1044531 nan
3.5099156 1.5532411 1.1044531 nan
3.5098844 1.5469384 1.1044531 nan
3.5098531 1.5406356 1.1044531 -2.8907861e+38
3.5098217 1.5343329 1.1044531 -3.2504056e+38
3.5097904 1.5280302 1.1044531 nan
3.5418358 1.5371416 1.1031426 nan
3.5418043 1.5307778 1.1031426 nan
3.5417726 1.5244141 1.1031426 nan
3.5417411 1.5180504 1.1031426 nan
3.5417094 1.5116866 1.1031426 nan
3.541678 1.5053229 1.1031426 nan
3.5416462 1.4989592 1.1031426 nan
3.5416148 1.4925953 1.1031426 nan
3.5415831 1.4862317 1.1031426 nan
3.5736258 1.4947337 1.1018322 -3.3958885e+38
3.5735939 1.4883091 1.1018322 nan
3.5735619 1.4818844 1.1018322 nan
3.5750289 1.7774198 1.0954074 nan
3.6080871 1.7890283 1.0939931 -3.3953062e+38
3.574965 1.7645704 1.0954074 -3.1424442e+38
3.5749333 1.7581458 1.0954074 -3.1825318e+38
3.5749013 1.751721 1.0954074 -3.2220455e+38
3.5748694 1.7452964 1.0954074 -3.1554288e+38
3.5748374 1.7388717 1.0954074 -3.088915e+38
3.5748057 1.7324469 1.0954074 -3.0622782e+38
3.5426886 1.7089623 1.0967788 -3.0224009e+38
3.5426571 1.7025986 1.0967788 -3.0091602e+38
3.5426254 1.6962348 1.0967788 -2.9958151e+38
3.542594 1.6898711 1.0967788 -3.0090549e+38
3.5746462 1.7003236 1.0954074 -3.0089508e+38
3.5425308 1.6771436 1.0967788 -3.0221393e+38
3.5745823 1.6874743 1.0954074 -3.0220356e+38
3.6076362 1.6982027 1.0939931 -2.9952436e+38
3.607604 1.6917152 1.0939931 -2.9687109e+38
3.6075718 1.6852275 1.0939931 -2.9555225e+38
3.6416266 1.6962186 1.0925359 -2.9288856e+38
3.6415942 1.6896664 1.0925359 -2.9287816e+38
3.6074753 1.6657649 1.0939931 -2.9153858e+38
3.6074431 1.6592774 1.0939931 -2.8755613e+38
3.5422466 1.6198701 1.0967788 -2.8352182e+38
3.5101347 1.5973606 1.0981503 -2.8215114e+38
3.4780228 1.5749731 1.0995216 -2.8082158e+38
3.510072 1.5847551 1.0981503 -2.7816797e+38
3.5100408 1.5784522 1.0981503 -2.7432184e+38
3.5100095 1.5721495 1.0981503 nan
3.5099783 1.5658468 1.0981503 nan
3.5099468 1.559544 1.0981503 nan
3.5099156 1.5532411 1.0981503 nan
3.5098844 1.5469384 1.0981503 -3.2728741e+38
3.5098531 1.5406356 1.0981503 -2.3975102e+38
3.5098217 1.5343329 1.0981503 -2.9841935e+38
3.5097904 1.5280302 1.0981503 nan
3.5097592 1.5217272 1.0981503 nan
3.5418043 1.5307778 1.0967788 nan
3.5417726 1.5244141 1.0967788 nan
3.5417411 1.5180504 1.0967788 nan
3.5417094 1.5116866 1.0967788 nan
3.541678 1.5053229 1.0967788 nan
3.5416462 1.4989592 1.0967788 -3.3956293e+38
3.5416148 1.4925953 1.0967788 -3.3824926e+38
3.5415831 1.4862317 1.0967788 -3.3558042e+38
3.5415516 1.4798679 1.0967788 -3.3293233e+38
3.5735939 1.4883091 1.0954074 -3.3823885e+38
3.5735619 1.4818844 1.0954074 nan
3.5750289 1.7774198 1.0889826 nan
3.5749969 1.770995 1.0889826 nan
3.574965 1.7645704 1.0889826 -3.0621195e+38
3.5749333 1.7581458 1.0889826 -3.1290511e+38
3.5749013 1.751721 1.0889826 -3.2087529e+38
3.5748694 1.7452964 1.0889826 -3.1421874e+38
3.5748374 1.7388717 1.0889826 -3.0889142e+38
3.5748057 1.7324469 1.0889826 -3.0623293e+38
3.5747738 1.7260224 1.0889826 -3.0357441e+38
3.5747418 1.7195977 1.0889826 -3.009107e+38
3.5747099 1.7131729 1.0889826 -2.9957105e+38
3.542594 1.6898711 1.090415 -2.9957099e+38
3.5746462 1.7003236 1.0889826 -3.0088983e+38
3.5746143 1.6938989 1.0889826 -3.0087423e+38
3.5745823 1.6874743 1.0889826 -3.021931e+38
3.6076362 1.6982027 1.0875055 -2.9952947e+38
3.607604 1.6917152 1.0875055 -2.9687103e+38
3.6416593 1.7027711 1.0859835 -2.9420738e+38
3.6416266 1.6962186 1.0859835 -2.9154378e+38
3.6415942 1.6896664 1.0859835 -2.9153861e+38
3.6074753 1.6657649 1.0875055 -2.9153343e+38
3.5743592 1.6425015 1.0889826 -2.8753536e+38
3.5101659 1.6036634 1.0918473 -2.8484068e+38
3.4469757 1.5655738 1.0946673 -2.8484081e+38
3.4780228 1.5749731 1.0932797 -2.8486143e+38
3.4779918 1.5687312 1.0932797 -2.7818919e+38
3.5100408 1.5784522 1.0918473 -2.7151818e+38
3.5100095 1.5721495 1.0918473 nan
3.5099783 1.5658468 1.0918473 nan
3.5099468 1.559544 1.0918473 nan
3.5099156 1.5532411 1.0918473 nan
3.5098844 1.5469384 1.0918473 -3.301264e+38
3.5098531 1.5406356 1.0918473 -2.5423159e+38
3.5098217 1.5343329 1.0918473 -2.9299827e+38
3.5097904 1.5280302 1.0918473 -3.3026344e+38
3.5418358 1.5371416 1.090415 -3.3827001e+38
3.5418043 1.5307778 1.090415 nan
3.5417726 1.5244141 1.090415 nan
3.5417411 1.5180504 1.090415 nan
3.5417094 1.5116866 1.090415 -3.3823366e+38
3.541678 1.5053229 1.090415 -3.3692522e+38
3.5416462 1.4989592 1.090415 -3.3558561e+38
3.5416148 1.4925953 1.090415 -3.3427715e+38
3.5415831 1.4862317 1.090415 -3.3426155e+38
3.5415516 1.4798679 1.090415 -3.3560119e+38
3.5735939 1.4883091 1.0889826 -3.3957849e+38
3.5735619 1.4818844 1.0889826 nan
3.5750289 1.7774198 1.0825578 nan
3.5749969 1.770995 1.0825578 nan
3.574965 1.7645704 1.0825578 -2.9819509e+38
3.5428467 1.7407809 1.0840511 -3.0892795e+38
3.5749013 1.751721 1.0825578 -3.1821693e+38
3.5748694 1.7452964 1.0825578 -3.1422921e+38
3.5748374 1.7388717 1.0825578 -3.0890185e+38
3.5427203 1.715326 1.0840511 -3.0623814e+38
3.5426886 1.7089623 1.0840511 -3.0357441e+38
3.5747418 1.7195977 1.0825578 -3.0091589e+38
3.5426254 1.6962348 1.0840511 -2.9824699e+38
3.542594 1.6898711 1.0840511 -2.9957099e+38
3.5746462 1.7003236 1.0825578 -2.9955022e+38
3.5746143 1.6938989 1.0825578 -3.0085866e+38
3.5745823 1.6874743 1.0825578 -3.0085868e+38
3.6076362 1.6982027 1.0810179 -2.9819503e+38
3.607604 1.6917152 1.0810179 -2.9553661e+38
3.6075718 1.6852275 1.0810179 -2.9286779e+38
3.6075397 1.67874 1.0810179 -2.9020938e+38
3.6075075 1.6722525 1.0810179 -2.9020421e+38
3.6074753 1.6657649 1.0810179 -2.9019901e+38
3.6074431 1.6592774 1.0810179 -2.8753536e+38
3.5422466 1.6198701 1.0840511 -2.8485622e+38
3.4780538 1.5812149 1.0870378 -2.8750959e+38
3.4780228 1.5749731 1.0870378 -2.8884388e+38
3.4779918 1.5687312 1.0870378 -2.7819955e+38
3.5100408 1.5784522 1.0855445 -2.6763911e+38
3.5100095 1.5721495 1.0855445 nan
3.5099783 1.5658468 1.0855445 nan
3.5099468 1.559544 1.0855445 nan
3.5099156 1.5532411 1.0855445 nan
3.5419621 1.5625964 1.0840511 -3.3128959e+38
3.5419307 1.5562328 1.0840511 -2.6893102e+38
3.541899 1.5498689 1.0840511 -2.8641438e+38
3.5097904 1.5280302 1.0855445 -3.0368404e+38
3.5418358 1.5371416 1.0840511 -3.1966599e+38
3.5418043 1.5307778 1.0840511 -3.3425632e+38
3.5417726 1.5244141 1.0840511 -3.355492e+38
3.5417411 1.5180504 1.0840511 -3.3555442e+38
3.5417094 1.5116866 1.0840511 -3.3422002e+38
3.541678 1.5053229 1.0840511 -3.3156675e+38
3.5416462 1.4989592 1.0840511 -3.3157196e+38
3.5416148 1.4925953 1.0840511 -3.3024789e+38
3.5415831 1.4862317 1.0840511 -3.3423555e+38
3.5415516 1.4798679 1.0840511 -3.3690441e+38
3.5735939 1.4883091 1.0825578 -3.3956289e+38
3.5735619 1.4818844 1.0825578 nan
3.5750289 1.7774198 1.076133 nan
3.5749969 1.770995 1.076133 nan
3.574965 1.7645704 1.076133 -3.04753e+38
3.5428467 1.7407809 1.0776874 -3.1151384e+38
3.5749013 1.751721 1.076133 -3.1953068e+38
3.5748694 1.7452964 1.076133 -3.142189e+38
3.5427518 1.7216898 1.0776874 -3.1023112e+38
3.5427203 1.715326 1.0776874 -3.0756218e+38
3.5426886 1.7089623 1.0776874 -3.0489325e+38
3.5426571 1.7025986 1.0776874 -3.0223472e+38
3.5426254 1.6962348 1.0776874 -2.9957103e+38
3.542594 1.6898711 1.0776874 -2.9822618e+38
3.5746462 1.7003236 1.076133 -2.9688138e+38
3.5746143 1.6938989 1.076133 -2.9687616e+38
3.5745823 1.6874743 1.076133 -2.9818982e+38
3.6076362 1.6982027 1.0745301 -2.9686059e+38
3.607604 1.6917152 1.0745301 -2.9553142e+38
3.6416593 1.7027711 1.0728787 -2.9286781e+38
3.6416266 1.6962186 1.0728787 -2.902094e+38
3.6075075 1.6722525 1.0745301 -2.9020423e+38
3.6074753 1.6657649 1.0745301 -2.9019384e+38
3.6074431 1.6592774 1.0745301 -2.888594e+38
3.5422466 1.6198701 1.0776874 -2.8751466e+38
3.4780538 1.5812149 1.0807959 -2.8751989e+38
3.4780228 1.5749731 1.0807959 -2.8753017e+38
3.4779918 1.5687312 1.0807959 -2.7286702e+38
3.5100408 1.5784522 1.0792416 -2.5691661e+38
3.5100095 1.5721495 1.0792416 -3.2365351e+38
3.5099783 1.5658468 1.0792416 nan
3.5099468 1.559544 1.0792416 nan
3.5099156 1.5532411 1.0792416 nan
3.5098844 1.5469384 1.0792416 -3.2622722e+38
3.5098531 1.5406356 1.0792416 -2.9683964e+38
3.5098217 1.5343329 1.0792416 -3.0495082e+38
3.5097904 1.5280302 1.0792416 -3.1295225e+38
3.5097592 1.5217272 1.0792416 -3.2093289e+38
3.5418043 1.5307778 1.0776874 -3.3021669e+38
3.5417726 1.5244141 1.0776874 -3.2888225e+38
3.5417411 1.5180504 1.0776874 -3.2889268e+38
3.5417094 1.5116866 1.0776874 -3.2621347e+38
3.541678 1.5053229 1.0776874 -3.2222062e+38
3.5416462 1.4989592 1.0776874 -3.2355504e+38
3.5416148 1.4925953 1.0776874 -3.2488423e+38
3.5415831 1.4862317 1.0776874 -3.2756339e+38
3.5415516 1.4798679 1.0776874 -3.315615e+38
3.5735939 1.4883091 1.076133 -3.3558555e+38
3.5735619 1.4818844 1.076133 -3.3960455e+38
3.5750289 1.7774198 1.0697083 nan
3.5749969 1.770995 1.0697083 nan
3.574965 1.7645704 1.0697083 -3.1016364e+38
3.5749333 1.7581458 1.0697083 -3.1549637e+38
3.5749013 1.751721 1.0697083 -3.1951513e+38
3.6079583 1.7630781 1.0680425 -3.1553777e+38
3.5748374 1.7388717 1.0697083 -3.1021552e+38
3.5748057 1.7324469 1.0697083 -3.0888096e+38
3.6078618 1.7436154 1.0680425 -3.0622242e+38
3.6078296 1.7371279 1.0680425 -3.0355871e+38
3.5747099 1.7131729 1.0697083 -2.9955541e+38
3.5746782 1.7067482 1.0697083 -2.9688136e+38
3.5746462 1.7003236 1.0697083 -2.9289369e+38
3.5746143 1.6938989 1.0697083 -2.9422813e+38
3.6076684 1.7046902 1.0680425 -2.9553657e+38
3.6417243 1.7158755 1.0663264 -2.95521e+38
3.6416917 1.7093233 1.0663264 -2.9419702e+38
3.6416593 1.7027711 1.0663264 -2.9153341e+38
3.6416266 1.6962186 1.0663264 -2.8888017e+38
3.6415942 1.6896664 1.0663264 -2.8888538e+38
3.6415617 1.6831142 1.0663264 -2.8888017e+38
3.6074431 1.6592774 1.0680425 -2.8885938e+38
3.5743272 1.6360767 1.0697083 -2.8885942e+38
3.5101347 1.5973606 1.0729388 -2.8751466e+38
3.5101032 1.5910579 1.0729388 -2.8616464e+38
3.510072 1.5847551 1.0729388 -2.6616389e+38
3.5100408 1.5784522 1.0729388 -2.4628772e+38
3.5100095 1.5721495 1.0729388 -3.0094179e+38
3.5099783 1.5658468 1.0729388 nan
3.5099468 1.559544 1.0729388 -3.3848963e+38
3.5099156 1.5532411 1.0729388 -3.1977523e+38
3.5098844 1.5469384 1.0729388 -3.2221946e+38
3.5098531 1.5406356 1.0729388 -3.2353356e+38
3.5098217 1.5343329 1.0729388 -3.2226189e+38
3.5097904 1.5280302 1.0729388 -3.2091717e+38
3.5097592 1.5217272 1.0729388 -3.2355494e+38
3.5418043 1.5307778 1.0713235 -3.2487378e+38
3.5417726 1.5244141 1.0713235 -3.23529e+38
3.5417411 1.5180504 1.0713235 -3.2219979e+38
3.5417094 1.5116866 1.0713235 -3.1818616e+38
3.541678 1.5053229 1.0713235 -3.1289002e+38
3.5737214 1.5140078 1.0697083 -3.1686215e+38
3.5736895 1.5075831 1.0697083 -3.1955691e+38
3.5736575 1.5011584 1.0697083 -3.222309e+38
3.5415516 1.4798679 1.0713235 -3.2493611e+38
3.5735939 1.4883091 1.0697083 -3.3027902e+38
3.5735619 1.4818844 1.0697083 -3.3560646e+38
3.5750289 1.7774198 1.0632836 nan
3.5749969 1.770995 1.0632836 nan
3.574965 1.7645704 1.0632836 -3.0754696e+38
3.6080227 1.7760532 1.0615549 -3.1419834e+38
3.5749013 1.751721 1.0632836 -3.208444e+38
3.6079583 1.7630781 1.0615549 -3.1553777e+38
3.5748374 1.7388717 1.0632836 -3.1019992e+38
3.6078939 1.750103 1.0615549 -3.0755167e+38
3.6078618 1.7436154 1.0615549 -3.0622757e+38
3.6419194 1.7551894 1.059774 -3.0354307e+38
3.5747099 1.7131729 1.0632836 -3.0086904e+38
3.5746782 1.7067482 1.0632836 -2.9687614e+38
3.5746462 1.7003236 1.0632836 -2.9421254e+38
3.5746143 1.6938989 1.0632836 -2.9421258e+38
3.6076684 1.7046902 1.0615549 -2.9420219e+38
3.6076362 1.6982027 1.0615549 -2.9420217e+38
3.6416917 1.7093233 1.059774 -2.928782e+38
3.6416593 1.7027711 1.059774 -2.9154382e+38
3.6416266 1.6962186 1.059774 -2.9154384e+38
3.6075075 1.6722525 1.0615549 -2.9156461e+38
3.6074753 1.6657649 1.0615549 -2.9156978e+38
3.6074431 1.6592774 1.0615549 -2.9023532e+38
3.5743272 1.6360767 1.0632836 -2.9021978e+38
3.5101347 1.5973606 1.0666358 -2.8753019e+38
3.5101032 1.5910579 1.0666358 -2.8616468e+38
3.510072 1.5847551 1.0666358 -2.7016725e+38
3.5100408 1.5784522 1.0666358 -2.5284015e+38
3.5100095 1.5721495 1.0666358 -2.9157428e+38
3.5099783 1.5658468 1.0666358 -3.3023203e+38
3.5099468 1.559544 1.0666358 -3.3432984e+38
3.5099156 1.5532411 1.0666358 -3.3825978e+38
3.5098844 1.5469384 1.0666358 -3.3287994e+38
3.5098531 1.5406356 1.0666358 -3.2756311e+38
3.5098217 1.5343329 1.0666358 -3.2357029e+38
3.5097904 1.5280302 1.0666358 -3.2090672e+38
3.5418358 1.5371416 1.0649598 -3.2221526e+38
3.5418043 1.5307778 1.0649598 -3.2352895e+38
3.5417726 1.5244141 1.0649598 -3.2219455e+38
3.5417411 1.5180504 1.0649598 -3.2218419e+38
3.5417094 1.5116866 1.0649598 -3.1953093e+38
3.541678 1.5053229 1.0649598 -3.1554846e+38
3.5737214 1.5140078 1.0632836 -3.182173e+38
3.5736895 1.5075831 1.0632836 -3.2089131e+38
3.5736575 1.5011584 1.0632836 -3.2226723e+38
3.5736258 1.4947337 1.0632836 -3.2496726e+38
3.5735939 1.4883091 1.0632836 -3.3028419e+38
3.5750289 1.7774198 1.0568588 nan
3.5749969 1.770995 1.0568588 nan
3.574965 1.7645704 1.0568588 -3.0363716e+38
3.6080227 1.7760532 1.0550673 -3.1291014e+38
3.6079905 1.7695657 1.0550673 -3.2087005e+38
3.6079583 1.7630781 1.0550673 -3.1556365e+38
3.6079261 1.7565905 1.0550673 -3.1022582e+38
3.6078939 1.750103 1.0550673 -3.0755686e+38
3.6078618 1.7436154 1.0550673 -3.0488279e+38
3.6078296 1.7371279 1.0550673 -3.0351717e+38
3.5747099 1.7131729 1.0568588 -3.0218797e+38
3.5746782 1.7067482 1.0568588 -2.981899e+38
3.5746462 1.7003236 1.0568588 -2.9420741e+38
3.5746143 1.6938989 1.0568588 -2.942126e+38
3.5745823 1.6874743 1.0568588 -2.9287816e+38
3.6076362 1.6982027 1.0550673 -2.9288333e+38
3.6416917 1.7093233 1.0532216 -2.9154893e+38
3.6416593 1.7027711 1.0532216 -2.9287298e+38
3.6416266 1.6962186 1.0532216 -2.9289375e+38
3.6075075 1.6722525 1.0550673 -2.9424896e+38
3.6074753 1.6657649 1.0550673 -2.9425414e+38
3.5743592 1.6425015 1.0568588 -2.9294566e+38
3.5743272 1.6360767 1.0568588 -2.9024051e+38
3.5101347 1.5973606 1.060333 -2.8888538e+38
3.5101032 1.5910579 1.060333 -2.8618026e+38
3.510072 1.5847551 1.060333 -2.7283092e+38
3.5100408 1.5784522 1.060333 -2.595747e+38
3.5100095 1.5721495 1.060333 -2.8228555e+38
3.5099783 1.5658468 1.060333 -3.0364737e+38
3.5099468 1.559544 1.060333 -3.303261e+38
3.5099156 1.5532411 1.060333 nan
3.5098844 1.5469384 1.060333 nan
3.5098531 1.5406356 1.060333 -3.3153002e+38
3.5098217 1.5343329 1.060333 -3.2621315e+38
3.5097904 1.5280302 1.060333 -3.1956188e+38
3.5418358 1.5371416 1.0585959 -3.2087561e+38
3.5418043 1.5307778 1.0585959 -3.2087046e+38
3.5417726 1.5244141 1.0585959 -3.2218936e+38
3.5417411 1.5180504 1.0585959 -3.2219977e+38
3.5417094 1.5116866 1.0585959 -3.2087575e+38
3.541678 1.5053229 1.0585959 -3.1822768e+38
3.5737214 1.5140078 1.0568588 -3.2090171e+38
3.5736895 1.5075831 1.0568588 -3.2225688e+38
3.5736575 1.5011584 1.0568588 -3.2362763e+38
3.5415516 1.4798679 1.0585959 -3.2362765e+38
3.5415199 1.4735042 1.0585959 -3.289446e+38
3.5750289 1.7774198 1.050434 nan
3.5749969 1.770995 1.050434 nan
3.574965 1.7645704 1.050434 nan
3.5749333 1.7581458 1.050434 -3.2482595e+38
3.6079905 1.7695657 1.0485797 -3.0358459e+38
3.6079583 1.7630781 1.0485797 -3.0758818e+38
3.6079261 1.7565905 1.0485797 -3.1023617e+38
3.6078939 1.750103 1.0485797 -3.0756205e+38
3.6078618 1.7436154 1.0485797 -3.0487764e+38
3.6078296 1.7371279 1.0485797 -3.0086397e+38
3.5747099 1.7131729 1.050434 -2.9818998e+38
3.5746782 1.7067482 1.050434 -2.9686596e+38
3.6077328 1.7176653 1.0485797 -2.9420747e+38
3.5746143 1.6938989 1.050434 -2.9553665e+38
3.6076684 1.7046902 1.0485797 -2.9552623e+38
3.6076362 1.6982027 1.0485797 -2.9554696e+38
3.6416917 1.7093233 1.0466692 -2.9553657e+38
3.6416593 1.7027711 1.0466692 -2.9688657e+38
3.6416266 1.6962186 1.0466692 -2.9823137e+38
3.5744231 1.6553508 1.050434 -2.9691772e+38
3.5743911 1.6489261 1.050434 -2.9692811e+38
3.5743592 1.6425015 1.050434 -2.9425925e+38
3.5743272 1.6360767 1.050434 -2.9157491e+38
3.5101347 1.5973606 1.0540302 -2.8889575e+38
3.5101032 1.5910579 1.0540302 -2.8619583e+38
3.510072 1.5847551 1.0540302 -2.7686014e+38
3.5100408 1.5784522 1.0540302 -2.6755543e+38
3.5100095 1.5721495 1.0540302 -2.8361506e+38
3.5099783 1.5658468 1.0540302 -3.0098362e+38
3.5099468 1.559544 1.0540302 -3.195983e+38
3.5099156 1.5532411 1.0540302 -3.3817107e+38
3.5098844 1.5469384 1.0540302 -3.3151444e+38
3.5098531 1.5406356 1.0540302 -3.2353908e+38
3.5098217 1.5343329 1.0540302 -3.2088581e+38
3.5097904 1.5280302 1.0540302 -3.1690338e+38
3.5418358 1.5371416 1.052232 -3.1821709e+38
3.5418043 1.5307778 1.052232 -3.1821717e+38
3.5417726 1.5244141 1.052232 -3.1954129e+38
3.5417411 1.5180504 1.052232 -3.2088094e+38
3.5417094 1.5116866 1.052232 -3.2089135e+38
3.541678 1.5053229 1.052232 -3.1957249e+38
3.5737214 1.5140078 1.050434 -3.2092246e+38
3.5736895 1.5075831 1.050434 -3.2227246e+38
3.5415831 1.4862317 1.052232 -3.2228282e+38
3.5415516 1.4798679 1.052232 -3.2361728e+38
3.5415199 1.4735042 1.052232 -3.289446e+38
3.5750289 1.7774198 1.0440092 nan
3.5749969 1.770995 1.0440092 nan
3.6080549 1.7825407 1.0420921 nan
3.6421146 1.7945032 1.0401168 -3.3805094e+38
3.6079905 1.7695657 1.0420921 -2.8626838e+38
3.6079583 1.7630781 1.0420921 -2.9830956e+38
3.6079261 1.7565905 1.0420921 -3.1024659e+38
3.6078939 1.750103 1.0420921 -3.0758288e+38
3.6078618 1.7436154 1.0420921 -3.0355368e+38
3.6078296 1.7371279 1.0420921 -2.9953486e+38
3.5747099 1.7131729 1.0440092 -2.9421795e+38
3.5746782 1.7067482 1.0440092 -2.9420759e+38
3.6077328 1.7176653 1.0420921 -2.9421793e+38
3.6077006 1.7111778 1.0420921 -2.9687637e+38
3.6076684 1.7046902 1.0420921 -2.9822113e+38
3.6417243 1.7158755 1.0401168 -2.9956072e+38
3.6416917 1.7093233 1.0401168 -2.9956592e+38
3.6416593 1.7027711 1.0401168 -3.0090034e+38
3.6075397 1.67874 1.0420921 -3.0222952e+38
3.5744231 1.6553508 1.0440092 -3.0091066e+38
3.5743911 1.6489261 1.0440092 -2.9824701e+38
3.5743592 1.6425015 1.0440092 -2.9558856e+38
3.5743272 1.6360767 1.0440092 -2.9159051e+38
3.5422149 1.6135063 1.0458683 -2.889269e+38
3.5421834 1.6071426 1.0458683 -2.8621139e+38
3.5421517 1.6007788 1.0458683 -2.8085302e+38
3.5421202 1.5944152 1.0458683 -2.7423274e+38
3.5420885 1.5880513 1.0458683 -2.8628915e+38
3.5099783 1.5658468 1.0477273 -2.9695437e+38
3.5099468 1.559544 1.0477273 -3.0890211e+38
3.5099156 1.5532411 1.0477273 -3.2087032e+38
3.5098844 1.5469384 1.0477273 -3.1820146e+38
3.5098531 1.5406356 1.0477273 -3.1555336e+38
3.5098217 1.5343329 1.0477273 -3.1555854e+38
3.5097904 1.5280302 1.0477273 -3.1422933e+38
3.5418358 1.5371416 1.0458683 -3.1554821e+38
3.5418043 1.5307778 1.0458683 -3.1555866e+38
3.5417726 1.5244141 1.0458683 -3.1821198e+38
3.5417411 1.5180504 1.0458683 -3.1956202e+38
3.5417094 1.5116866 1.0458683 -3.2090165e+38
3.541678 1.5053229 1.0458683 -3.2091721e+38
3.5737214 1.5140078 1.0440092 -3.2093796e+38
3.5736895 1.5075831 1.0440092 -3.20938e+38
3.5736575 1.5011584 1.0440092 -3.2227244e+38
3.5736258 1.4947337 1.0440092 -3.2361733e+38
3.5415199 1.4735042 1.0458683 -3.2894468e+38
3.5750289 1.7774198 1.0375844 nan
3.5749969 1.770995 1.0375844 nan
3.574965 1.7645704 1.0375844 nan
3.6080227 1.7760532 1.0356045 nan
3.6079905 1.7695657 1.0356045 -2.9418155e+38
3.6079583 1.7630781 1.0356045 -3.0222455e+38
3.6079261 1.7565905 1.0356045 -3.1156026e+38
3.6078939 1.750103 1.0356045 -3.0755696e+38
3.6078618 1.7436154 1.0356045 -3.0221415e+38
3.6078296 1.7371279 1.0356045 -2.9955056e+38
3.6077971 1.7306404 1.0356045 -2.9556286e+38
3.607765 1.7241528 1.0356045 -2.9555765e+38
3.6077328 1.7176653 1.0356045 -2.942284e+38
3.6077006 1.7111778 1.0356045 -2.9557837e+38
3.6076684 1.7046902 1.0356045 -2.9693874e+38
3.6417243 1.7158755 1.0335644 -2.9826275e+38
3.6416917 1.7093233 1.0335644 -2.9959717e+38
3.6416593 1.7027711 1.0335644 -3.0091602e+38
3.6416266 1.6962186 1.0335644 -3.022348e+38
3.5744231 1.6553508 1.0375844 -3.0090551e+38
3.6074753 1.6657649 1.0356045 -2.9956592e+38
3.5743592 1.6425015 1.0375844 -2.9558862e+38
3.5743272 1.6360767 1.0375844 -2.9292497e+38
3.5422149 1.6135063 1.0395045 -2.9024572e+38
3.5421834 1.6071426 1.0395045 -2.8754581e+38
3.5421517 1.6007788 1.0395045 -2.8085821e+38
3.5421202 1.5944152 1.0395045 -2.7552047e+38
3.5420885 1.5880513 1.0395045 -2.9955553e+38
3.5099783 1.5658468 1.0414245 -3.2354932e+38
3.5099468 1.559544 1.0414245 -3.2352873e+38
3.5419939 1.5689602 1.0395045 -3.2351839e+38
3.5098844 1.5469384 1.0414245 -3.2086514e+38
3.5098531 1.5406356 1.0414245 -3.1821186e+38
3.5098217 1.5343329 1.0414245 -3.1821182e+38
3.5097904 1.5280302 1.0414245 -3.1820663e+38
3.5418358 1.5371416 1.0395045 -3.1821699e+38
3.5418043 1.5307778 1.0395045 -3.1822224e+38
3.5417726 1.5244141 1.0395045 -3.2089113e+38
3.5417411 1.5180504 1.0395045 -3.2223597e+38
3.5417094 1.5116866 1.0395045 -3.235756e+38
3.541678 1.5053229 1.0395045 -3.2623404e+38
3.5737214 1.5140078 1.0375844 -3.262496e+38
3.5416148 1.4925953 1.0395045 -3.2624968e+38
3.5415831 1.4862317 1.0395045 -3.2758935e+38
3.5415516 1.4798679 1.0395045 -3.2892909e+38
3.5415199 1.4735042 1.0395045 -3.3159284e+38
3.5750289 1.7774198 1.0311598 nan
3.5749969 1.770995 1.0311598 nan
3.574965 1.7645704 1.0311598 nan
3.5749333 1.7581458 1.0311598 nan
3.6079905 1.7695657 1.0291169 -3.0086419e+38
3.6079583 1.7630781 1.0291169 -3.0750524e+38
3.6079261 1.7565905 1.0291169 -3.1286889e+38
3.6078939 1.750103 1.0291169 -3.0754159e+38
3.6078618 1.7436154 1.0291169 -3.0089026e+38
3.6078296 1.7371279 1.0291169 -2.9955066e+38
3.6077971 1.7306404 1.0291169 -2.9689734e+38
3.607765 1.7241528 1.0291169 -2.9556807e+38
3.6077328 1.7176653 1.0291169 -2.9424919e+38
3.6077006 1.7111778 1.0291169 -2.9559914e+38
3.6076684 1.7046902 1.0291169 -2.9560432e+38
3.6076362 1.6982027 1.0291169 -2.9827316e+38
3.607604 1.6917152 1.0291169 -2.9959717e+38
3.6075718 1.6852275 1.0291169 -3.009264e+38
3.6075397 1.67874 1.0291169 -3.0224524e+38
3.5744231 1.6553508 1.0311598 -3.0224005e+38
3.5743911 1.6489261 1.0311598 -3.0090561e+38
3.5422781 1.6262337 1.0331407 -2.9692312e+38
3.5422466 1.6198701 1.0331407 -2.9293018e+38
3.5422149 1.6135063 1.0331407 -2.9025611e+38
3.5421834 1.6071426 1.0331407 -2.8754581e+38
3.5421517 1.6007788 1.0331407 -2.8216667e+38
3.5421202 1.5944152 1.0331407 -2.7555688e+38
3.5420885 1.5880513 1.0331407 -3.1286872e+38
3.542057 1.5816877 1.0331407 nan
3.5099468 1.559544 1.0351217 -3.3680543e+38
3.5419939 1.5689602 1.0331407 -3.2484762e+38
3.5098844 1.5469384 1.0351217 -3.2351843e+38
3.5098531 1.5406356 1.0351217 -3.2086514e+38
3.5098217 1.5343329 1.0351217 -3.2219433e+38
3.5418675 1.5435053 1.0331407 -3.2220472e+38
3.5418358 1.5371416 1.0331407 -3.222151e+38
3.5418043 1.5307778 1.0331407 -3.2089628e+38
3.5417726 1.5244141 1.0331407 -3.2356516e+38
3.5417411 1.5180504 1.0331407 -3.2490481e+38
3.5417094 1.5116866 1.0331407 -3.2757891e+38
3.541678 1.5053229 1.0331407 -3.3023215e+38
3.5737214 1.5140078 1.0311598 -3.3156657e+38
3.5736895 1.5075831 1.0311598 -3.3156657e+38
3.5415831 1.4862317 1.0331407 -3.329062e+38
3.5736258 1.4947337 1.0311598 -3.3424592e+38
3.5735939 1.4883091 1.0311598 -3.3424602e+38
3.5750289 1.7774198 1.024735 nan
3.5749969 1.770995 1.024735 nan
3.574965 1.7645704 1.024735 nan
3.5749333 1.7581458 1.024735 nan
3.6079905 1.7695657 1.0226293 -3.0216762e+38
3.6079583 1.7630781 1.0226293 -2.9954555e+38
3.6079261 1.7565905 1.0226293 -2.9695985e+38
3.6078939 1.750103 1.0226293 -2.9957681e+38
3.6078618 1.7436154 1.0226293 -3.0089561e+38
3.6078296 1.7371279 1.0226293 -2.9955594e+38
3.6077971 1.7306404 1.0226293 -2.968974e+38
3.607765 1.7241528 1.0226293 -2.9690251e+38
3.6077328 1.7176653 1.0226293 -2.9558361e+38
3.6077006 1.7111778 1.0226293 -2.9691797e+38
3.6076684 1.7046902 1.0226293 -2.9825758e+38
3.6076362 1.6982027 1.0226293 -2.99592e+38
3.607604 1.6917152 1.0226293 -3.0225565e+38
3.6075718 1.6852275 1.0226293 -3.0224524e+38
3.6075397 1.67874 1.0226293 -3.0356934e+38
3.5744231 1.6553508 1.024735 -3.0223498e+38
3.5743911 1.6489261 1.024735 -3.0090052e+38
3.5422781 1.6262337 1.0267768 -2.9559395e+38
3.5422466 1.6198701 1.0267768 -2.9027696e+38
3.5101347 1.5973606 1.0288187 -2.8759765e+38
3.5101032 1.5910579 1.0288187 -2.8622697e+38
3.510072 1.5847551 1.0288187 -2.8085821e+38
3.5100408 1.5784522 1.0288187 -2.75531e+38
3.5100095 1.5721495 1.0288187 -3.0888118e+38
3.5099783 1.5658468 1.0288187 nan
3.5099468 1.559544 1.0288187 -3.3550217e+38
3.5419939 1.5689602 1.0267768 -3.2750609e+38
3.5098844 1.5469384 1.0288187 -3.2486845e+38
3.5419307 1.5562328 1.0267768 -3.2352362e+38
3.541899 1.5498689 1.0267768 -3.2354435e+38
3.5418675 1.5435053 1.0267768 -3.2354437e+38
3.5418358 1.5371416 1.0267768 -3.2355995e+38
3.5418043 1.5307778 1.0267768 -3.2357033e+38
3.5417726 1.5244141 1.0267768 -3.2490475e+38
3.5417411 1.5180504 1.0267768 -3.2623925e+38
3.5417094 1.5116866 1.0267768 -3.2757893e+38
3.541678 1.5053229 1.0267768 -3.2890296e+38
3.5737214 1.5140078 1.024735 -3.3023219e+38
3.5736895 1.5075831 1.024735 -3.3156138e+38
3.5415831 1.4862317 1.0267768 -3.3157689e+38
3.5736258 1.4947337 1.024735 -3.3291661e+38
3.5735939 1.4883091 1.024735 -3.3425111e+38
3.5429413 1.7598722 1.020413 nan
3.5749969 1.770995 1.0183102 nan
3.5428782 1.7471447 1.020413 nan
3.5749333 1.7581458 1.0183102 nan
3.6079905 1.7695657 1.0161417 -3.0232873e+38
3.6079583 1.7630781 1.0161417 -2.915542e+38
3.6079261 1.7565905 1.0161417 -2.8093099e+38
3.6078939 1.750103 1.0161417 -2.915858e+38
3.6078618 1.7436154 1.0161417 -3.0087995e+38
3.6078296 1.7371279 1.0161417 -2.9954028e+38
3.6077971 1.7306404 1.0161417 -2.9689217e+38
3.5746782 1.7067482 1.0183102 -2.9689732e+38
3.5746462 1.7003236 1.0183102 -2.9690768e+38
3.6077006 1.7111778 1.0161417 -2.9823687e+38
3.5745823 1.6874743 1.0183102 -2.9957125e+38
3.6076362 1.6982027 1.0161417 -3.0223488e+38
3.607604 1.6917152 1.0161417 -3.0355891e+38
3.6075718 1.6852275 1.0161417 -3.0354853e+38
3.6075397 1.67874 1.0161417 -3.0355893e+38
3.5744231 1.6553508 1.0183102 -3.0221936e+38
3.5743911 1.6489261 1.0183102 -3.0090567e+38
3.5422781 1.6262337 1.020413 -2.9428028e+38
3.5422466 1.6198701 1.020413 -2.8761848e+38
3.5101347 1.5973606 1.0225159 -2.8627879e+38
3.5101032 1.5910579 1.0225159 -2.8356839e+38
3.510072 1.5847551 1.0225159 -2.7950799e+38
3.5100408 1.5784522 1.0225159 -2.7553613e+38
3.5100095 1.5721495 1.0225159 -3.0629556e+38
3.5099783 1.5658468 1.0225159 -3.3687819e+38
3.5420253 1.5753239 1.020413 -3.3287493e+38
3.5419939 1.5689602 1.020413 -3.2889765e+38
3.5098844 1.5469384 1.0225159 -3.2757361e+38
3.5098531 1.5406356 1.0225159 -3.2490475e+38
3.541899 1.5498689 1.020413 -3.249151e+38
3.5418675 1.5435053 1.020413 -3.2490992e+38
3.5418358 1.5371416 1.020413 -3.2491512e+38
3.509728 1.5154245 1.0225159 -3.2491514e+38
3.5417726 1.5244141 1.020413 -3.2624438e+38
3.5417411 1.5180504 1.020413 -3.2624964e+38
3.5417094 1.5116866 1.020413 -3.2758414e+38
3.541678 1.5053229 1.020413 -3.2757893e+38
3.5416462 1.4989592 1.020413 -3.3023217e+38
3.5416148 1.4925953 1.020413 -3.3157176e+38
3.5415831 1.4862317 1.020413 -3.3157693e+38
3.5736258 1.4947337 1.0183102 -3.3025294e+38
3.5735939 1.4883091 1.0183102 -3.3424586e+38
3.5429413 1.7598722 1.0140493 nan
3.5749969 1.770995 1.0118854 nan
3.574965 1.7645704 1.0118854 nan
3.5749333 1.7581458 1.0118854 nan
3.6079905 1.7695657 1.009654 -3.3965629e+38
3.6079583 1.7630781 1.009654 -3.1151816e+38
3.6079261 1.7565905 1.009654 -2.8349055e+38
3.6078939 1.750103 1.009654 -2.9420785e+38
3.6078618 1.7436154 1.009654 -3.0351756e+38
3.6078296 1.7371279 1.009654 -3.0086941e+38
3.6077971 1.7306404 1.009654 -2.9822655e+38
3.607765 1.7241528 1.009654 -2.9823174e+38
3.6077328 1.7176653 1.009654 -2.9956616e+38
3.6077006 1.7111778 1.009654 -3.008902e+38
3.6076684 1.7046902 1.009654 -3.0221417e+38
3.6076362 1.6982027 1.009654 -3.0221928e+38
3.607604 1.6917152 1.009654 -3.0354334e+38
3.6075718 1.6852275 1.009654 -3.0355372e+38
3.6075397 1.67874 1.009654 -3.0355891e+38
3.5744231 1.6553508 1.0118854 -3.0222449e+38
3.5743911 1.6489261 1.0118854 -3.0090044e+38
3.5422781 1.6262337 1.0140493 -2.955887e+38
3.5422466 1.6198701 1.0140493 -2.9027171e+38
3.5422149 1.6135063 1.0140493 -2.8760278e+38
3.5101032 1.5910579 1.0162131 -2.8491305e+38
3.510072 1.5847551 1.0162131 -2.7948179e+38
3.5100408 1.5784522 1.0162131 -2.7536474e+38
3.5100095 1.5721495 1.0162131 -3.0755224e+38
3.5099783 1.5658468 1.0162131 nan
3.5099468 1.559544 1.0162131 -3.3691459e+38
3.5099156 1.5532411 1.0162131 -3.3294247e+38
3.5098844 1.5469384 1.0162131 -3.3025801e+38
3.5098531 1.5406356 1.0162131 -3.2759434e+38
3.5098217 1.5343329 1.0162131 -3.2625988e+38
3.5097904 1.5280302 1.0162131 -3.2360664e+38
3.5097592 1.5217272 1.0162131 -3.2360144e+38
3.509728 1.5154245 1.0162131 -3.249359e+38
3.5417726 1.5244141 1.0140493 -3.2359631e+38
3.5417411 1.5180504 1.0140493 -3.235912e+38
3.5417094 1.5116866 1.0140493 -3.2492568e+38
3.541678 1.5053229 1.0140493 -3.2757891e+38
3.5416462 1.4989592 1.0140493 -3.2891329e+38
