# .PCD v0.7 - Point Cloud Data file format
VERSION 0.7
FIELDS x y z rgb
SIZE 4 4 4 4
TYPE F F F F
COUNT 1 1 1 1
WIDTH 1070
HEIGHT 1
VIEWPOINT 0 0 0 1 0 0 0
POINTS 1070
DATA ascii
-0.13655239 -0.78059053 2.1400001 -2.5422173e+38
-0.1324762 -0.78059053 2.1400001 -2.5157362e+38
-0.12918001 -0.78533244 2.1530001 -2.5024954e+38
-0.12507905 -0.78533244 2.1530001 -2.4758587e+38
-0.12176477 -0.79043913 2.1670001 -2.489151e+38
-0.11763715 -0.79043913 2.1670001 -2.5023912e+38
-0.11350953 -0.79043913 2.1670001 -2.5155796e+38
-0.10938191 -0.79043913 2.1670001 -2.5289238e+38
-0.10525429 -0.79043913 2.1670001 -2.5156317e+38
-0.10178 -0.79554576 2.181 -2.4890991e+38
-0.097625718 -0.79554576 2.181 -2.5023396e+38
-0.093471438 -0.79554576 2.181 -2.5156839e+38
-0.08931715 -0.79554576 2.181 -2.5024437e+38
-0.085670479 -0.80028766 2.194 -2.4891512e+38
-0.082011431 -0.80539435 2.2080002 -2.5157358e+38
-0.07780572 -0.80539435 2.2080002 -2.5290279e+38
-0.073600002 -0.80539435 2.2080002 -2.5290796e+38
-0.06939429 -0.80539435 2.2080002 -2.5289761e+38
-0.065188579 -0.80539435 2.2080002 -2.595386e+38
-0.060982861 -0.80539435 2.2080002 -2.648503e+38
-0.057162862 -0.81086576 2.223 -2.6616395e+38
-0.052571431 -0.80539435 2.2080002 -2.6755052e+38
-0.04869429 -0.81086576 2.223 -2.8363128e+38
-0.044460002 -0.81086576 2.223 -2.995301e+38
-0.040225718 -0.81086576 2.223 -2.5554096e+38
-0.03599143 -0.81086576 2.223 -2.1045126e+38
-0.031957146 -0.81597245 2.237 -2.4240487e+38
-0.027881907 -0.82144386 2.2520001 -2.7315402e+38
-0.023739049 -0.82655054 2.266 -3.3178582e+38
-0.01955143 -0.83202195 2.2810001 nan
-0.015206668 -0.83202195 2.2810001 nan
-0.010938096 -0.83785814 2.2970002 nan
-0.0065628574 -0.83785814 2.2970002 nan
-0.002201905 -0.84332961 2.312 nan
0.002201905 -0.84332961 2.312 nan
0.0066485717 -0.84880102 2.3270001 nan
0.011157144 -0.85463721 2.3430002 nan
0.015726667 -0.86047339 2.3590002 nan
0.020220002 -0.86047339 2.3590002 nan
0.024713336 -0.86047339 2.3590002 nan
0.029417144 -0.86667436 2.3760002 nan
-0.3212086 -0.66874576 1.8430001 nan
-0.3159743 -0.6651172 1.8330001 nan
-0.31248286 -0.6651172 1.8330001 nan
-0.30747432 -0.66185147 1.8240001 nan
-0.30233335 -0.65822291 1.8140001 nan
-0.29723048 -0.6545943 1.8040001 nan
-0.2937943 -0.6545943 1.8040001 -3.3021101e+38
-0.29035813 -0.6545943 1.8040001 -2.4629871e+38
-0.28549048 -0.65132862 1.7950001 -3.3700333e+38
-0.28207144 -0.65132862 1.7950001 nan
-0.2786524 -0.65132862 1.7950001 nan
-0.27385336 -0.64806288 1.7860001 nan
-0.27045146 -0.64806288 1.7860001 nan
-0.26704955 -0.64806288 1.7860001 nan
-0.26364765 -0.64806288 1.7860001 nan
-0.26024574 -0.64806288 1.7860001 nan
-0.25554955 -0.64479721 1.7770001 nan
-0.25216478 -0.64479721 1.7770001 nan
-0.24878001 -0.64479721 1.7770001 nan
-0.24539526 -0.64479721 1.7770001 nan
-0.24201049 -0.64479721 1.7770001 nan
-0.23862574 -0.64479721 1.7770001 nan
-0.23524097 -0.64479721 1.7770001 nan
-0.23185621 -0.64479721 1.7770001 nan
-0.22962859 -0.64806288 1.7860001 nan
-0.22736669 -0.65132862 1.7950001 nan
-0.22394763 -0.65132862 1.7950001 nan
-0.24371906 -0.73115718 2.0150001 nan
-0.23845239 -0.72680289 2.003 nan
-0.23604287 -0.73115718 2.0150001 nan
-0.23220478 -0.73115718 2.0150001 -3.0767196e+38
-0.22972669 -0.73551148 2.0270002 -3.0229777e+38
-0.22586572 -0.73551148 2.0270002 -2.9696531e+38
-0.22331907 -0.73986578 2.039 -2.8763475e+38
-0.22072668 -0.74422008 2.0510001 -2.7964338e+38
-0.21808858 -0.74857432 2.0630002 -2.7290852e+38
-0.21550858 -0.75329149 2.0760002 -2.6488121e+38
-0.21277715 -0.75764579 2.0880001 -2.6087274e+38
-0.20880002 -0.75764579 2.0880001 -2.5685394e+38
-0.20609811 -0.7623629 2.1010001 -2.5552995e+38
-0.20209621 -0.7623629 2.1010001 -2.5420076e+38
-0.19809429 -0.7623629 2.1010001 -2.5287674e+38
-0.19409239 -0.7623629 2.1010001 -2.5155277e+38
-0.19126669 -0.76708007 2.1140001 -2.5155281e+38
-0.18608858 -0.7623629 2.1010001 -2.5155798e+38
-0.18321334 -0.76708007 2.1140001 -2.5156834e+38
-0.17918667 -0.76708007 2.1140001 -2.5156839e+38
-0.17516001 -0.76708007 2.1140001 -2.5422169e+38
-0.17113334 -0.76708007 2.1140001 -2.5556132e+38
-0.16710667 -0.76708007 2.1140001 -2.5688536e+38
-0.16308001 -0.76708007 2.1140001 -2.5821978e+38
-0.15905334 -0.76708007 2.1140001 -2.5823014e+38
-0.15598001 -0.77179718 2.1270001 -2.5957497e+38
-0.15192859 -0.77179718 2.1270001 -2.595646e+38
-0.14787716 -0.77179718 2.1270001 -2.5955426e+38
-0.14470477 -0.77651435 2.1400001 -2.5821986e+38
-0.14062858 -0.77651435 2.1400001 -2.5688023e+38
-0.13738191 -0.78123146 2.1530001 -2.5422694e+38
-0.13328096 -0.78123146 2.1530001 -2.5289769e+38
-0.12918001 -0.78123146 2.1530001 -2.5157364e+38
-0.12507905 -0.78123146 2.1530001 -2.5024439e+38
-0.12176477 -0.78631151 2.1670001 -2.5024437e+38
-0.11763715 -0.78631151 2.1670001 -2.5156836e+38
-0.11350953 -0.78631151 2.1670001 -2.5156313e+38
-0.10938191 -0.78631151 2.1670001 -2.5289236e+38
-0.10525429 -0.78631151 2.1670001 -2.5156313e+38
-0.10112667 -0.78631151 2.1670001 -2.5156313e+38
-0.097625718 -0.79139149 2.181 -2.5156313e+38
-0.093471438 -0.79139149 2.181 -2.5289759e+38
-0.08931715 -0.79139149 2.181 -2.5157358e+38
-0.085670479 -0.7961086 2.194 -2.5024952e+38
-0.081491433 -0.7961086 2.194 -2.5157354e+38
-0.077312388 -0.7961086 2.194 -2.5422678e+38
-0.073600002 -0.80118865 2.2080002 -2.529027e+38
-0.06939429 -0.80118865 2.2080002 -2.5289755e+38
-0.065188579 -0.80118865 2.2080002 -2.5821448e+38
-0.060982861 -0.80118865 2.2080002 -2.6353144e+38
-0.056777146 -0.80118865 2.2080002 -2.6483474e+38
-0.052571431 -0.80118865 2.2080002 -2.6745689e+38
-0.04869429 -0.80663151 2.223 -2.7821535e+38
-0.044460002 -0.80663151 2.223 -2.9026162e+38
-0.040225718 -0.80663151 2.223 -2.662318e+38
-0.03599143 -0.80663151 2.223 -2.4359835e+38
-0.031757146 -0.80663151 2.223 -2.5297022e+38
-0.027696192 -0.81171149 2.237 -2.6226515e+38
-0.023592383 -0.81715435 2.2520001 -2.7839311e+38
-0.019422859 -0.82223433 2.266 -2.9587075e+38
-0.015206668 -0.82767719 2.2810001 nan
-0.010938096 -0.83348292 2.2970002 nan
-0.0065171435 -0.82767719 2.2810001 nan
-0.0021876192 -0.83348292 2.2970002 nan
0.002201905 -0.83892578 2.312 nan
0.0066057146 -0.83892578 2.312 nan
0.011009525 -0.83892578 2.312 nan
0.015620001 -0.85017437 2.3430002 nan
0.020220002 -0.85598004 2.3590002 nan
0.024713336 -0.85598004 2.3590002 nan
0.029417144 -0.86214864 2.3760002 nan
0.03394286 -0.86214864 2.3760002 nan
0.038468573 -0.86214864 2.3760002 nan
-0.32295144 -0.66884482 1.853 nan
-0.31769812 -0.66523528 1.8430001 nan
-0.31418765 -0.66523528 1.8430001 nan
-0.30899146 -0.66162574 1.8330001 nan
-0.30233335 -0.65476763 1.8140001 nan
-0.2988781 -0.65476763 1.8140001 nan
-0.2937943 -0.65115815 1.8040001 -3.1798825e+38
-0.29035813 -0.65115815 1.8040001 -2.2774142e+38
-0.28549048 -0.64790958 1.7950001 -3.2252212e+38
-0.28207144 -0.64790958 1.7950001 nan
-0.2786524 -0.64790958 1.7950001 nan
-0.27523336 -0.64790958 1.7950001 nan
-0.27181432 -0.64790958 1.7950001 nan
-0.26704955 -0.64466101 1.7860001 nan
-0.26364765 -0.64466101 1.7860001 nan
-0.26024574 -0.64466101 1.7860001 nan
-0.25684384 -0.64466101 1.7860001 nan
-0.25344193 -0.64466101 1.7860001 nan
-0.25004002 -0.64466101 1.7860001 nan
-0.2466381 -0.64466101 1.7860001 nan
-0.2432362 -0.64466101 1.7860001 nan
-0.23983431 -0.64466101 1.7860001 nan
-0.2364324 -0.64466101 1.7860001 nan
-0.2330305 -0.64466101 1.7860001 nan
-0.23078573 -0.64790958 1.7950001 nan
-0.22736669 -0.64790958 1.7950001 nan
-0.22394763 -0.64790958 1.7950001 nan
-0.24371906 -0.72731912 2.0150001 nan
-0.23988096 -0.72731912 2.0150001 nan
-0.23604287 -0.72731912 2.0150001 nan
-0.23220478 -0.72731912 2.0150001 -2.9161734e+38
-0.22836669 -0.72731912 2.0150001 -2.942861e+38
-0.22586572 -0.73165053 2.0270002 -2.9694975e+38
-0.22331907 -0.73598194 2.039 -2.8900034e+38
-0.22072668 -0.74031341 2.0510001 -2.8097792e+38
-0.21808858 -0.74464482 2.0630002 -2.7291915e+38
-0.21550858 -0.7493372 2.0760002 -2.6491774e+38
-0.21277715 -0.75366861 2.0880001 -2.6090401e+38
-0.20880002 -0.75366861 2.0880001 -2.5555076e+38
-0.20609811 -0.75836098 2.1010001 -2.5421116e+38
-0.20209621 -0.75836098 2.1010001 -2.5287155e+38
-0.19809429 -0.75836098 2.1010001 -2.5153713e+38
-0.19409239 -0.75836098 2.1010001 -2.5021833e+38
-0.19009049 -0.75836098 2.1010001 -2.5021835e+38
-0.18608858 -0.75836098 2.1010001 -2.489047e+38
-0.18321334 -0.76305336 2.1140001 -2.4892027e+38
-0.17918667 -0.76305336 2.1140001 -2.4890991e+38
-0.17516001 -0.76305336 2.1140001 -2.5288723e+38
-0.17113334 -0.76305336 2.1140001 -2.5554051e+38
-0.16710667 -0.76305336 2.1140001 -2.5553536e+38
-0.16308001 -0.76305336 2.1140001 -2.5555613e+38
-0.15905334 -0.76305336 2.1140001 -2.5823016e+38
-0.15502667 -0.76305336 2.1140001 -2.5955941e+38
-0.15192859 -0.76774579 2.1270001 -2.6088349e+38
-0.14787716 -0.76774579 2.1270001 -2.6088349e+38
-0.14382572 -0.76774579 2.1270001 -2.5954387e+38
-0.13977429 -0.76774579 2.1270001 -2.5821463e+38
-0.13655239 -0.77243817 2.1400001 -2.5556134e+38
-0.13328096 -0.77713054 2.1530001 -2.5290287e+38
-0.12918001 -0.77713054 2.1530001 -2.5290804e+38
-0.12507905 -0.77713054 2.1530001 -2.515736e+38
-0.12176477 -0.78218389 2.1670001 -2.5156841e+38
-0.11763715 -0.78218389 2.1670001 -2.5156836e+38
-0.11350953 -0.78218389 2.1670001 -2.5289234e+38
-0.10938191 -0.78218389 2.1670001 -2.5289234e+38
-0.10525429 -0.78218389 2.1670001 -2.5289234e+38
-0.10112667 -0.78218389 2.1670001 -2.5289234e+38
-0.096999057 -0.78218389 2.1670001 -2.5422157e+38
-0.092871435 -0.78218389 2.1670001 -2.5422678e+38
-0.08931715 -0.78723717 2.181 -2.5289759e+38
-0.085162863 -0.78723717 2.181 -2.5157354e+38
-0.081491433 -0.7919296 2.194 -2.5290276e+38
-0.077312388 -0.7919296 2.194 -2.5423195e+38
-0.073133335 -0.7919296 2.194 -2.529027e+38
-0.068954289 -0.7919296 2.194 -2.515735e+38
-0.065188579 -0.79698288 2.2080002 -2.5688524e+38
-0.060982861 -0.79698288 2.2080002 -2.6087296e+38
-0.056777146 -0.79698288 2.2080002 -2.6351588e+38
-0.052571431 -0.79698288 2.2080002 -2.661744e+38
-0.048365716 -0.79698288 2.2080002 -2.7284135e+38
-0.044460002 -0.80239719 2.223 -2.7952393e+38
-0.040225718 -0.80239719 2.223 -2.7817404e+38
-0.03599143 -0.80239719 2.223 -2.7554144e+38
-0.031757146 -0.80239719 2.223 -2.6361985e+38
-0.027696192 -0.80745053 2.237 -2.5029666e+38
-0.023592383 -0.81286484 2.2520001 -2.263137e+38
-0.019422859 -0.81791812 2.266 -2.0128209e+38
-0.015106668 -0.81791812 2.266 -2.9182061e+38
-0.010861905 -0.82333243 2.2810001 nan
-0.0065171435 -0.82333243 2.2810001 nan
-0.0021876192 -0.8291077 2.2970002 nan
0.0021876192 -0.8291077 2.2970002 nan
0.0066057146 -0.83452195 2.312 nan
0.011009525 -0.83452195 2.312 nan
0.015513334 -0.83993626 2.3270001 nan
0.020082859 -0.84571147 2.3430002 nan
0.024545716 -0.84571147 2.3430002 nan
0.029206669 -0.85148674 2.3590002 nan
0.03394286 -0.85762292 2.3760002 nan
0.038468573 -0.85762292 2.3760002 nan
0.042686671 -0.85148674 2.3590002 nan
-0.33000478 -0.67249626 1.8730001 nan
-0.32295144 -0.66531527 1.853 nan
-0.31942192 -0.66531527 1.853 nan
-0.31418765 -0.66172481 1.8430001 nan
-0.30899146 -0.65813434 1.8330001 nan
-0.30550003 -0.65813434 1.8330001 nan
-0.2988781 -0.65131241 1.8140001 nan
-0.2937943 -0.64772195 1.8040001 -3.1279585e+38
-0.29035813 -0.64772195 1.8040001 -2.4746177e+38
-0.28692192 -0.64772195 1.8040001 -3.303366e+38
-0.28207144 -0.64449054 1.7950001 nan
-0.2786524 -0.64449054 1.7950001 nan
-0.27523336 -0.64449054 1.7950001 nan
-0.27181432 -0.64449054 1.7950001 nan
-0.26839525 -0.64449054 1.7950001 nan
-0.2649762 -0.64449054 1.7950001 nan
-0.26155716 -0.64449054 1.7950001 nan
-0.25813812 -0.64449054 1.7950001 nan
-0.25344193 -0.64125907 1.7860001 nan
-0.25130001 -0.64449054 1.7950001 nan
-0.24788097 -0.64449054 1.7950001 nan
-0.24446192 -0.64449054 1.7950001 nan
-0.24104287 -0.64449054 1.7950001 nan
-0.23762383 -0.64449054 1.7950001 nan
-0.23420478 -0.64449054 1.7950001 nan
-0.23194288 -0.64772195 1.8040001 nan
-0.22850668 -0.64772195 1.8040001 nan
-0.22394763 -0.64449054 1.7950001 nan
-0.24371906 -0.723481 2.0150001 nan
-0.23988096 -0.723481 2.0150001 nan
-0.23604287 -0.723481 2.0150001 -3.1818107e+38
-0.23220478 -0.723481 2.0150001 -2.4499048e+38
-0.22836669 -0.723481 2.0150001 -2.649912e+38
-0.22586572 -0.72778958 2.0270002 -2.8628481e+38
-0.22331907 -0.73209816 2.039 -2.8364191e+38
-0.22072668 -0.73640674 2.0510001 -2.810196e+38
-0.21808858 -0.74071527 2.0630002 -2.7694342e+38
-0.21550858 -0.74538291 2.0760002 -2.7292964e+38
-0.21277715 -0.74969149 2.0880001 -2.6623143e+38
-0.20880002 -0.74969149 2.0880001 -2.5953854e+38
-0.20609811 -0.75435913 2.1010001 -2.5554043e+38
-0.20209621 -0.75435913 2.1010001 -2.5152677e+38
-0.19809429 -0.75435913 2.1010001 -2.502079e+38
-0.19409239 -0.75435913 2.1010001 -2.4888389e+38
-0.19009049 -0.75435913 2.1010001 -2.4889427e+38
-0.18608858 -0.75435913 2.1010001 -2.4890987e+38
-0.18321334 -0.75902671 2.1140001 -2.4890989e+38
-0.17918667 -0.75902671 2.1140001 -2.5023392e+38
-0.17516001 -0.75902671 2.1140001 -2.52882e+38
-0.17113334 -0.75902671 2.1140001 -2.5419569e+38
-0.16710667 -0.75902671 2.1140001 -2.5553534e+38
-0.16308001 -0.75902671 2.1140001 -2.5555094e+38
-0.15905334 -0.75902671 2.1140001 -2.5555613e+38
-0.15502667 -0.75902671 2.1140001 -2.568854e+38
-0.15192859 -0.76369435 2.1270001 -2.5689582e+38
-0.14787716 -0.76369435 2.1270001 -2.5823022e+38
-0.14382572 -0.76369435 2.1270001 -2.5822499e+38
-0.13977429 -0.76369435 2.1270001 -2.5688538e+38
-0.13655239 -0.76836193 2.1400001 -2.5423209e+38
-0.1324762 -0.76836193 2.1400001 -2.5157362e+38
-0.12918001 -0.77302957 2.1530001 -2.5024435e+38
-0.12507905 -0.77302957 2.1530001 -2.4890476e+38
-0.1209781 -0.77302957 2.1530001 -2.4890995e+38
-0.11687715 -0.77302957 2.1530001 -2.4890989e+38
-0.11350953 -0.77805626 2.1670001 -2.5023906e+38
-0.10938191 -0.77805626 2.1670001 -2.5156828e+38
-0.10525429 -0.77805626 2.1670001 -2.5289232e+38
-0.10112667 -0.77805626 2.1670001 -2.5289232e+38
-0.096999057 -0.77805626 2.1670001 -2.5289751e+38
-0.092871435 -0.77805626 2.1670001 -2.5422676e+38
-0.088743813 -0.77805626 2.1670001 -2.5289755e+38
-0.085162863 -0.7830829 2.181 -2.5156832e+38
-0.081008576 -0.7830829 2.181 -2.5290274e+38
-0.076854289 -0.7830829 2.181 -2.5556118e+38
-0.073133335 -0.78775054 2.194 -2.529027e+38
-0.068954289 -0.78775054 2.194 -2.515735e+38
-0.065188579 -0.79277718 2.2080002 -2.5423195e+38
-0.060982861 -0.79277718 2.2080002 -2.5822487e+38
-0.056777146 -0.79277718 2.2080002 -2.5954895e+38
-0.052571431 -0.79277718 2.2080002 -2.6221267e+38
-0.048365716 -0.79277718 2.2080002 -2.6752446e+38
-0.044160005 -0.79277718 2.2080002 -2.7283104e+38
-0.040225718 -0.79816294 2.223 -2.7286745e+38
-0.03599143 -0.79816294 2.223 -2.7291422e+38
-0.031757146 -0.79816294 2.223 -2.6759735e+38
-0.027696192 -0.80318958 2.237 -2.6227506e+38
-0.023435239 -0.80318958 2.237 -2.5162548e+38
-0.019302858 -0.80857527 2.2520001 -2.4100776e+38
-0.015106668 -0.81360197 2.266 -2.7572918e+38
-0.010861905 -0.81898767 2.2810001 -3.1174838e+38
-0.0064742863 -0.81360197 2.266 nan
-0.0021723812 -0.81898767 2.2810001 nan
0.0021876192 -0.82473242 2.2970002 nan
0.0066057146 -0.83011818 2.312 nan
0.011009525 -0.83011818 2.312 nan
0.015513334 -0.83550388 2.3270001 nan
0.020082859 -0.84124863 2.3430002 nan
0.024545716 -0.84124863 2.3430002 nan
0.029008573 -0.84124863 2.3430002 nan
0.0337 -0.84699339 2.3590002 nan
0.038193338 -0.84699339 2.3590002 nan
0.042686671 -0.84699339 2.3590002 nan
-0.33176669 -0.67250007 1.8830001 nan
-0.32643718 -0.66892862 1.8730001 nan
-0.32114574 -0.66535717 1.863 nan
-0.3158924 -0.66178578 1.853 nan
-0.31067717 -0.65821433 1.8430001 nan
-0.30233335 -0.64785719 1.8140001 nan
-0.2988781 -0.64785719 1.8140001 nan
-0.2937943 -0.64428574 1.8040001 -3.060042e+38
-0.29035813 -0.64428574 1.8040001 -2.6755066e+38
-0.28692192 -0.64428574 1.8040001 -3.3839497e+38
-0.28348574 -0.64428574 1.8040001 nan
-0.28004953 -0.64428574 1.8040001 nan
-0.27523336 -0.6410715 1.7950001 nan
-0.27181432 -0.6410715 1.7950001 nan
-0.26839525 -0.6410715 1.7950001 nan
-0.2649762 -0.6410715 1.7950001 nan
-0.26155716 -0.6410715 1.7950001 nan
-0.25813812 -0.6410715 1.7950001 nan
-0.25471908 -0.6410715 1.7950001 nan
-0.25130001 -0.6410715 1.7950001 nan
-0.24788097 -0.6410715 1.7950001 nan
-0.24446192 -0.6410715 1.7950001 nan
-0.24104287 -0.6410715 1.7950001 nan
-0.23762383 -0.6410715 1.7950001 nan
-0.23537907 -0.64428574 1.8040001 nan
-0.23194288 -0.64428574 1.8040001 nan
-0.22850668 -0.64428574 1.8040001 nan
-0.22507049 -0.64428574 1.8040001 nan
-0.24371906 -0.71964288 2.0150001 nan
-0.23988096 -0.71964288 2.0150001 nan
-0.23604287 -0.71964288 2.0150001 -2.9274338e+38
-0.23220478 -0.71964288 2.0150001 -1.9707555e+38
-0.22836669 -0.71964288 2.0150001 -2.3705648e+38
-0.22586572 -0.72392863 2.0270002 -2.7559375e+38
-0.22331907 -0.72821432 2.039 -2.7825225e+38
-0.22072668 -0.73250008 2.0510001 -2.809261e+38
-0.21808858 -0.73678577 2.0630002 -2.8089997e+38
-0.21550858 -0.74142861 2.0760002 -2.8088424e+38
-0.21277715 -0.74571431 2.0880001 -2.7155873e+38
-0.20880002 -0.74571431 2.0880001 -2.6221775e+38
-0.20482287 -0.74571431 2.0880001 -2.5555599e+38
-0.20209621 -0.75035721 2.1010001 -2.4888906e+38
-0.19809429 -0.75035721 2.1010001 -2.4887865e+38
-0.19409239 -0.75035721 2.1010001 -2.4755983e+38
-0.19009049 -0.75035721 2.1010001 -2.4757024e+38
-0.18608858 -0.75035721 2.1010001 -2.4757024e+38
-0.18321334 -0.75500005 2.1140001 -2.5022352e+38
-0.17918667 -0.75500005 2.1140001 -2.5155275e+38
-0.17516001 -0.75500005 2.1140001 -2.5287161e+38
-0.17113334 -0.75500005 2.1140001 -2.5287682e+38
-0.16710667 -0.75500005 2.1140001 -2.5420607e+38
-0.16308001 -0.75500005 2.1140001 -2.5554051e+38
-0.15905334 -0.75500005 2.1140001 -2.5421652e+38
-0.15502667 -0.75500005 2.1140001 -2.5289769e+38
-0.15100001 -0.75500005 2.1140001 -2.5423216e+38
-0.14787716 -0.7596429 2.1270001 -2.5556656e+38
-0.14382572 -0.7596429 2.1270001 -2.5557173e+38
-0.13977429 -0.7596429 2.1270001 -2.5556653e+38
-0.13655239 -0.76428574 2.1400001 -2.5290287e+38
-0.1324762 -0.76428574 2.1400001 -2.5024437e+38
-0.12918001 -0.76892865 2.1530001 -2.4758587e+38
-0.12507905 -0.76892865 2.1530001 -2.449274e+38
-0.1209781 -0.76892865 2.1530001 -2.462566e+38
-0.11687715 -0.76892865 2.1530001 -2.4625658e+38
-0.1127762 -0.76892865 2.1530001 -2.4890983e+38
-0.10867525 -0.76892865 2.1530001 -2.5023906e+38
-0.10525429 -0.77392864 2.1670001 -2.5156309e+38
-0.10112667 -0.77392864 2.1670001 -2.5289749e+38
-0.096999057 -0.77392864 2.1670001 -2.5290268e+38
-0.092871435 -0.77392864 2.1670001 -2.5289751e+38
-0.088743813 -0.77392864 2.1670001 -2.5289755e+38
-0.084616199 -0.77392864 2.1670001 -2.5157352e+38
-0.081008576 -0.77892864 2.181 -2.5423716e+38
-0.076854289 -0.77892864 2.181 -2.555612e+38
-0.072700001 -0.77892864 2.181 -2.5423195e+38
-0.068954289 -0.78357148 2.194 -2.5157869e+38
-0.064775243 -0.78357148 2.194 -2.5290794e+38
-0.060982861 -0.78857148 2.2080002 -2.5423719e+38
-0.056777146 -0.78857148 2.2080002 -2.5556126e+38
-0.052571431 -0.78857148 2.2080002 -2.5689057e+38
-0.048365716 -0.78857148 2.2080002 -2.6220237e+38
-0.044160005 -0.78857148 2.2080002 -2.662005e+38
-0.040225718 -0.79392862 2.223 -2.6755058e+38
-0.03599143 -0.79392862 2.223 -2.6890583e+38
-0.031757146 -0.79392862 2.223 -2.7156956e+38
-0.027696192 -0.79892862 2.237 -2.7291424e+38
-0.023435239 -0.79892862 2.237 -2.76907e+38
-0.019302858 -0.80428576 2.2520001 -2.7958127e+38
-0.015013334 -0.80428576 2.2520001 -2.5966906e+38
-0.010790477 -0.80928576 2.266 -2.3984525e+38
-0.0064742863 -0.80928576 2.266 -2.998063e+38
-0.0021723812 -0.81464291 2.2810001 nan
0.0021723812 -0.81464291 2.2810001 nan
0.0065628574 -0.8203572 2.2970002 nan
0.011009525 -0.82571435 2.312 nan
0.015513334 -0.8310715 2.3270001 nan
0.019945716 -0.8310715 2.3270001 nan
0.024378097 -0.8310715 2.3270001 nan
0.029008573 -0.83678579 2.3430002 nan
0.0337 -0.84250003 2.3590002 nan
0.038193338 -0.84250003 2.3590002 nan
0.042397145 -0.83678579 2.3430002 nan
0.046860002 -0.83678579 2.3430002 nan
-0.33176669 -0.66891336 1.8830001 nan
-0.32818002 -0.66891336 1.8830001 nan
-0.32286954 -0.66536099 1.8730001 nan
-0.3158924 -0.65825623 1.853 nan
-0.31067717 -0.65470386 1.8430001 nan
-0.30550003 -0.65115148 1.8330001 nan
-0.2988781 -0.64440197 1.8140001 -2.9035515e+38
-0.29542288 -0.64440197 1.8140001 -2.6618434e+38
-0.29196763 -0.64440197 1.8140001 -2.4347905e+38
-0.28692192 -0.64084959 1.8040001 -3.1960914e+38
-0.28348574 -0.64084959 1.8040001 nan
-0.28004953 -0.64084959 1.8040001 nan
-0.27661335 -0.64084959 1.8040001 nan
-0.27317715 -0.64084959 1.8040001 nan
-0.26974097 -0.64084959 1.8040001 nan
-0.2649762 -0.6376524 1.7950001 nan
-0.26155716 -0.6376524 1.7950001 nan
-0.25813812 -0.6376524 1.7950001 nan
-0.25471908 -0.6376524 1.7950001 nan
-0.25130001 -0.6376524 1.7950001 nan
-0.24788097 -0.6376524 1.7950001 nan
-0.24446192 -0.6376524 1.7950001 nan
-0.24225144 -0.64084959 1.8040001 nan
-0.23881525 -0.64084959 1.8040001 nan
-0.23537907 -0.64084959 1.8040001 nan
-0.23322859 -0.64440197 1.8140001 nan
-0.22977334 -0.64440197 1.8140001 nan
-0.22756574 -0.64795434 1.8240001 nan
-0.24371906 -0.71580482 2.0150001 nan
-0.23988096 -0.71580482 2.0150001 nan
-0.23604287 -0.71580482 2.0150001 -2.9681868e+38
-0.23220478 -0.71580482 2.0150001 -2.0758436e+38
-0.22836669 -0.71580482 2.0150001 -2.3961093e+38
-0.22720288 -0.72433054 2.039 -2.7153847e+38
-0.22463335 -0.72859341 2.0510001 -2.7289374e+38
-0.22201811 -0.73285621 2.0630002 -2.7555724e+38
-0.21808858 -0.73285621 2.0630002 -2.7554672e+38
-0.21550858 -0.73747432 2.0760002 -2.7555177e+38
-0.21277715 -0.74173719 2.0880001 -2.6755547e+38
-0.20880002 -0.74173719 2.0880001 -2.5823004e+38
-0.20482287 -0.74173719 2.0880001 -2.5423191e+38
-0.20209621 -0.7463553 2.1010001 -2.5021825e+38
-0.19809429 -0.7463553 2.1010001 -2.4888381e+38
-0.19409239 -0.7463553 2.1010001 -2.4888385e+38
-0.19009049 -0.7463553 2.1010001 -2.4888908e+38
-0.18608858 -0.7463553 2.1010001 -2.4888908e+38
-0.18321334 -0.7509734 2.1140001 -2.4888906e+38
-0.17918667 -0.7509734 2.1140001 -2.502235e+38
-0.17516001 -0.7509734 2.1140001 -2.5022352e+38
-0.17113334 -0.7509734 2.1140001 -2.5022352e+38
-0.16710667 -0.7509734 2.1140001 -2.5021313e+38
-0.16308001 -0.7509734 2.1140001 -2.5154242e+38
-0.15905334 -0.7509734 2.1140001 -2.5155285e+38
-0.15502667 -0.7509734 2.1140001 -2.5290289e+38
-0.15100001 -0.7509734 2.1140001 -2.5290291e+38
-0.14697334 -0.7509734 2.1140001 -2.5423733e+38
-0.14294668 -0.7509734 2.1140001 -2.5424769e+38
-0.13977429 -0.75559145 2.1270001 -2.5557692e+38
-0.13572286 -0.75559145 2.1270001 -2.5424248e+38
-0.1324762 -0.76020956 2.1400001 -2.5290283e+38
-0.12840001 -0.76020956 2.1400001 -2.4891508e+38
-0.12507905 -0.76482767 2.1530001 -2.4625658e+38
-0.1209781 -0.76482767 2.1530001 -2.4758575e+38
-0.11687715 -0.76482767 2.1530001 -2.48915e+38
-0.1127762 -0.76482767 2.1530001 -2.5024425e+38
-0.10867525 -0.76482767 2.1530001 -2.5157348e+38
-0.10457429 -0.76482767 2.1530001 -2.5290268e+38
-0.10047334 -0.76482767 2.1530001 -2.5423189e+38
-0.096999057 -0.76980102 2.1670001 -2.5290264e+38
-0.092871435 -0.76980102 2.1670001 -2.5289749e+38
-0.088743813 -0.76980102 2.1670001 -2.5289753e+38
-0.084616199 -0.76980102 2.1670001 -2.5289755e+38
-0.080488577 -0.76980102 2.1670001 -2.5423197e+38
-0.076360956 -0.76980102 2.1670001 -2.5555601e+38
-0.072700001 -0.77477431 2.181 -2.5290274e+38
-0.068545721 -0.77477431 2.181 -2.5157871e+38
-0.064775243 -0.77939242 2.194 -2.5290794e+38
-0.060982861 -0.78436577 2.2080002 -2.5290796e+38
-0.056777146 -0.78436577 2.2080002 -2.5423721e+38
-0.052571431 -0.78436577 2.2080002 -2.5423731e+38
-0.048365716 -0.78436577 2.2080002 -2.5821988e+38
-0.044160005 -0.78436577 2.2080002 -2.608888e+38
-0.040225718 -0.78969431 2.223 -2.6356292e+38
-0.03599143 -0.78969431 2.223 -2.6624224e+38
-0.031757146 -0.78969431 2.223 -2.6891118e+38
-0.027522858 -0.78969431 2.223 -2.7159037e+38
-0.023435239 -0.79466766 2.237 -2.769176e+38
-0.019302858 -0.79999626 2.2520001 -2.8225524e+38
-0.015013334 -0.79999626 2.2520001 -2.7294542e+38
-0.010790477 -0.80496955 2.266 -2.6361541e+38
-0.006434286 -0.79999626 2.2520001 -2.8771338e+38
-0.0021580954 -0.80496955 2.266 -3.1178516e+38
0.0021580954 -0.80496955 2.266 nan
0.0065171435 -0.81029814 2.2810001 nan
0.010938096 -0.81598198 2.2970002 nan
0.015413335 -0.82131052 2.312 nan
0.019945716 -0.82663912 2.3270001 nan
0.024378097 -0.82663912 2.3270001 nan
0.028810479 -0.82663912 2.3270001 nan
0.033471432 -0.8323229 2.3430002 nan
0.037934288 -0.8323229 2.3430002 nan
0.042397145 -0.8323229 2.3430002 nan
0.046540003 -0.82663912 2.3270001 nan
-0.33370477 -0.66921335 1.8940001 nan
-0.32818002 -0.66532671 1.8830001 nan
-0.32286954 -0.66179335 1.8730001 nan
-0.31759715 -0.65826005 1.863 nan
-0.31067717 -0.65119338 1.8430001 nan
-0.30550003 -0.64766002 1.8330001 -3.0751605e+38
-0.30052572 -0.64448005 1.8240001 -2.3437164e+38
-0.29542288 -0.64094669 1.8140001 -2.2755363e+38
-0.29196763 -0.64094669 1.8140001 -2.1967738e+38
-0.28692192 -0.63741338 1.8040001 -2.9970152e+38
-0.28348574 -0.63741338 1.8040001 nan
-0.28004953 -0.63741338 1.8040001 nan
-0.27661335 -0.63741338 1.8040001 nan
-0.27317715 -0.63741338 1.8040001 nan
-0.26974097 -0.63741338 1.8040001 nan
-0.26630479 -0.63741338 1.8040001 nan
-0.26286858 -0.63741338 1.8040001 nan
-0.25813812 -0.63423336 1.7950001 nan
-0.25471908 -0.63423336 1.7950001 nan
-0.25256002 -0.63741338 1.8040001 nan
-0.24912383 -0.63741338 1.8040001 nan
-0.24568763 -0.63741338 1.8040001 nan
-0.24225144 -0.63741338 1.8040001 nan
-0.23881525 -0.63741338 1.8040001 nan
-0.23668383 -0.64094669 1.8140001 nan
-0.2345143 -0.64448005 1.8240001 nan
-0.22977334 -0.64094669 1.8140001 nan
-0.22756574 -0.64448005 1.8240001 nan
-0.24371906 -0.71196669 2.0150001 nan
-0.23988096 -0.71196669 2.0150001 nan
-0.23604287 -0.71196669 2.0150001 -3.0204767e+38
-0.23220478 -0.71196669 2.0150001 -2.1829095e+38
-0.22972669 -0.71620673 2.0270002 -2.4358286e+38
-0.22720288 -0.72044671 2.039 -2.6752977e+38
-0.22463335 -0.72468674 2.0510001 -2.6887461e+38
-0.22201811 -0.72892672 2.0630002 -2.6887958e+38
-0.21946287 -0.73352003 2.0760002 -2.7017744e+38
-0.21550858 -0.73352003 2.0760002 -2.7020342e+38
-0.21277715 -0.73776007 2.0880001 -2.6222288e+38
-0.20880002 -0.73776007 2.0880001 -2.5424749e+38
-0.20609811 -0.74235338 2.1010001 -2.5291303e+38
-0.20209621 -0.74235338 2.1010001 -2.5022859e+38
-0.19809429 -0.74235338 2.1010001 -2.5021816e+38
-0.19529335 -0.74694669 2.1140001 -2.5020784e+38
-0.19009049 -0.74235338 2.1010001 -2.5020788e+38
-0.18724002 -0.74694669 2.1140001 -2.5021309e+38
-0.18321334 -0.74694669 2.1140001 -2.4888389e+38
-0.17918667 -0.74694669 2.1140001 -2.4755983e+38
-0.17516001 -0.74694669 2.1140001 -2.4756502e+38
-0.17113334 -0.74694669 2.1140001 -2.4755985e+38
-0.16710667 -0.74694669 2.1140001 -2.4754429e+38
-0.16308001 -0.74694669 2.1140001 -2.462203e+38
-0.15905334 -0.74694669 2.1140001 -2.488788e+38
-0.15502667 -0.74694669 2.1140001 -2.5155287e+38
-0.15100001 -0.74694669 2.1140001 -2.5156331e+38
-0.14697334 -0.74694669 2.1140001 -2.5157889e+38
-0.14294668 -0.74694669 2.1140001 -2.5292372e+38
-0.13892001 -0.74694669 2.1140001 -2.5424771e+38
-0.13572286 -0.75154006 2.1270001 -2.5424767e+38
-0.1324762 -0.75613338 2.1400001 -2.5423723e+38
-0.12840001 -0.75613338 2.1400001 -2.5157354e+38
-0.12507905 -0.76072669 2.1530001 -2.47591e+38
-0.1209781 -0.76072669 2.1530001 -2.4892019e+38
-0.11687715 -0.76072669 2.1530001 -2.5024944e+38
-0.1127762 -0.76072669 2.1530001 -2.5157869e+38
-0.10867525 -0.76072669 2.1530001 -2.5157867e+38
-0.10525429 -0.7656734 2.1670001 -2.529027e+38
-0.10047334 -0.76072669 2.1530001 -2.5423193e+38
-0.096999057 -0.7656734 2.1670001 -2.5422674e+38
-0.092871435 -0.7656734 2.1670001 -2.529027e+38
-0.088743813 -0.7656734 2.1670001 -2.5423195e+38
-0.084616199 -0.7656734 2.1670001 -2.5423197e+38
-0.080488577 -0.7656734 2.1670001 -2.542268e+38
-0.076360956 -0.7656734 2.1670001 -2.5422682e+38
-0.072233342 -0.7656734 2.1670001 -2.5289763e+38
-0.068545721 -0.77062005 2.181 -2.515736e+38
-0.064775243 -0.77521336 2.194 -2.5157879e+38
-0.060596194 -0.77521336 2.194 -2.5157358e+38
-0.056777146 -0.78016007 2.2080002 -2.5157358e+38
-0.052571431 -0.78016007 2.2080002 -2.5156845e+38
-0.048365716 -0.78016007 2.2080002 -2.542166e+38
-0.044160005 -0.78016007 2.2080002 -2.5556666e+38
-0.040225718 -0.78546005 2.223 -2.5956481e+38
-0.03599143 -0.78546005 2.223 -2.6223375e+38
-0.031757146 -0.78546005 2.223 -2.6623192e+38
-0.027522858 -0.78546005 2.223 -2.7025595e+38
-0.023435239 -0.7904067 2.237 -2.7825209e+38
-0.019302858 -0.79570669 2.2520001 -2.8490865e+38
-0.015013334 -0.79570669 2.2520001 -2.8623792e+38
-0.010790477 -0.8006534 2.266 -2.8625372e+38
-0.006434286 -0.79570669 2.2520001 -2.7564091e+38
-0.0021580954 -0.8006534 2.266 -2.6515801e+38
0.0021580954 -0.8006534 2.266 -3.22419e+38
0.0064742863 -0.8006534 2.266 nan
0.010938096 -0.81160671 2.2970002 nan
0.015413335 -0.81690669 2.312 nan
0.019945716 -0.82220674 2.3270001 nan
0.024378097 -0.82220674 2.3270001 nan
0.028810479 -0.82220674 2.3270001 nan
0.033471432 -0.82786006 2.3430002 nan
0.037934288 -0.82786006 2.3430002 nan
0.042397145 -0.82786006 2.3430002 nan
0.046540003 -0.82220674 2.3270001 nan
0.050972383 -0.82220674 2.3270001 nan
-0.33370477 -0.66560578 1.8940001 nan
-0.32818002 -0.66174006 1.8830001 nan
-0.32286954 -0.65822577 1.8730001 nan
-0.31759715 -0.65471148 1.863 nan
-0.31236288 -0.6511972 1.853 -3.1438031e+38
-0.3071667 -0.64768291 1.8430001 -2.8096234e+38
-0.30052572 -0.64100575 1.8240001 -2.4631376e+38
-0.29705146 -0.64100575 1.8240001 -2.4090819e+38
-0.29196763 -0.63749146 1.8140001 -2.3691562e+38
-0.28851241 -0.63749146 1.8140001 -2.8361544e+38
-0.28348574 -0.63397717 1.8040001 -3.3160285e+38
-0.28004953 -0.63397717 1.8040001 nan
-0.27661335 -0.63397717 1.8040001 nan
-0.27317715 -0.63397717 1.8040001 nan
-0.26974097 -0.63397717 1.8040001 nan
-0.26630479 -0.63397717 1.8040001 nan
-0.26286858 -0.63397717 1.8040001 nan
-0.25943241 -0.63397717 1.8040001 nan
-0.2559962 -0.63397717 1.8040001 nan
-0.25256002 -0.63397717 1.8040001 nan
-0.24912383 -0.63397717 1.8040001 nan
-0.24568763 -0.63397717 1.8040001 nan
-0.2435943 -0.63749146 1.8140001 nan
-0.24013907 -0.63749146 1.8140001 nan
-0.23668383 -0.63749146 1.8140001 nan
-0.2345143 -0.64100575 1.8240001 nan
-0.22977334 -0.63749146 1.8140001 nan
-0.22756574 -0.64100575 1.8240001 nan
-0.24226764 -0.70391148 2.003 nan
-0.23845239 -0.70391148 2.003 nan
-0.23463716 -0.70391148 2.003 -3.0746875e+38
-0.23220478 -0.70812863 2.0150001 -2.4223272e+38
-0.22836669 -0.70812863 2.0150001 -2.5687495e+38
-0.22720288 -0.71656293 2.039 -2.7149125e+38
-0.22463335 -0.72078007 2.0510001 -2.7018277e+38
-0.22201811 -0.72499716 2.0630002 -2.7020323e+38
-0.21946287 -0.72956574 2.0760002 -2.6885813e+38
-0.21550858 -0.72956574 2.0760002 -2.6753429e+38
-0.21277715 -0.73378289 2.0880001 -2.6088836e+38
-0.20880002 -0.73378289 2.0880001 -2.5558183e+38
-0.20609811 -0.73835146 2.1010001 -2.5289741e+38
-0.20209621 -0.73835146 2.1010001 -2.5155776e+38
-0.19809429 -0.73835146 2.1010001 -2.5153695e+38
-0.19409239 -0.73835146 2.1010001 -2.5152662e+38
-0.19009049 -0.73835146 2.1010001 -2.5020265e+38
-0.18608858 -0.73835146 2.1010001 -2.5021307e+38
-0.18321334 -0.74292004 2.1140001 -2.4888389e+38
-0.17918667 -0.74292004 2.1140001 -2.4755983e+38
-0.17516001 -0.74292004 2.1140001 -2.4888902e+38
-0.17113334 -0.74292004 2.1140001 -2.4888387e+38
-0.16710667 -0.74292004 2.1140001 -2.4887869e+38
-0.16308001 -0.74292004 2.1140001 -2.4887873e+38
-0.15905334 -0.74292004 2.1140001 -2.4888397e+38
-0.15502667 -0.74292004 2.1140001 -2.5021326e+38
-0.15100001 -0.74292004 2.1140001 -2.5022889e+38
-0.14697334 -0.74292004 2.1140001 -2.5157374e+38
-0.14294668 -0.74292004 2.1140001 -2.529082e+38
-0.13892001 -0.74292004 2.1140001 -2.5423218e+38
-0.13572286 -0.74748862 2.1270001 -2.5290806e+38
-0.13167144 -0.74748862 2.1270001 -2.5157877e+38
-0.12840001 -0.75205719 2.1400001 -2.5024948e+38
-0.12507905 -0.75662577 2.1530001 -2.4892542e+38
-0.1209781 -0.75662577 2.1530001 -2.5025463e+38
-0.11687715 -0.75662577 2.1530001 -2.5157869e+38
-0.1127762 -0.75662577 2.1530001 -2.5290794e+38
-0.10867525 -0.75662577 2.1530001 -2.5290792e+38
-0.10457429 -0.75662577 2.1530001 -2.5423193e+38
-0.10047334 -0.75662577 2.1530001 -2.5688522e+38
-0.096999057 -0.76154578 2.1670001 -2.5422678e+38
-0.092871435 -0.76154578 2.1670001 -2.5290274e+38
-0.088170484 -0.75662577 2.1530001 -2.515735e+38
-0.084616199 -0.76154578 2.1670001 -2.5157352e+38
-0.080488577 -0.76154578 2.1670001 -2.5024431e+38
-0.076360956 -0.76154578 2.1670001 -2.5024437e+38
-0.072233342 -0.76154578 2.1670001 -2.5024443e+38
-0.06810572 -0.76154578 2.1670001 -2.5157366e+38
-0.064391434 -0.76646578 2.181 -2.5156847e+38
-0.060596194 -0.77103436 2.194 -2.5289248e+38
-0.056417145 -0.77103436 2.194 -2.5289763e+38
-0.052238099 -0.77103436 2.194 -2.5289248e+38
-0.048365716 -0.77595437 2.2080002 -2.5422694e+38
-0.044160005 -0.77595437 2.2080002 -2.5556662e+38
-0.03995429 -0.77595437 2.2080002 -2.5821994e+38
-0.03599143 -0.78122574 2.223 -2.6220773e+38
-0.031757146 -0.78122574 2.223 -2.6491301e+38
-0.027522858 -0.78122574 2.223 -2.689371e+38
-0.023288572 -0.78122574 2.223 -2.7691773e+38
-0.019174287 -0.78614575 2.237 -2.8490879e+38
-0.015013334 -0.79141718 2.2520001 -2.8493488e+38
-0.010790477 -0.79633719 2.266 -2.8628479e+38
-0.006434286 -0.79141718 2.2520001 -2.7965415e+38
-0.0021447621 -0.79141718 2.2520001 -2.7307072e+38
0.0021580954 -0.79633719 2.266 -3.0373164e+38
0.0064742863 -0.79633719 2.266 -3.3438718e+38
0.010861905 -0.80160862 2.2810001 nan
0.015313335 -0.80723149 2.2970002 nan
0.019817144 -0.81250292 2.312 nan
0.024378097 -0.81777436 2.3270001 nan
0.028810479 -0.81777436 2.3270001 nan
0.033471432 -0.82339722 2.3430002 nan
0.037934288 -0.82339722 2.3430002 nan
0.042397145 -0.82339722 2.3430002 nan
0.046540003 -0.81777436 2.3270001 nan
0.050972383 -0.81777436 2.3270001 nan
-0.33370477 -0.66199815 1.8940001 nan
-0.32818002 -0.65815336 1.8830001 nan
-0.32286954 -0.65465814 1.8730001 nan
-0.31759715 -0.65116292 1.863 -3.3546089e+38
-0.31236288 -0.64766765 1.853 -2.4771093e+38
-0.3071667 -0.64417243 1.8430001 -2.5297578e+38
-0.3020086 -0.64067721 1.8330001 -2.5824049e+38
-0.29705146 -0.63753146 1.8240001 -2.5549867e+38
-0.29357716 -0.63753146 1.8240001 -2.5288711e+38
-0.28851241 -0.63403624 1.8140001 -2.6888993e+38
-0.28505716 -0.63403624 1.8140001 -2.8363116e+38
-0.28160194 -0.63403624 1.8140001 -3.1960891e+38
-0.27814668 -0.63403624 1.8140001 nan
-0.27317715 -0.63054097 1.8040001 nan
-0.26974097 -0.63054097 1.8040001 nan
-0.26630479 -0.63054097 1.8040001 nan
-0.26286858 -0.63054097 1.8040001 nan
-0.25943241 -0.63054097 1.8040001 nan
-0.2559962 -0.63054097 1.8040001 nan
-0.25396001 -0.63403624 1.8140001 nan
-0.25050479 -0.63403624 1.8140001 nan
-0.24704954 -0.63403624 1.8140001 nan
-0.2435943 -0.63403624 1.8140001 nan
-0.24013907 -0.63403624 1.8140001 nan
-0.23668383 -0.63403624 1.8140001 nan
-0.2345143 -0.63753146 1.8240001 nan
-0.22977334 -0.63403624 1.8140001 nan
-0.22631811 -0.63403624 1.8140001 nan
-0.24093716 -0.69625145 1.9920001 nan
-0.23714288 -0.69625145 1.9920001 nan
-0.23334859 -0.69625145 1.9920001 -3.1406786e+38
-0.23082192 -0.70009625 2.003 -2.6485535e+38
-0.22700669 -0.70009625 2.003 -2.7018792e+38
-0.22720288 -0.71267909 2.039 -2.7415482e+38
-0.22463335 -0.71687341 2.0510001 -2.728152e+38
-0.22201811 -0.72106767 2.0630002 -2.7017214e+38
-0.21946287 -0.72561145 2.0760002 -2.6750831e+38
-0.21550858 -0.72561145 2.0760002 -2.6352075e+38
-0.21277715 -0.72980577 2.0880001 -2.5953319e+38
-0.21010001 -0.73434955 2.1010001 -2.555351e+38
-0.20609811 -0.73434955 2.1010001 -2.5419029e+38
-0.20209621 -0.73434955 2.1010001 -2.5152662e+38
-0.19809429 -0.73434955 2.1010001 -2.5151101e+38
-0.19409239 -0.73434955 2.1010001 -2.5152145e+38
-0.19009049 -0.73434955 2.1010001 -2.5018709e+38
-0.18608858 -0.73434955 2.1010001 -2.4887348e+38
-0.18208668 -0.73434955 2.1010001 -2.4887352e+38
-0.17808478 -0.73434955 2.1010001 -2.4755983e+38
-0.17516001 -0.73889339 2.1140001 -2.4889423e+38
-0.17113334 -0.73889339 2.1140001 -2.5021827e+38
-0.16710667 -0.73889339 2.1140001 -2.502079e+38
-0.16308001 -0.73889339 2.1140001 -2.5020792e+38
-0.15905334 -0.73889339 2.1140001 -2.5021316e+38
-0.15502667 -0.73889339 2.1140001 -2.4888399e+38
-0.15100001 -0.73889339 2.1140001 -2.5021845e+38
-0.14697334 -0.73889339 2.1140001 -2.5022887e+38
-0.14294668 -0.73889339 2.1140001 -2.5156333e+38
-0.13977429 -0.74343717 2.1270001 -2.5290289e+38
-0.13572286 -0.74343717 2.1270001 -2.5024958e+38
-0.13167144 -0.74343717 2.1270001 -2.4759107e+38
-0.12840001 -0.74798101 2.1400001 -2.4892545e+38
-0.12507905 -0.75252479 2.1530001 -2.4892545e+38
-0.1209781 -0.75252479 2.1530001 -2.5158388e+38
-0.11687715 -0.75252479 2.1530001 -2.5290794e+38
-0.1127762 -0.75252479 2.1530001 -2.5423719e+38
-0.10867525 -0.75252479 2.1530001 -2.5423199e+38
-0.10457429 -0.75252479 2.1530001 -2.5688006e+38
-0.10047334 -0.75252479 2.1530001 -2.5820931e+38
-0.096372388 -0.75252479 2.1530001 -2.5555605e+38
-0.092271432 -0.75252479 2.1530001 -2.5289757e+38
-0.088170484 -0.75252479 2.1530001 -2.502391e+38
-0.084616199 -0.75741816 2.1670001 -2.4758583e+38
-0.080488577 -0.75741816 2.1670001 -2.4625141e+38
-0.076360956 -0.75741816 2.1670001 -2.4492742e+38
-0.072233342 -0.75741816 2.1670001 -2.4758074e+38
-0.06810572 -0.75741816 2.1670001 -2.502392e+38
-0.064391434 -0.76231146 2.181 -2.5289246e+38
-0.060237147 -0.76231146 2.181 -2.5422169e+38
-0.056417145 -0.7668553 2.194 -2.5422688e+38
-0.052238099 -0.7668553 2.194 -2.5289769e+38
-0.04805905 -0.7668553 2.194 -2.5422696e+38
-0.044160005 -0.7717486 2.2080002 -2.54227e+38
-0.03995429 -0.7717486 2.2080002 -2.5819917e+38
-0.035748575 -0.7717486 2.2080002 -2.6089923e+38
-0.031757146 -0.77699149 2.223 -2.6492851e+38
-0.027522858 -0.77699149 2.223 -2.6758183e+38
-0.023288572 -0.77699149 2.223 -2.7556248e+38
-0.019174287 -0.78188479 2.237 -2.8356393e+38
-0.014913335 -0.78188479 2.237 -2.8496078e+38
-0.010723811 -0.78712767 2.2520001 -2.862796e+38
-0.006434286 -0.78712767 2.2520001 -2.836263e+38
-0.0021447621 -0.78712767 2.2520001 -2.7968039e+38
0.0021580954 -0.79202098 2.266 -2.8504947e+38
0.0064742863 -0.79202098 2.266 -2.904497e+38
0.010861905 -0.79726386 2.2810001 -3.0911625e+38
0.015206668 -0.79726386 2.2810001 -3.2647938e+38
0.019817144 -0.80809909 2.312 nan
0.024220955 -0.80809909 2.312 nan
0.028810479 -0.81334198 2.3270001 nan
0.033242859 -0.81334198 2.3270001 nan
0.037934288 -0.81893432 2.3430002 nan
0.042397145 -0.81893432 2.3430002 nan
0.046540003 -0.81334198 2.3270001 nan
0.050972383 -0.81334198 2.3270001 nan
-0.33009717 -0.65839052 1.8940001 nan
-0.32459337 -0.65456671 1.8830001 nan
-0.31759715 -0.6476143 1.863 -3.2217851e+38
-0.31404859 -0.6476143 1.863 -2.6082639e+38
-0.3071667 -0.64066195 1.8430001 -2.6487644e+38
-0.3020086 -0.63718575 1.8330001 -2.6886395e+38
-0.29851717 -0.63718575 1.8330001 -2.6352608e+38
-0.29357716 -0.63405716 1.8240001 -2.59554e+38
-0.29010287 -0.63405716 1.8240001 -2.5292343e+38
-0.2866286 -0.63405716 1.8240001 -2.4764331e+38
-0.28160194 -0.63058102 1.8140001 -2.8627443e+38
-0.27814668 -0.63058102 1.8140001 -3.262497e+38
-0.27469143 -0.63058102 1.8140001 -3.355177e+38
-0.27123621 -0.63058102 1.8140001 nan
-0.26778096 -0.63058102 1.8140001 nan
-0.26432574 -0.63058102 1.8140001 nan
-0.26087049 -0.63058102 1.8140001 nan
-0.25741526 -0.63058102 1.8140001 nan
-0.25396001 -0.63058102 1.8140001 nan
-0.25050479 -0.63058102 1.8140001 nan
-0.24841145 -0.63405716 1.8240001 nan
-0.24493715 -0.63405716 1.8240001 nan
-0.24146287 -0.63405716 1.8240001 nan
-0.23798859 -0.63405716 1.8240001 nan
-0.2345143 -0.63405716 1.8240001 nan
-0.23104002 -0.63405716 1.8240001 nan
-0.22756574 -0.63405716 1.8240001 nan
-0.23948573 -0.68828577 1.9800001 nan
-0.2357143 -0.68828577 1.9800001 nan
-0.23194288 -0.68828577 1.9800001 -3.0747853e+38
-0.2295543 -0.6924572 1.9920001 -2.648344e+38
-0.22576001 -0.6924572 1.9920001 -2.6618458e+38
-0.22586572 -0.70462388 2.0270002 -2.6882746e+38
-0.22463335 -0.71296674 2.0510001 -2.6616898e+38
-0.22201811 -0.71713817 2.0630002 -2.6483452e+38
-0.21946287 -0.72165722 2.0760002 -2.621812e+38
-0.2167543 -0.72582865 2.0880001 -2.595072e+38
-0.21277715 -0.72582865 2.0880001 -2.5684358e+38
-0.21010001 -0.73034769 2.1010001 -2.5548839e+38
-0.20609811 -0.73034769 2.1010001 -2.5284549e+38
-0.20209621 -0.73034769 2.1010001 -2.5018182e+38
-0.19809429 -0.73034769 2.1010001 -2.4886296e+38
-0.19529335 -0.73486674 2.1140001 -2.488734e+38
-0.19126669 -0.73486674 2.1140001 -2.4886827e+38
-0.18724002 -0.73486674 2.1140001 -2.4886831e+38
-0.18321334 -0.73486674 2.1140001 -2.4754949e+38
-0.17918667 -0.73486674 2.1140001 -2.4623582e+38
-0.17516001 -0.73486674 2.1140001 -2.4757022e+38
-0.17113334 -0.73486674 2.1140001 -2.5022865e+38
-0.16710667 -0.73486674 2.1140001 -2.5021825e+38
-0.16308001 -0.73486674 2.1140001 -2.502079e+38
-0.15905334 -0.73486674 2.1140001 -2.4887869e+38
-0.15502667 -0.73486674 2.1140001 -2.4887873e+38
-0.15100001 -0.73486674 2.1140001 -2.4888397e+38
-0.14697334 -0.73486674 2.1140001 -2.4889439e+38
-0.14294668 -0.73486674 2.1140001 -2.4891001e+38
-0.13977429 -0.73938578 2.1270001 -2.4892555e+38
-0.13572286 -0.73938578 2.1270001 -2.4759109e+38
-0.13167144 -0.73938578 2.1270001 -2.4759107e+38
-0.12840001 -0.74390483 2.1400001 -2.4759622e+38
-0.12432382 -0.74390483 2.1400001 -2.4892545e+38
-0.1209781 -0.74842387 2.1530001 -2.5024948e+38
-0.11687715 -0.74842387 2.1530001 -2.5290276e+38
-0.1127762 -0.74842387 2.1530001 -2.5290276e+38
-0.10867525 -0.74842387 2.1530001 -2.5422684e+38
-0.10457429 -0.74842387 2.1530001 -2.5422686e+38
-0.10047334 -0.74842387 2.1530001 -2.555457e+38
-0.096372388 -0.74842387 2.1530001 -2.5422686e+38
-0.092271432 -0.74842387 2.1530001 -2.5422684e+38
-0.088170484 -0.74842387 2.1530001 -2.5156834e+38
-0.084069528 -0.74842387 2.1530001 -2.5024429e+38
-0.079968579 -0.74842387 2.1530001 -2.4891504e+38
-0.075867623 -0.74842387 2.1530001 -2.4758585e+38
-0.072233342 -0.75329053 2.1670001 -2.5024433e+38
-0.06810572 -0.75329053 2.1670001 -2.5156319e+38
-0.063978098 -0.75329053 2.1670001 -2.5289242e+38
-0.060237147 -0.75815719 2.181 -2.5421128e+38
-0.05608286 -0.75815719 2.181 -2.5289246e+38
-0.052238099 -0.76267624 2.194 -2.5156847e+38
-0.04805905 -0.76267624 2.194 -2.5289773e+38
-0.044160005 -0.7675429 2.2080002 -2.5422181e+38
-0.03995429 -0.7675429 2.2080002 -2.5689069e+38
-0.035748575 -0.7675429 2.2080002 -2.6090957e+38
-0.03154286 -0.7675429 2.2080002 -2.6489208e+38
-0.027522858 -0.77275717 2.223 -2.6887466e+38
-0.023288572 -0.77275717 2.223 -2.7419163e+38
-0.019054286 -0.77275717 2.223 -2.7952426e+38
-0.014913335 -0.77762383 2.237 -2.8225034e+38
-0.010723811 -0.78283817 2.2520001 -2.8624843e+38
-0.0063914289 -0.77762383 2.237 -2.8626921e+38
-0.0021447621 -0.78283817 2.2520001 -2.8627968e+38
0.0021447621 -0.78283817 2.2520001 -2.8767647e+38
0.0064742863 -0.78770483 2.266 -2.8906308e+38
0.010861905 -0.7929191 2.2810001 -3.1303617e+38
0.015206668 -0.7929191 2.2810001 -3.37004e+38
0.019688573 -0.79848099 2.2970002 nan
0.024220955 -0.80369526 2.312 nan
0.028624764 -0.80369526 2.312 nan
0.033242859 -0.8089096 2.3270001 nan
0.037675239 -0.8089096 2.3270001 nan
0.042107623 -0.8089096 2.3270001 nan
0.046540003 -0.8089096 2.3270001 nan
0.050972383 -0.8089096 2.3270001 nan
-0.33009717 -0.65478289 1.8940001 nan
-0.32459337 -0.65098006 1.8830001 nan
-0.31930193 -0.64752293 1.8730001 -3.0737002e+38
-0.31404859 -0.64406574 1.863 -2.7413417e+38
-0.30883336 -0.64060861 1.853 -2.768394e+38
-0.30365622 -0.63715148 1.8430001 -2.7948732e+38
-0.29851717 -0.63369435 1.8330001 -2.7283585e+38
-0.29502574 -0.63369435 1.8330001 -2.6485531e+38
-0.29010287 -0.63058287 1.8240001 -2.3826039e+38
-0.2866286 -0.63058287 1.8240001 -2.103624e+38
-0.28315431 -0.63058287 1.8240001 -2.5292907e+38
-0.27968001 -0.63058287 1.8240001 -2.9557338e+38
-0.27469143 -0.62712574 1.8140001 -3.2090139e+38
-0.27123621 -0.62712574 1.8140001 nan
-0.26778096 -0.62712574 1.8140001 nan
-0.26432574 -0.62712574 1.8140001 nan
-0.26087049 -0.62712574 1.8140001 nan
-0.2588343 -0.63058287 1.8240001 nan
-0.25536001 -0.63058287 1.8240001 nan
-0.25188574 -0.63058287 1.8240001 nan
-0.24841145 -0.63058287 1.8240001 nan
-0.24614573 -0.63369435 1.8330001 nan
-0.24265431 -0.63369435 1.8330001 nan
-0.23916288 -0.63369435 1.8330001 nan
-0.23567145 -0.63369435 1.8330001 nan
-0.23218001 -0.63369435 1.8330001 nan
-0.22993621 -0.63715148 1.8430001 nan
-0.22765431 -0.64060861 1.853 nan
-0.23309526 -0.67690861 1.9580001 -3.3688875e+38
-0.2306543 -0.68071145 1.9690001 -3.0076526e+38
-0.2295543 -0.68866289 1.9920001 -2.6353653e+38
-0.22440001 -0.68451434 1.9800001 -2.6354176e+38
-0.22452858 -0.69661433 2.0150001 -2.6219172e+38
-0.22463335 -0.70906007 2.0510001 -2.6085207e+38
-0.22201811 -0.71320862 2.0630002 -2.5819359e+38
-0.21946287 -0.71770293 2.0760002 -2.5686954e+38
-0.2167543 -0.72185147 2.0880001 -2.5551956e+38
-0.21410193 -0.72634578 2.1010001 -2.55504e+38
-0.21010001 -0.72634578 2.1010001 -2.5416956e+38
-0.20609811 -0.72634578 2.1010001 -2.5151111e+38
-0.20209621 -0.72634578 2.1010001 -2.4752858e+38
-0.19932002 -0.73084003 2.1140001 -2.4753375e+38
-0.19529335 -0.73084003 2.1140001 -2.4620454e+38
-0.19126669 -0.73084003 2.1140001 -2.4753381e+38
-0.18724002 -0.73084003 2.1140001 -2.4754423e+38
-0.18321334 -0.73084003 2.1140001 -2.4622024e+38
-0.17918667 -0.73084003 2.1140001 -2.4357215e+38
-0.17516001 -0.73084003 2.1140001 -2.4624099e+38
-0.17113334 -0.73084003 2.1140001 -2.4889425e+38
-0.16710667 -0.73084003 2.1140001 -2.4888906e+38
-0.16308001 -0.73084003 2.1140001 -2.4887867e+38
-0.15905334 -0.73084003 2.1140001 -2.488735e+38
-0.15502667 -0.73084003 2.1140001 -2.4887352e+38
-0.15100001 -0.73084003 2.1140001 -2.4754431e+38
-0.14697334 -0.73084003 2.1140001 -2.462307e+38
-0.14294668 -0.73084003 2.1140001 -2.4625151e+38
-0.13977429 -0.73533434 2.1270001 -2.4492746e+38
-0.13572286 -0.73533434 2.1270001 -2.4625669e+38
-0.13167144 -0.73533434 2.1270001 -2.4626184e+38
-0.12762001 -0.73533434 2.1270001 -2.4759102e+38
-0.12432382 -0.73982865 2.1400001 -2.4759105e+38
-0.1209781 -0.7443229 2.1530001 -2.5024433e+38
-0.11687715 -0.7443229 2.1530001 -2.5157356e+38
-0.1127762 -0.7443229 2.1530001 -2.5289761e+38
-0.10867525 -0.7443229 2.1530001 -2.5290283e+38
-0.10457429 -0.7443229 2.1530001 -2.5290285e+38
-0.10047334 -0.7443229 2.1530001 -2.5289765e+38
-0.096372388 -0.7443229 2.1530001 -2.5422688e+38
-0.092271432 -0.7443229 2.1530001 -2.5422684e+38
-0.088170484 -0.7443229 2.1530001 -2.542268e+38
-0.084069528 -0.7443229 2.1530001 -2.5290274e+38
-0.080488577 -0.74916291 2.1670001 -2.5157352e+38
-0.076360956 -0.74916291 2.1670001 -2.5024429e+38
-0.072233342 -0.74916291 2.1670001 -2.5157873e+38
-0.06810572 -0.74916291 2.1670001 -2.5289759e+38
-0.063978098 -0.74916291 2.1670001 -2.5422167e+38
-0.060237147 -0.75400293 2.181 -2.5422167e+38
-0.05608286 -0.75400293 2.181 -2.5289246e+38
-0.052238099 -0.75849718 2.194 -2.5023407e+38
-0.04805905 -0.75849718 2.194 -2.5156855e+38
-0.044160005 -0.76333719 2.2080002 -2.528978e+38
-0.03995429 -0.76333719 2.2080002 -2.5688031e+38
-0.035748575 -0.76333719 2.2080002 -2.6087838e+38
-0.03154286 -0.76333719 2.2080002 -2.661849e+38
-0.027337145 -0.76333719 2.2080002 -2.7017778e+38
-0.023288572 -0.76852292 2.223 -2.7280508e+38
-0.019054286 -0.76852292 2.223 -2.7420207e+38
-0.014913335 -0.77336293 2.237 -2.7959196e+38
-0.010723811 -0.7785486 2.2520001 -2.8492445e+38
-0.0063914289 -0.77336293 2.237 -2.8892773e+38
-0.0021447621 -0.7785486 2.2520001 -2.9294144e+38
0.0021447621 -0.7785486 2.2520001 -2.9031939e+38
0.0064742863 -0.78338861 2.266 -2.8769231e+38
0.010790477 -0.78338861 2.266 -3.1695113e+38
0.015206668 -0.78857434 2.2810001 nan
0.01955143 -0.78857434 2.2810001 -3.195836e+38
0.024063811 -0.79410577 2.2970002 -2.917841e+38
0.028624764 -0.79929149 2.312 -2.9845107e+38
0.033028573 -0.79929149 2.312 -3.0514914e+38
0.037675239 -0.80447721 2.3270001 nan
0.042107623 -0.80447721 2.3270001 nan
0.046540003 -0.80447721 2.3270001 nan
0.050972383 -0.80447721 2.3270001 nan
-0.33009717 -0.65117526 1.8940001 nan
-0.32459337 -0.64739341 1.8830001 -3.2900162e+38
