# .PCD v0.7 - Point Cloud Data file format
VERSION 0.7
FIELDS x y z rgb
SIZE 4 4 4 4
TYPE F F F F
COUNT 1 1 1 1
WIDTH 1047
HEIGHT 1
VIEWPOINT 0 0 0 1 0 0 0
POINTS 1047
DATA ascii
0.5142048 0.23170193 1.3010001 -2.2622426e+38
0.51668286 0.23170193 1.3010001 -2.2485345e+38
0.51916099 0.23170193 1.3010001 -2.2489503e+38
0.52163911 0.23170193 1.3010001 -2.2355546e+38
0.52411717 0.23170193 1.3010001 -2.2225217e+38
0.52659529 0.23170193 1.3010001 -2.168937e+38
0.52907336 0.23170193 1.3010001 -2.1158717e+38
0.53155148 0.23170193 1.3010001 -2.1289042e+38
0.53402954 0.23170193 1.3010001 -2.1556447e+38
0.53650767 0.23170193 1.3010001 -2.1687812e+38
0.54105717 0.23259239 1.3060001 -2.1955735e+38
0.54354477 0.23259239 1.3060001 -2.2218982e+38
0.54812288 0.23348287 1.3110001 -2.2487428e+38
0.54852003 0.23259239 1.3060001 -2.2217952e+38
0.55100763 0.23259239 1.3060001 -2.1819179e+38
0.55349529 0.23259239 1.3060001 -2.2483787e+38
0.55811149 0.23348287 1.3110001 -2.3150999e+38
0.56060863 0.23348287 1.3110001 -2.3151001e+38
0.56310576 0.23348287 1.3110001 -2.3283924e+38
0.5656029 0.23348287 1.3110001 -2.3417364e+38
0.57026672 0.23437335 1.3160001 -2.3551849e+38
0.5727734 0.23437335 1.3160001 -2.3816658e+38
0.57528001 0.23437335 1.3160001 -2.4083546e+38
0.57778668 0.23437335 1.3160001 -2.4748162e+38
0.58029336 0.23437335 1.3160001 -2.5412241e+38
0.58501434 0.23526382 1.3210001 -2.3946437e+38
0.58753049 0.23526382 1.3210001 -2.2614682e+38
0.59228003 0.2361543 1.3260001 -3.1023674e+38
0.59704864 0.23704478 1.3310001 nan
0.19809906 0.25128001 1.396 nan
0.19989525 0.2502 1.3900001 nan
0.20181429 0.24930002 1.3850001 nan
0.20282859 0.24732001 1.3740001 -2.7418072e+38
0.20544572 0.24732001 1.3740001 -2.4474508e+38
0.2071543 0.24624002 1.368 -2.1426638e+38
0.20976001 0.24624002 1.368 -2.2624509e+38
0.21081334 0.24444002 1.358 -2.3686847e+38
0.21340002 0.24444002 1.358 -2.3551843e+38
0.2150324 0.24336001 1.3520001 -2.3417877e+38
0.21760763 0.24336001 1.3520001 -2.3283914e+38
0.22018287 0.24336001 1.3520001 -2.3150472e+38
0.2219343 0.24246001 1.3470001 -2.3018067e+38
0.22450002 0.24246001 1.3470001 -2.2885144e+38
0.22706573 0.24246001 1.3470001 -2.2619298e+38
0.22963144 0.24246001 1.3470001 -2.2220534e+38
0.23133525 0.24156001 1.342 -2.2486381e+38
0.23284572 0.24048002 1.3360001 -2.2618266e+38
0.23450954 0.23958002 1.3310001 -2.2617747e+38
0.23704478 0.23958002 1.3310001 -2.2485345e+38
0.23868002 0.23868002 1.3260001 -2.2750673e+38
0.24120574 0.23868002 1.3260001 -2.2883596e+38
0.24373144 0.23868002 1.3260001 -2.2617751e+38
0.24625716 0.23868002 1.3260001 -2.2352422e+38
0.24878287 0.23868002 1.3260001 -2.2352422e+38
0.24941336 0.23688002 1.3160001 -2.2220017e+38
0.25192001 0.23688002 1.3160001 -2.2220536e+38
0.25442669 0.23688002 1.3160001 -2.2220536e+38
0.25595716 0.23598002 1.3110001 -2.1955209e+38
0.25845429 0.23598002 1.3110001 -2.1689364e+38
0.26095146 0.23598002 1.3110001 -2.1822289e+38
0.26244384 0.23508002 1.3060001 -2.1822287e+38
0.26493144 0.23508002 1.3060001 -2.1689362e+38
0.26741907 0.23508002 1.3060001 -2.1422995e+38
0.26887336 0.23418002 1.3010001 -2.115663e+38
0.27135146 0.23418002 1.3010001 -2.0758383e+38
0.27382955 0.23418002 1.3010001 -2.102475e+38
0.27630764 0.23418002 1.3010001 -2.1290078e+38
0.27878574 0.23418002 1.3010001 -2.1289559e+38
0.28126383 0.23418002 1.3010001 -2.1290078e+38
0.28374192 0.23418002 1.3010001 -2.1422999e+38
0.28622001 0.23418002 1.3010001 -2.142248e+38
0.28869811 0.23418002 1.3010001 -2.1687285e+38
0.2911762 0.23418002 1.3010001 -2.1820204e+38
0.29365429 0.23418002 1.3010001 -2.1952605e+38
0.29613239 0.23418002 1.3010001 -2.2085009e+38
0.29975811 0.23508002 1.3060001 -2.208397e+38
0.30224574 0.23508002 1.3060001 -2.2083968e+38
0.30473337 0.23508002 1.3060001 -2.1950526e+38
0.30722097 0.23508002 1.3060001 -2.1686234e+38
0.3097086 0.23508002 1.3060001 -2.1686751e+38
0.31219622 0.23508002 1.3060001 -2.1553311e+38
0.31468382 0.23508002 1.3060001 -2.1552794e+38
0.31717145 0.23508002 1.3060001 -2.1552273e+38
0.31965905 0.23508002 1.3060001 -2.1418829e+38
0.32214668 0.23508002 1.3060001 -2.1285387e+38
0.32463431 0.23508002 1.3060001 -2.141779e+38
0.32712191 0.23508002 1.3060001 -2.1417786e+38
0.32960954 0.23508002 1.3060001 -2.141778e+38
0.33209717 0.23508002 1.3060001 -2.1417257e+38
0.33458477 0.23508002 1.3060001 -2.1283811e+38
0.3370724 0.23508002 1.3060001 -2.1151407e+38
0.34086001 0.23598002 1.3110001 -2.1284847e+38
0.34335718 0.23598002 1.3110001 -2.1284847e+38
0.34717336 0.23688002 1.3160001 -2.1018481e+38
0.34968004 0.23688002 1.3160001 -2.0619193e+38
0.35352477 0.23778002 1.3210001 -2.0885037e+38
0.35873622 0.23958002 1.3310001 -2.101744e+38
0.36127144 0.23958002 1.3310001 -2.1016919e+38
0.36517337 0.24048002 1.3360001 -2.0883996e+38
0.36771813 0.24048002 1.3360001 -2.0751071e+38
0.37192574 0.24156001 1.342 -2.0616587e+38
0.37587717 0.24246001 1.3470001 -2.0482621e+38
0.37844288 0.24246001 1.3470001 -2.0216776e+38
0.38412002 0.24444002 1.358 -2.0217297e+38
0.39439526 0.24930002 1.3850001 -2.0216774e+38
0.39846671 0.2502 1.3900001 -1.9949888e+38
0.40284574 0.25128001 1.396 -1.9683519e+38
0.40550479 0.25128001 1.396 -1.9416631e+38
0.40640956 0.2502 1.3900001 -1.9016818e+38
0.40905717 0.2502 1.3900001 -1.8748891e+38
0.4084467 0.24822001 1.3790001 -1.8482524e+38
0.40958288 0.24732001 1.3740001 -1.8614407e+38
0.41220003 0.24732001 1.3740001 -1.8614926e+38
0.41300574 0.24624002 1.368 -1.8748368e+38
0.41409242 0.24534002 1.363 -1.874837e+38
0.41668859 0.24534002 1.363 -1.8881297e+38
0.41774669 0.24444002 1.358 -1.901526e+38
0.41847622 0.24336001 1.3520001 -1.9282665e+38
0.4194943 0.24246001 1.3470001 -1.9415588e+38
0.42206004 0.24246001 1.3470001 -1.9416109e+38
0.42462575 0.24246001 1.3470001 -1.9416109e+38
0.42560574 0.24156001 1.342 -1.9549549e+38
0.42816192 0.24156001 1.342 -1.9549553e+38
0.42879242 0.24048002 1.3360001 -1.9815922e+38
0.43133718 0.24048002 1.3360001 -1.9949366e+38
0.43388194 0.24048002 1.3360001 -2.0083332e+38
0.4364267 0.24048002 1.3360001 -2.0083853e+38
0.43897146 0.24048002 1.3360001 -1.9949374e+38
0.44151622 0.24048002 1.3360001 -1.9685091e+38
0.44239908 0.23958002 1.3310001 -1.9553732e+38
0.44493431 0.23958002 1.3310001 -1.9421853e+38
0.44746956 0.23958002 1.3310001 -1.9686667e+38
0.45000479 0.23958002 1.3310001 -1.9821668e+38
0.45084003 0.23868002 1.3260001 -2.0220958e+38
0.45336574 0.23868002 1.3260001 -2.0487327e+38
0.4541724 0.23778002 1.3210001 -2.0619734e+38
0.45668861 0.23778002 1.3210001 -2.0620773e+38
0.45920479 0.23778002 1.3210001 -2.0619736e+38
0.45997337 0.23688002 1.3160001 -2.062182e+38
0.46248004 0.23688002 1.3160001 -2.1152998e+38
0.46498671 0.23688002 1.3160001 -2.1551762e+38
0.46749336 0.23688002 1.3160001 -2.1418316e+38
0.47000003 0.23688002 1.3160001 -2.1287993e+38
0.4725067 0.23688002 1.3160001 -2.1819686e+38
0.47501338 0.23688002 1.3160001 -2.2351384e+38
0.47752002 0.23688002 1.3160001 -2.2082429e+38
0.47820288 0.23598002 1.3110001 -2.1818137e+38
0.48070005 0.23598002 1.3110001 -2.1816575e+38
0.48319718 0.23598002 1.3110001 -2.1817094e+38
0.48569432 0.23598002 1.3110001 -2.2082942e+38
0.48819146 0.23598002 1.3110001 -2.2217427e+38
0.49068859 0.23598002 1.3110001 -2.2614643e+38
0.49318576 0.23598002 1.3110001 -2.3015485e+38
0.4956829 0.23598002 1.3110001 -2.2747558e+38
0.49628004 0.23508002 1.3060001 -2.2482228e+38
0.49876764 0.23508002 1.3060001 -2.2080859e+38
0.50125527 0.23508002 1.3060001 -2.1683131e+38
0.50181431 0.23418002 1.3010001 -2.1812938e+38
0.50429243 0.23418002 1.3010001 -2.195054e+38
0.50677049 0.23418002 1.3010001 -2.1952621e+38
0.50924861 0.23418002 1.3010001 -2.1951581e+38
0.51172668 0.23418002 1.3010001 -2.1815019e+38
0.5142048 0.23418002 1.3010001 -2.1547614e+38
0.51668286 0.23418002 1.3010001 -2.1806706e+38
0.51916099 0.23418002 1.3010001 -2.2080861e+38
0.51963431 0.23328002 1.296 -2.2215865e+38
0.52210289 0.23328002 1.296 -2.2214822e+38
0.52457148 0.23328002 1.296 -2.1412091e+38
0.52704006 0.23328002 1.296 -2.0616635e+38
0.52950859 0.23328002 1.296 -2.0877812e+38
0.53402954 0.23418002 1.3010001 -2.1149888e+38
0.53650767 0.23418002 1.3010001 -2.1412099e+38
0.54105717 0.23508002 1.3060001 -2.1682097e+38
0.54354477 0.23508002 1.3060001 -2.1941709e+38
0.54603243 0.23508002 1.3060001 -2.2079299e+38
0.54852003 0.23508002 1.3060001 -2.1272932e+38
0.55100763 0.23508002 1.3060001 -2.0350262e+38
0.55349529 0.23508002 1.3060001 -2.1676379e+38
0.55811149 0.23598002 1.3110001 -2.3012359e+38
0.56060863 0.23598002 1.3110001 -2.3277687e+38
0.56310576 0.23598002 1.3110001 -2.3412687e+38
0.5656029 0.23598002 1.3110001 -2.3412168e+38
0.57026672 0.23688002 1.3160001 -2.3282363e+38
0.5727734 0.23688002 1.3160001 -2.3679058e+38
0.57528001 0.23688002 1.3160001 -2.4081465e+38
0.57778668 0.23688002 1.3160001 -2.487745e+38
0.58249813 0.23778002 1.3210001 -2.5676518e+38
0.58501434 0.23778002 1.3210001 -2.3676421e+38
0.58753049 0.23778002 1.3210001 -2.1696688e+38
0.59228003 0.23868002 1.3260001 -3.1439084e+38
0.19809906 0.25393906 1.396 nan
0.19989525 0.25284764 1.3900001 nan
0.20181429 0.2519381 1.3850001 nan
0.20356669 0.25084668 1.3790001 -3.2082312e+38
0.20544572 0.24993716 1.3740001 -2.647508e+38
0.20806287 0.24993716 1.3740001 -2.0895458e+38
0.20976001 0.24884573 1.368 -2.2357627e+38
0.21158955 0.2479362 1.363 -2.3952175e+38
0.21340002 0.24702668 1.358 -2.3684766e+38
0.2150324 0.24593526 1.3520001 -2.3417358e+38
0.21760763 0.24593526 1.3520001 -2.3151507e+38
0.22018287 0.24593526 1.3520001 -2.3018065e+38
0.2219343 0.24502572 1.3470001 -2.2885142e+38
0.22450002 0.24502572 1.3470001 -2.2752219e+38
0.22706573 0.24502572 1.3470001 -2.2619296e+38
0.22963144 0.24502572 1.3470001 -2.2485339e+38
0.23133525 0.2441162 1.342 -2.2485341e+38
0.23284572 0.24302478 1.3360001 -2.2617747e+38
0.23450954 0.24211526 1.3310001 -2.2484824e+38
0.23704478 0.24211526 1.3310001 -2.2485343e+38
0.23868002 0.24120574 1.3260001 -2.2617747e+38
0.24120574 0.24120574 1.3260001 -2.2617747e+38
0.24373144 0.24120574 1.3260001 -2.2484824e+38
0.24625716 0.24120574 1.3260001 -2.2351899e+38
0.24878287 0.24120574 1.3260001 -2.2351895e+38
0.24941336 0.23938668 1.3160001 -2.2218972e+38
0.25192001 0.23938668 1.3160001 -2.2220011e+38
0.25442669 0.23938668 1.3160001 -2.2353455e+38
0.25595716 0.23847716 1.3110001 -2.2221051e+38
0.25845429 0.23847716 1.3110001 -2.2220532e+38
0.26095146 0.23847716 1.3110001 -2.2220532e+38
0.26244384 0.23756763 1.3060001 -2.2220013e+38
0.26493144 0.23756763 1.3060001 -2.1821761e+38
0.26741907 0.23756763 1.3060001 -2.1422474e+38
0.26887336 0.23665811 1.3010001 -2.1157145e+38
0.27135146 0.23665811 1.3010001 -2.0758381e+38
0.27382955 0.23665811 1.3010001 -2.0891308e+38
0.27630764 0.23665811 1.3010001 -2.1023713e+38
0.27878574 0.23665811 1.3010001 -2.1156638e+38
0.28126383 0.23665811 1.3010001 -2.1422482e+38
0.28374192 0.23665811 1.3010001 -2.1289038e+38
0.28622001 0.23665811 1.3010001 -2.1288517e+38
0.28869811 0.23665811 1.3010001 -2.1421437e+38
0.2911762 0.23665811 1.3010001 -2.1554356e+38
0.29365429 0.23665811 1.3010001 -2.1686754e+38
0.29727051 0.23756763 1.3060001 -2.1819678e+38
0.29975811 0.23756763 1.3060001 -2.181864e+38
0.30224574 0.23756763 1.3060001 -2.1817603e+38
0.30473337 0.23756763 1.3060001 -2.16852e+38
0.30722097 0.23756763 1.3060001 -2.1553311e+38
0.3097086 0.23756763 1.3060001 -2.1553307e+38
0.31219622 0.23756763 1.3060001 -2.1552792e+38
0.31468382 0.23756763 1.3060001 -2.1552275e+38
0.31717145 0.23756763 1.3060001 -2.1418829e+38
0.31965905 0.23756763 1.3060001 -2.1285381e+38
0.32214668 0.23756763 1.3060001 -2.1284864e+38
0.32463431 0.23756763 1.3060001 -2.1284864e+38
0.32712191 0.23756763 1.3060001 -2.1417263e+38
0.32960954 0.23756763 1.3060001 -2.1284334e+38
0.33209717 0.23756763 1.3060001 -2.1150888e+38
0.33586574 0.23847716 1.3110001 -2.1150884e+38
0.33836287 0.23847716 1.3110001 -2.1150884e+38
0.34086001 0.23847716 1.3110001 -2.1150884e+38
0.34335718 0.23847716 1.3110001 -2.1150882e+38
0.34717336 0.23938668 1.3160001 -2.0751592e+38
0.35100859 0.2402962 1.3210001 -2.0351784e+38
0.35486287 0.24120574 1.3260001 -2.0618146e+38
0.35873622 0.24211526 1.3310001 -2.0883473e+38
0.36262861 0.24302478 1.3360001 -2.075055e+38
0.36517337 0.24302478 1.3360001 -2.0617108e+38
0.36771813 0.24302478 1.3360001 -2.0617108e+38
0.37192574 0.2441162 1.342 -2.0483145e+38
0.37587717 0.24502572 1.3470001 -2.035022e+38
0.37844288 0.24502572 1.3470001 -2.035022e+38
0.38412002 0.24702668 1.358 -2.0216778e+38
0.39752764 0.25393906 1.396 -2.0083334e+38
0.40018669 0.25393906 1.396 -1.9949888e+38
0.40284574 0.25393906 1.396 -1.9815922e+38
0.40550479 0.25393906 1.396 -1.9416631e+38
0.40816385 0.25393906 1.396 -1.9017339e+38
0.40905717 0.25284764 1.3900001 -1.8749932e+38
0.4084467 0.25084668 1.3790001 -1.8615968e+38
0.40958288 0.24993716 1.3740001 -1.8615447e+38
0.41040003 0.24884573 1.368 -1.8615447e+38
0.41300574 0.24884573 1.368 -1.8615447e+38
0.41409242 0.2479362 1.363 -1.8615449e+38
0.41516003 0.24702668 1.358 -1.8748893e+38
0.41774669 0.24702668 1.358 -1.901526e+38
0.41847622 0.24593526 1.3520001 -1.9149223e+38
0.4194943 0.24502572 1.3470001 -1.9283704e+38
0.42206004 0.24502572 1.3470001 -1.9282665e+38
0.42462575 0.24502572 1.3470001 -1.9281627e+38
0.42560574 0.2441162 1.342 -1.9282146e+38
0.42816192 0.2441162 1.342 -1.9415073e+38
0.42879242 0.24302478 1.3360001 -1.9549555e+38
0.43133718 0.24302478 1.3360001 -1.9815405e+38
0.43388194 0.24302478 1.3360001 -1.9949888e+38
0.43838671 0.2441162 1.342 -1.9950411e+38
0.43897146 0.24302478 1.3360001 -1.9818009e+38
0.44151622 0.24302478 1.3360001 -1.9686131e+38
0.44239908 0.24211526 1.3310001 -1.9820618e+38
0.44493431 0.24211526 1.3310001 -1.9954583e+38
0.44746956 0.24211526 1.3310001 -2.0086989e+38
0.44831431 0.24120574 1.3260001 -2.0087512e+38
0.45084003 0.24120574 1.3260001 -2.035336e+38
0.45165622 0.2402962 1.3210001 -2.0618171e+38
0.4541724 0.2402962 1.3210001 -2.0752653e+38
0.45668861 0.2402962 1.3210001 -2.1017978e+38
0.45920479 0.2402962 1.3210001 -2.1018493e+38
0.45997337 0.23938668 1.3160001 -2.1017462e+38
0.46248004 0.23938668 1.3160001 -2.1150393e+38
0.46498671 0.23938668 1.3160001 -2.1411562e+38
0.46749336 0.23938668 1.3160001 -2.1150902e+38
0.47000003 0.23938668 1.3160001 -2.0885578e+38
0.4725067 0.23938668 1.3160001 -2.1151945e+38
0.47501338 0.23938668 1.3160001 -2.1414158e+38
0.47752002 0.23938668 1.3160001 -2.1548121e+38
0.47820288 0.23847716 1.3110001 -2.1545527e+38
0.48070005 0.23847716 1.3110001 -2.1680527e+38
0.48319718 0.23847716 1.3110001 -2.1809819e+38
0.48569432 0.23847716 1.3110001 -2.1947417e+38
0.48632956 0.23756763 1.3060001 -2.2080344e+38
0.49068859 0.23847716 1.3110001 -2.234879e+38
0.49130479 0.23756763 1.3060001 -2.2615152e+38
0.49379241 0.23756763 1.3060001 -2.2614112e+38
0.49628004 0.23756763 1.3060001 -2.261255e+38
0.49685812 0.23665811 1.3010001 -2.234722e+38
0.49933621 0.23665811 1.3010001 -2.2078778e+38
0.50181431 0.23665811 1.3010001 -2.2080855e+38
0.50429243 0.23665811 1.3010001 -2.1948977e+38
0.50677049 0.23665811 1.3010001 -2.1951058e+38
0.50924861 0.23665811 1.3010001 -2.194794e+38
0.51172668 0.23665811 1.3010001 -2.1815013e+38
0.5142048 0.23665811 1.3010001 -2.1541897e+38
0.51668286 0.23665811 1.3010001 -2.1944815e+38
0.51916099 0.23665811 1.3010001 -2.2342027e+38
0.51963431 0.23574859 1.296 -2.2346181e+38
0.52210289 0.23574859 1.296 -2.2340466e+38
0.52457148 0.23574859 1.296 -2.1812924e+38
0.52704006 0.23574859 1.296 -2.1143647e+38
0.52950859 0.23574859 1.296 -2.1415732e+38
0.53197718 0.23574859 1.296 -2.1684174e+38
0.53444576 0.23574859 1.296 -2.1684691e+38
0.53898573 0.23665811 1.3010001 -2.1816573e+38
0.54146385 0.23665811 1.3010001 -2.2083453e+38
0.54603243 0.23756763 1.3060001 -2.2348246e+38
0.54852003 0.23756763 1.3060001 -2.1816541e+38
0.55100763 0.23756763 1.3060001 -2.1285381e+38
0.55349529 0.23756763 1.3060001 -2.2349295e+38
0.55811149 0.23847716 1.3110001 -2.3279756e+38
0.56060863 0.23847716 1.3110001 -2.3413198e+38
0.56310576 0.23847716 1.3110001 -2.3676969e+38
0.5656029 0.23847716 1.3110001 -2.3548202e+38
0.57026672 0.23938668 1.3160001 -2.3549243e+38
0.5727734 0.23938668 1.3160001 -2.3949051e+38
0.57528001 0.23938668 1.3160001 -2.4350424e+38
0.57778668 0.23938668 1.3160001 -2.5148488e+38
0.58029336 0.23938668 1.3160001 -2.5947548e+38
0.58280003 0.23938668 1.3160001 -2.4611536e+38
0.58753049 0.2402962 1.3210001 -2.3411188e+38
0.19809906 0.25659811 1.396 nan
0.19989525 0.25549525 1.3900001 nan
0.20181429 0.25457621 1.3850001 nan
0.20356669 0.25347334 1.3790001 nan
0.20544572 0.2525543 1.3740001 -2.8447637e+38
0.20806287 0.2525543 1.3740001 -2.0351307e+38
0.20976001 0.25145143 1.368 -2.2224187e+38
0.21236573 0.25145143 1.368 -2.4084061e+38
0.21340002 0.24961334 1.358 -2.3684246e+38
0.21598668 0.24961334 1.358 -2.3284955e+38
0.21760763 0.24851049 1.3520001 -2.3018586e+38
0.22018287 0.24851049 1.3520001 -2.275274e+38
0.22275811 0.24851049 1.3520001 -2.2752738e+38
0.22450002 0.24759145 1.3470001 -2.2619296e+38
0.22706573 0.24759145 1.3470001 -2.2752221e+38
0.22963144 0.24759145 1.3470001 -2.2751185e+38
0.23133525 0.24667239 1.342 -2.2617747e+38
0.23389144 0.24667239 1.342 -2.2484824e+38
0.23539048 0.24556954 1.3360001 -2.2484824e+38
0.23704478 0.2446505 1.3310001 -2.2485343e+38
0.23958002 0.2446505 1.3310001 -2.2484824e+38
0.24120574 0.24373144 1.3260001 -2.2351901e+38
0.24373144 0.24373144 1.3260001 -2.2351382e+38
0.24625716 0.24373144 1.3260001 -2.235138e+38
0.24878287 0.24373144 1.3260001 -2.235138e+38
0.25036097 0.2428124 1.3210001 -2.2219495e+38
0.25192001 0.24189335 1.3160001 -2.2353457e+38
0.25442669 0.24189335 1.3160001 -2.2353976e+38
0.25595716 0.24097431 1.3110001 -2.2619823e+38
0.25845429 0.24097431 1.3110001 -2.2752225e+38
0.26095146 0.24097431 1.3110001 -2.2618264e+38
0.26244384 0.24005525 1.3060001 -2.248586e+38
0.26493144 0.24005525 1.3060001 -2.1954169e+38
0.26741907 0.24005525 1.3060001 -2.1422997e+38
0.26990667 0.24005525 1.3060001 -2.1157151e+38
0.2723943 0.24005525 1.3060001 -2.0758385e+38
0.27382955 0.2391362 1.3010001 -2.0758387e+38
0.27630764 0.2391362 1.3010001 -2.0625466e+38
0.27878574 0.2391362 1.3010001 -2.1023717e+38
0.28126383 0.2391362 1.3010001 -2.1421963e+38
0.28374192 0.2391362 1.3010001 -2.1287999e+38
0.28622001 0.2391362 1.3010001 -2.1155594e+38
0.28869811 0.2391362 1.3010001 -2.1288514e+38
0.2911762 0.2391362 1.3010001 -2.1287991e+38
0.29365429 0.2391362 1.3010001 -2.1420389e+38
0.29613239 0.2391362 1.3010001 -2.1553314e+38
0.29975811 0.24005525 1.3060001 -2.1552275e+38
0.30224574 0.24005525 1.3060001 -2.1552275e+38
0.30473337 0.24005525 1.3060001 -2.1552275e+38
0.30722097 0.24005525 1.3060001 -2.1419867e+38
0.3097086 0.24005525 1.3060001 -2.1552267e+38
0.31219622 0.24005525 1.3060001 -2.1552267e+38
0.31468382 0.24005525 1.3060001 -2.1418827e+38
0.31717145 0.24005525 1.3060001 -2.1285383e+38
0.31965905 0.24005525 1.3060001 -2.1284862e+38
0.32214668 0.24005525 1.3060001 -2.1151939e+38
0.32463431 0.24005525 1.3060001 -2.1284342e+38
0.32712191 0.24005525 1.3060001 -2.1284338e+38
0.32960954 0.24005525 1.3060001 -2.115089e+38
0.33209717 0.24005525 1.3060001 -2.0885041e+38
0.33458477 0.24005525 1.3060001 -2.1016923e+38
0.3370724 0.24005525 1.3060001 -2.1150363e+38
0.34086001 0.24097431 1.3110001 -2.1150363e+38
0.34335718 0.24097431 1.3110001 -2.101744e+38
0.34717336 0.24189335 1.3160001 -2.0484708e+38
0.35100859 0.2428124 1.3210001 -1.9953536e+38
0.35486287 0.24373144 1.3260001 -2.0352303e+38
0.35873622 0.2446505 1.3310001 -2.0617629e+38
0.36262861 0.24556954 1.3360001 -2.0484185e+38
0.36517337 0.24556954 1.3360001 -2.0351262e+38
0.36771813 0.24556954 1.3360001 -2.0350224e+38
0.37192574 0.24667239 1.342 -2.0350743e+38
0.37587717 0.24759145 1.3470001 -2.0350741e+38
0.37984765 0.24851049 1.3520001 -2.035022e+38
0.38864574 0.2525543 1.3740001 -2.0216256e+38
0.40066004 0.25862002 1.4070001 -1.9950409e+38
0.4019067 0.25770098 1.4020001 -1.9949888e+38
0.40457717 0.25770098 1.4020001 -1.9816442e+38
0.40550479 0.25659811 1.396 -1.9416633e+38
0.40816385 0.25659811 1.396 -1.9017339e+38
0.4108229 0.25659811 1.396 -1.8882854e+38
0.41170478 0.25549525 1.3900001 -1.8615968e+38
0.41107336 0.25347334 1.3790001 -1.8615966e+38
0.41220003 0.2525543 1.3740001 -1.8615447e+38
0.41300574 0.25145143 1.368 -1.8615447e+38
0.41409242 0.25053239 1.363 -1.8482526e+38
0.41516003 0.24961334 1.358 -1.8749412e+38
0.41774669 0.24961334 1.358 -1.8882335e+38
0.41847622 0.24851049 1.3520001 -1.9014741e+38
0.4194943 0.24759145 1.3470001 -1.9015779e+38
0.42206004 0.24759145 1.3470001 -1.9015781e+38
0.42462575 0.24759145 1.3470001 -1.9015781e+38
0.42560574 0.24667239 1.342 -1.9148704e+38
0.42816192 0.24667239 1.342 -1.9149747e+38
0.42879242 0.24556954 1.3360001 -1.9416635e+38
0.43133718 0.24556954 1.3360001 -1.9683523e+38
0.43388194 0.24556954 1.3360001 -1.9816971e+38
0.43838671 0.24667239 1.342 -1.9818017e+38
0.43897146 0.24556954 1.3360001 -1.9686139e+38
0.44151622 0.24556954 1.3360001 -1.9554257e+38
0.44239908 0.2446505 1.3310001 -2.0087508e+38
0.44493431 0.2446505 1.3310001 -2.0486278e+38
0.44746956 0.2446505 1.3310001 -2.0486797e+38
0.45000479 0.2446505 1.3310001 -2.0353879e+38
0.45084003 0.24373144 1.3260001 -2.061973e+38
0.45165622 0.2428124 1.3210001 -2.0752657e+38
0.4541724 0.2428124 1.3210001 -2.1019545e+38
0.45668861 0.2428124 1.3210001 -2.1285387e+38
0.45920479 0.2428124 1.3210001 -2.1418825e+38
0.46172097 0.2428124 1.3210001 -2.1417795e+38
0.46248004 0.24189335 1.3160001 -2.1284361e+38
0.46498671 0.24189335 1.3160001 -2.1151432e+38
0.46749336 0.24189335 1.3160001 -2.088714e+38
0.47000003 0.24189335 1.3160001 -2.0487854e+38
0.4725067 0.24189335 1.3160001 -2.0487858e+38
0.47501338 0.24189335 1.3160001 -2.0486299e+38
0.47570574 0.24097431 1.3110001 -2.0884546e+38
0.47820288 0.24097431 1.3110001 -2.1282799e+38
0.48070005 0.24097431 1.3110001 -2.1549168e+38
0.48319718 0.24097431 1.3110001 -2.1814494e+38
0.48569432 0.24097431 1.3110001 -2.1816052e+38
0.48632956 0.24005525 1.3060001 -2.1817092e+38
0.49068859 0.24097431 1.3110001 -2.2085017e+38
0.49130479 0.24005525 1.3060001 -2.221742e+38
0.49379241 0.24005525 1.3060001 -2.2481708e+38
0.49628004 0.24005525 1.3060001 -2.274911e+38
0.49685812 0.2391362 1.3010001 -2.2617223e+38
0.49933621 0.2391362 1.3010001 -2.2482224e+38
0.50181431 0.2391362 1.3010001 -2.2216378e+38
0.50429243 0.2391362 1.3010001 -2.1952094e+38
0.50677049 0.2391362 1.3010001 -2.1954177e+38
0.50924861 0.2391362 1.3010001 -2.1953656e+38
0.51172668 0.2391362 1.3010001 -2.1821769e+38
0.5142048 0.2391362 1.3010001 -2.1553845e+38
0.51668286 0.2391362 1.3010001 -2.208813e+38
0.51916099 0.2391362 1.3010001 -2.2483783e+38
0.51963431 0.23821716 1.296 -2.2485343e+38
0.52210289 0.23821716 1.296 -2.2483783e+38
0.52457148 0.23821716 1.296 -2.2089167e+38
0.52704006 0.23821716 1.296 -2.1687806e+38
0.52950859 0.23821716 1.296 -2.195781e+38
0.53197718 0.23821716 1.296 -2.2222617e+38
0.53444576 0.23821716 1.296 -2.2090732e+38
0.53691435 0.23821716 1.296 -2.1825408e+38
0.54146385 0.2391362 1.3010001 -2.2226253e+38
0.54394192 0.2391362 1.3010001 -2.2490529e+38
0.54642004 0.2391362 1.3010001 -2.2358631e+38
0.55100763 0.24005525 1.3060001 -2.2223637e+38
0.55349529 0.24005525 1.3060001 -2.2888774e+38
0.55811149 0.24097431 1.3110001 -2.3551831e+38
0.56060863 0.24097431 1.3110001 -2.3684236e+38
0.56310576 0.24097431 1.3110001 -2.381768e+38
0.5656029 0.24097431 1.3110001 -2.381924e+38
0.57026672 0.24189335 1.3160001 -2.36858e+38
0.5727734 0.24189335 1.3160001 -2.4218012e+38
0.57528001 0.24189335 1.3160001 -2.4618868e+38
0.57778668 0.24189335 1.3160001 -2.5417455e+38
0.58249813 0.2428124 1.3210001 -2.6213935e+38
0.58501434 0.2428124 1.3210001 -2.5677555e+38
0.58753049 0.2428124 1.3210001 -2.5028086e+38
0.19809906 0.25925717 1.396 nan
0.19989525 0.25814289 1.3900001 nan
0.20181429 0.25721431 1.3850001 nan
0.20356669 0.25610003 1.3790001 nan
0.20544572 0.25517145 1.3740001 -2.8467372e+38
0.20806287 0.25517145 1.3740001 -1.9142025e+38
0.20976001 0.25405717 1.368 -2.1554382e+38
0.21236573 0.25405717 1.368 -2.4083023e+38
0.21418573 0.25312859 1.363 -2.3551324e+38
0.21598668 0.25220001 1.358 -2.3151515e+38
0.21760763 0.25108573 1.3520001 -2.3018588e+38
0.22018287 0.25108573 1.3520001 -2.2885663e+38
0.22275811 0.25108573 1.3520001 -2.2752219e+38
0.22533335 0.25108573 1.3520001 -2.2751702e+38
0.22706573 0.25015715 1.3470001 -2.2751702e+38
0.22963144 0.25015715 1.3470001 -2.2884109e+38
0.23133525 0.24922858 1.342 -2.2618266e+38
0.23389144 0.24922858 1.342 -2.2485343e+38
0.23539048 0.2481143 1.3360001 -2.235242e+38
0.23704478 0.24718574 1.3310001 -2.235242e+38
0.23958002 0.24718574 1.3310001 -2.2219497e+38
0.24211526 0.24718574 1.3310001 -2.2219497e+38
0.24373144 0.24625716 1.3260001 -2.2086053e+38
0.24625716 0.24625716 1.3260001 -2.2085536e+38
0.24878287 0.24625716 1.3260001 -2.1953652e+38
0.25036097 0.24532859 1.3210001 -2.1954692e+38
0.25192001 0.24440001 1.3160001 -2.1955211e+38
0.25442669 0.24440001 1.3160001 -2.2088134e+38
0.25595716 0.24347144 1.3110001 -2.2221057e+38
0.25845429 0.24347144 1.3110001 -2.2486383e+38
0.26095146 0.24347144 1.3110001 -2.2353459e+38
0.26244384 0.24254288 1.3060001 -2.2220538e+38
0.26493144 0.24254288 1.3060001 -2.1821769e+38
0.26741907 0.24254288 1.3060001 -2.1555924e+38
0.26990667 0.24254288 1.3060001 -2.1290597e+38
0.2723943 0.24254288 1.3060001 -2.1157677e+38
0.27382955 0.2416143 1.3010001 -2.0891312e+38
0.27630764 0.2416143 1.3010001 -2.0758391e+38
0.27878574 0.2416143 1.3010001 -2.1024237e+38
0.28126383 0.2416143 1.3010001 -2.1289561e+38
0.28374192 0.2416143 1.3010001 -2.1289038e+38
0.28622001 0.2416143 1.3010001 -2.1289036e+38
0.28869811 0.2416143 1.3010001 -2.1288514e+38
0.2911762 0.2416143 1.3010001 -2.1287991e+38
0.29478288 0.24254288 1.3060001 -2.1420908e+38
0.29727051 0.24254288 1.3060001 -2.1553314e+38
0.29975811 0.24254288 1.3060001 -2.1552794e+38
0.30224574 0.24254288 1.3060001 -2.1552273e+38
0.30473337 0.24254288 1.3060001 -2.1552271e+38
0.30722097 0.24254288 1.3060001 -2.1552267e+38
0.3097086 0.24254288 1.3060001 -2.1552263e+38
0.31339145 0.24347144 1.3110001 -2.1551744e+38
0.31468382 0.24254288 1.3060001 -2.1418302e+38
0.31717145 0.24254288 1.3060001 -2.128486e+38
0.31965905 0.24254288 1.3060001 -2.128486e+38
0.32214668 0.24254288 1.3060001 -2.1151418e+38
0.32463431 0.24254288 1.3060001 -2.128434e+38
0.32712191 0.24254288 1.3060001 -2.141674e+38
0.32960954 0.24254288 1.3060001 -2.1150888e+38
0.33209717 0.24254288 1.3060001 -2.1017963e+38
0.33458477 0.24254288 1.3060001 -2.1150363e+38
0.3370724 0.24254288 1.3060001 -2.1283286e+38
0.34086001 0.24347144 1.3110001 -2.115088e+38
0.34335718 0.24347144 1.3110001 -2.115088e+38
0.34717336 0.24440001 1.3160001 -2.0751592e+38
0.35100859 0.24532859 1.3210001 -2.0485747e+38
0.35620096 0.24718574 1.3310001 -2.061815e+38
0.35873622 0.24718574 1.3310001 -2.0883994e+38
0.36262861 0.2481143 1.3360001 -2.0751069e+38
0.36681336 0.24922858 1.342 -2.0617627e+38
0.36936954 0.24922858 1.342 -2.0484185e+38
0.37331146 0.25015715 1.3470001 -2.0484185e+38
0.37587717 0.25015715 1.3470001 -2.0350743e+38
0.37984765 0.25108573 1.3520001 -2.0349701e+38
0.39967716 0.26241431 1.4130001 -2.0083332e+38
0.40236861 0.26241431 1.4130001 -1.9950409e+38
0.40334001 0.26130003 1.4070001 -1.9949888e+38
0.40602002 0.26130003 1.4070001 -1.9949886e+38
0.40724763 0.26037145 1.4020001 -1.9549555e+38
0.40816385 0.25925717 1.396 -1.9017341e+38
0.4108229 0.25925717 1.396 -1.8749932e+38
0.41170478 0.25814289 1.3900001 -1.8615449e+38
0.41107336 0.25610003 1.3790001 -1.8615447e+38
0.41220003 0.25517145 1.3740001 -1.8614409e+38
0.41300574 0.25405717 1.368 -1.8614928e+38
0.41409242 0.25312859 1.363 -1.861493e+38
0.41516003 0.25220001 1.358 -1.8748891e+38
0.41774669 0.25220001 1.358 -1.8882335e+38
0.41847622 0.25108573 1.3520001 -1.9015258e+38
0.4194943 0.25015715 1.3470001 -1.901526e+38
0.42206004 0.25015715 1.3470001 -1.9015779e+38
0.42462575 0.25015715 1.3470001 -1.9148704e+38
0.42560574 0.24922858 1.342 -1.9282146e+38
0.42816192 0.24922858 1.342 -1.9415073e+38
0.42879242 0.2481143 1.3360001 -1.968248e+38
0.43133718 0.2481143 1.3360001 -1.9949892e+38
0.43388194 0.2481143 1.3360001 -1.9817496e+38
0.43838671 0.24922858 1.342 -1.9685624e+38
0.43897146 0.2481143 1.3360001 -1.955375e+38
0.44151622 0.2481143 1.3360001 -1.9555306e+38
0.44239908 0.24718574 1.3310001 -2.0219917e+38
0.44493431 0.24718574 1.3310001 -2.0752128e+38
0.44746956 0.24718574 1.3310001 -2.0619722e+38
0.44831431 0.24625716 1.3260001 -2.0620248e+38
0.45084003 0.24625716 1.3260001 -2.0753176e+38
0.45165622 0.24532859 1.3210001 -2.1019547e+38
0.4541724 0.24532859 1.3210001 -2.1152993e+38
0.45668861 0.24532859 1.3210001 -2.1286431e+38
0.45746669 0.24440001 1.3160001 -2.1286427e+38
0.45997337 0.24440001 1.3160001 -2.1419358e+38
0.46248004 0.24440001 1.3160001 -2.1286442e+38
0.46498671 0.24440001 1.3160001 -2.1154553e+38
0.46749336 0.24440001 1.3160001 -2.1021107e+38
0.47000003 0.24440001 1.3160001 -2.0887669e+38
0.4725067 0.24440001 1.3160001 -2.088819e+38
0.47320861 0.24347144 1.3110001 -2.0754225e+38
0.47570574 0.24347144 1.3110001 -2.1020065e+38
0.47820288 0.24347144 1.3110001 -2.1284878e+38
0.48070005 0.24347144 1.3110001 -2.1285403e+38
0.48319718 0.24347144 1.3110001 -2.1418324e+38
0.48569432 0.24347144 1.3110001 -2.1286436e+38
0.48632956 0.24254288 1.3060001 -2.1154034e+38
0.48881719 0.24254288 1.3060001 -2.1287995e+38
0.49130479 0.24254288 1.3060001 -2.142092e+38
0.49379241 0.24254288 1.3060001 -2.1687287e+38
0.49628004 0.24254288 1.3060001 -2.2088132e+38
0.49685812 0.2416143 1.3010001 -2.2218976e+38
0.49933621 0.2416143 1.3010001 -2.2351899e+38
0.49988574 0.24068573 1.296 -2.2218976e+38
0.50235432 0.24068573 1.296 -2.2087617e+38
0.50482291 0.24068573 1.296 -2.1955218e+38
0.50924861 0.2416143 1.3010001 -2.1823852e+38
0.51172668 0.2416143 1.3010001 -2.1690408e+38
0.51222861 0.24068573 1.296 -2.1693005e+38
0.51469719 0.24068573 1.296 -2.2089696e+38
0.51716572 0.24068573 1.296 -2.2621387e+38
0.51963431 0.24068573 1.296 -2.2620868e+38
0.52210289 0.24068573 1.296 -2.2621908e+38
0.52457148 0.24068573 1.296 -2.2356582e+38
0.52704006 0.24068573 1.296 -2.2225217e+38
0.52746576 0.23975717 1.291 -2.2358138e+38
0.53197718 0.24068573 1.296 -2.2626062e+38
0.53238386 0.23975717 1.291 -2.2227813e+38
0.53691435 0.24068573 1.296 -2.196457e+38
0.53938287 0.24068573 1.296 -2.2096977e+38
0.54185146 0.24068573 1.296 -2.2364369e+38
0.54432005 0.24068573 1.296 -2.236176e+38
0.55100763 0.24254288 1.3060001 -2.2494162e+38
0.55349529 0.24254288 1.3060001 -2.2760525e+38
0.55811149 0.24347144 1.3110001 -2.3025851e+38
0.56060863 0.24347144 1.3110001 -2.3291177e+38
0.56310576 0.24347144 1.3110001 -2.3424621e+38
0.5656029 0.24347144 1.3110001 -2.3423585e+38
0.56810004 0.24347144 1.3110001 -2.3555991e+38
0.5727734 0.24440001 1.3160001 -2.3954761e+38
0.57528001 0.24440001 1.3160001 -2.4488543e+38
0.57778668 0.24440001 1.3160001 -2.5286094e+38
0.58249813 0.24532859 1.3210001 -2.608571e+38
0.58501434 0.24532859 1.3210001 -2.4751809e+38
0.58753049 0.24532859 1.3210001 -2.3558161e+38
0.19809906 0.26191622 1.396 nan
0.19989525 0.2607905 1.3900001 nan
0.20181429 0.25985241 1.3850001 nan
0.20356669 0.25872669 1.3790001 nan
0.20544572 0.2577886 1.3740001 -2.8464232e+38
0.20806287 0.2577886 1.3740001 -1.7958159e+38
0.21068001 0.2577886 1.3740001 -2.1034094e+38
0.21236573 0.25666288 1.368 -2.3952167e+38
0.21418573 0.25572479 1.363 -2.3552879e+38
0.21678191 0.25572479 1.363 -2.3019628e+38
0.21857335 0.25478667 1.358 -2.3019105e+38
0.22018287 0.25366098 1.3520001 -2.3018586e+38
0.22275811 0.25366098 1.3520001 -2.2885144e+38
0.22533335 0.25366098 1.3520001 -2.2752221e+38
0.22790858 0.25366098 1.3520001 -2.2885144e+38
0.22963144 0.25272286 1.3470001 -2.2884627e+38
0.23219717 0.25272286 1.3470001 -2.2751187e+38
0.23389144 0.25178477 1.342 -2.2485343e+38
0.23539048 0.25065908 1.3360001 -2.235242e+38
0.23793526 0.25065908 1.3360001 -2.2086575e+38
0.23958002 0.24972098 1.3310001 -2.2086575e+38
0.24211526 0.24972098 1.3310001 -2.2086575e+38
0.2446505 0.24972098 1.3310001 -2.1953652e+38
0.24625716 0.24878287 1.3260001 -2.1688327e+38
0.24878287 0.24878287 1.3260001 -2.1689368e+38
0.25036097 0.24784479 1.3210001 -2.1556445e+38
0.25192001 0.24690668 1.3160001 -2.168937e+38
0.25442669 0.24690668 1.3160001 -2.182281e+38
0.25595716 0.24596858 1.3110001 -2.1955733e+38
0.25845429 0.24596858 1.3110001 -2.2088656e+38
0.26095146 0.24596858 1.3110001 -2.1955733e+38
0.2634486 0.24596858 1.3110001 -2.1822293e+38
0.26493144 0.24503049 1.3060001 -2.1688851e+38
0.26741907 0.24503049 1.3060001 -2.1555928e+38
0.26990667 0.24503049 1.3060001 -2.1556445e+38
0.2723943 0.24503049 1.3060001 -2.1423522e+38
0.27488193 0.24503049 1.3060001 -2.1157155e+38
0.27736953 0.24503049 1.3060001 -2.0758389e+38
0.27878574 0.24409239 1.3010001 -2.1024235e+38
0.28126383 0.24409239 1.3010001 -2.1156636e+38
0.28483239 0.24503049 1.3060001 -2.1289557e+38
0.28622001 0.24409239 1.3010001 -2.1421957e+38
0.28980765 0.24503049 1.3060001 -2.1421435e+38
0.29229525 0.24503049 1.3060001 -2.1287989e+38
0.29478288 0.24503049 1.3060001 -2.1420908e+38
0.29727051 0.24503049 1.3060001 -2.1553309e+38
0.29975811 0.24503049 1.3060001 -2.155279e+38
0.30224574 0.24503049 1.3060001 -2.1419863e+38
0.30473337 0.24503049 1.3060001 -2.1552784e+38
0.30722097 0.24503049 1.3060001 -2.1685705e+38
0.3097086 0.24503049 1.3060001 -2.1685701e+38
0.31339145 0.24596858 1.3110001 -2.1552259e+38
0.31468382 0.24503049 1.3060001 -2.1418298e+38
0.31838575 0.24596858 1.3110001 -2.1285896e+38
0.31965905 0.24503049 1.3060001 -2.1285898e+38
0.32214668 0.24503049 1.3060001 -2.1151935e+38
0.32463431 0.24503049 1.3060001 -2.1284338e+38
0.32712191 0.24503049 1.3060001 -2.1417257e+38
0.32960954 0.24503049 1.3060001 -2.1284332e+38
0.33209717 0.24503049 1.3060001 -2.1151405e+38
0.33586574 0.24596858 1.3110001 -2.1283807e+38
0.33836287 0.24596858 1.3110001 -2.1283807e+38
0.34086001 0.24596858 1.3110001 -2.1284326e+38
0.34335718 0.24596858 1.3110001 -2.1150882e+38
0.34849241 0.24784479 1.3210001 -2.101744e+38
0.35100859 0.24784479 1.3210001 -2.0884517e+38
0.35620096 0.24972098 1.3310001 -2.1016921e+38
0.35873622 0.24972098 1.3310001 -2.1017438e+38
0.36262861 0.25065908 1.3360001 -2.0884515e+38
0.36681336 0.25178477 1.342 -2.0751071e+38
0.36936954 0.25178477 1.342 -2.0750033e+38
0.37192574 0.25178477 1.342 -2.0617108e+38
0.37448192 0.25178477 1.342 -2.0483145e+38
0.37703812 0.25178477 1.342 -2.0216778e+38
0.39967716 0.26510572 1.4130001 -2.0083334e+38
0.40236861 0.26510572 1.4130001 -1.9950407e+38
0.40506002 0.26510572 1.4130001 -2.0082808e+38
0.40602002 0.26398003 1.4070001 -2.0081766e+38
0.40870002 0.26398003 1.4070001 -1.9549034e+38
0.40991813 0.26304191 1.4020001 -1.90163e+38
0.4108229 0.26191622 1.396 -1.8748893e+38
0.41170478 0.2607905 1.3900001 -1.8482526e+38
0.41107336 0.25872669 1.3790001 -1.8614928e+38
0.41220003 0.2577886 1.3740001 -1.8614928e+38
0.41300574 0.25666288 1.368 -1.8615447e+38
0.41409242 0.25572479 1.363 -1.8615447e+38
0.41516003 0.25478667 1.358 -1.8748372e+38
0.41774669 0.25478667 1.358 -1.8881814e+38
0.41847622 0.25366098 1.3520001 -1.9015258e+38
0.42105144 0.25366098 1.3520001 -1.9015779e+38
0.42206004 0.25272286 1.3470001 -1.9148704e+38
0.42462575 0.25272286 1.3470001 -1.9149225e+38
0.42560574 0.25178477 1.342 -1.9416631e+38
0.42816192 0.25178477 1.342 -1.9549557e+38
0.43071812 0.25178477 1.342 -1.9815926e+38
0.43133718 0.25065908 1.3360001 -2.0082819e+38
0.43388194 0.25065908 1.3360001 -1.9817498e+38
0.43838671 0.25178477 1.342 -1.9420298e+38
0.43897146 0.25065908 1.3360001 -1.9554267e+38
0.44151622 0.25065908 1.3360001 -1.9554786e+38
0.44239908 0.24972098 1.3310001 -2.0351285e+38
0.44493431 0.24972098 1.3310001 -2.1017456e+38
0.44746956 0.24972098 1.3310001 -2.0885055e+38
0.44831431 0.24878287 1.3260001 -2.0753174e+38
0.45084003 0.24878287 1.3260001 -2.1019543e+38
0.45165622 0.24784479 1.3210001 -2.1285912e+38
0.4541724 0.24784479 1.3210001 -2.1286436e+38
0.45668861 0.24784479 1.3210001 -2.1154032e+38
0.45746669 0.24690668 1.3160001 -2.1287474e+38
0.45997337 0.24690668 1.3160001 -2.1420401e+38
0.46248004 0.24690668 1.3160001 -2.1288003e+38
0.46498671 0.24690668 1.3160001 -2.1155596e+38
0.46749336 0.24690668 1.3160001 -2.1288517e+38
0.47000003 0.24690668 1.3160001 -2.1289557e+38
0.47071147 0.24596858 1.3110001 -2.1157675e+38
0.47320861 0.24596858 1.3110001 -2.1023192e+38
0.47570574 0.24596858 1.3110001 -2.1155594e+38
0.47820288 0.24596858 1.3110001 -2.1155077e+38
0.4788667 0.24503049 1.3060001 -2.11556e+38
0.48135433 0.24503049 1.3060001 -2.1022156e+38
0.48384193 0.24503049 1.3060001 -2.0756308e+38
0.48632956 0.24503049 1.3060001 -2.0491501e+38
0.48881719 0.24503049 1.3060001 -2.049202e+38
0.49130479 0.24503049 1.3060001 -2.0492539e+38
0.49190193 0.24409239 1.3010001 -2.1024233e+38
0.49438003 0.24409239 1.3010001 -2.142248e+38
0.4949486 0.2431543 1.296 -2.1818652e+38
0.49741718 0.2431543 1.296 -2.2085534e+38
0.49988574 0.2431543 1.296 -2.2218976e+38
0.50235432 0.2431543 1.296 -2.2220538e+38
0.50482291 0.2431543 1.296 -2.1955735e+38
0.50729144 0.2431543 1.296 -2.1556445e+38
0.50976002 0.2431543 1.296 -2.1689366e+38
0.51222861 0.2431543 1.296 -2.1822806e+38
0.51469719 0.2431543 1.296 -2.2221055e+38
0.51716572 0.2431543 1.296 -2.2620343e+38
0.51963431 0.2431543 1.296 -2.2620862e+38
0.52210289 0.2431543 1.296 -2.2620866e+38
0.52457148 0.2431543 1.296 -2.2621911e+38
0.52704006 0.2431543 1.296 -2.2622945e+38
0.52746576 0.2422162 1.291 -2.2889306e+38
0.53197718 0.2431543 1.296 -2.3024825e+38
0.53444576 0.2431543 1.296 -2.2496249e+38
0.53691435 0.2431543 1.296 -2.1964044e+38
0.53938287 0.2431543 1.296 -2.209905e+38
0.54185146 0.2431543 1.296 -2.2097482e+38
0.54432005 0.2431543 1.296 -2.2495204e+38
0.54678863 0.2431543 1.296 -2.2762608e+38
0.55137622 0.24409239 1.3010001 -2.2632279e+38
0.55598289 0.24503049 1.3060001 -2.2497279e+38
0.56060863 0.24596858 1.3110001 -2.2764682e+38
0.56310576 0.24596858 1.3110001 -2.3027415e+38
0.5656029 0.24596858 1.3110001 -2.3160342e+38
0.56810004 0.24596858 1.3110001 -2.3291187e+38
0.5727734 0.24690668 1.3160001 -2.3822361e+38
0.57528001 0.24690668 1.3160001 -2.4355103e+38
0.57778668 0.24690668 1.3160001 -2.5152652e+38
0.58029336 0.24690668 1.3160001 -2.5816737e+38
0.58501434 0.24784479 1.3210001 -2.3950617e+38
0.58753049 0.24784479 1.3210001 -2.1972431e+38
0.59451336 0.24972098 1.3310001 -3.1714298e+38
0.19809906 0.26457524 1.396 nan
0.20075811 0.26457524 1.396 nan
0.20254287 0.26343811 1.3900001 nan
0.2044524 0.26249048 1.3850001 nan
0.20619334 0.26135334 1.3790001 -3.2872987e+38
0.20806287 0.26040572 1.3740001 -2.2332647e+38
0.21068001 0.26040572 1.3740001 -2.3013896e+38
0.21329716 0.26040572 1.3740001 -2.3682155e+38
0.21497144 0.25926858 1.368 -2.3551839e+38
0.21678191 0.25832096 1.363 -2.3284953e+38
0.21937811 0.25832096 1.363 -2.3152026e+38
0.22116001 0.25737336 1.358 -2.2885144e+38
0.22275811 0.2562362 1.3520001 -2.2885144e+38
0.22533335 0.2562362 1.3520001 -2.2884625e+38
0.22790858 0.2562362 1.3520001 -2.27517e+38
0.23048383 0.2562362 1.3520001 -2.2751182e+38
0.23219717 0.2552886 1.3470001 -2.2618781e+38
0.23476288 0.2552886 1.3470001 -2.2618783e+38
0.23644763 0.25434098 1.342 -2.2352939e+38
0.23793526 0.25320384 1.3360001 -2.2218978e+38
0.23958002 0.25225621 1.3310001 -2.235242e+38
0.24211526 0.25225621 1.3310001 -2.2351903e+38
0.24373144 0.25130859 1.3260001 -2.2219499e+38
0.24625716 0.25130859 1.3260001 -2.1954177e+38
0.24878287 0.25130859 1.3260001 -2.1954698e+38
0.24941336 0.24941336 1.3160001 -2.1955218e+38
0.25192001 0.24941336 1.3160001 -2.1955218e+38
0.25442669 0.24941336 1.3160001 -2.2088658e+38
0.25693336 0.24941336 1.3160001 -2.1955733e+38
0.25845429 0.24846573 1.3110001 -2.1955735e+38
0.26095146 0.24846573 1.3110001 -2.1822814e+38
0.2634486 0.24846573 1.3110001 -2.1822816e+38
0.26493144 0.24751811 1.3060001 -2.1689374e+38
0.26741907 0.24751811 1.3060001 -2.155593e+38
0.26990667 0.24751811 1.3060001 -2.1555928e+38
0.2723943 0.24751811 1.3060001 -2.1555926e+38
0.27488193 0.24751811 1.3060001 -2.1290076e+38
0.27736953 0.24751811 1.3060001 -2.1024233e+38
0.27985716 0.24751811 1.3060001 -2.1157155e+38
0.28234479 0.24751811 1.3060001 -2.1156634e+38
0.28483239 0.24751811 1.3060001 -2.1289036e+38
0.28732002 0.24751811 1.3060001 -2.1553839e+38
0.28980765 0.24751811 1.3060001 -2.1554354e+38
0.29229525 0.24751811 1.3060001 -2.1553833e+38
0.29478288 0.24751811 1.3060001 -2.1553829e+38
0.29727051 0.24751811 1.3060001 -2.1553827e+38
0.29975811 0.24751811 1.3060001 -2.1420381e+38
0.30224574 0.24751811 1.3060001 -2.1287456e+38
0.30473337 0.24751811 1.3060001 -2.1420374e+38
0.30722097 0.24751811 1.3060001 -2.1552776e+38
0.3097086 0.24751811 1.3060001 -2.1419851e+38
0.31339145 0.24846573 1.3110001 -2.1286409e+38
0.31588858 0.24846573 1.3110001 -2.1153486e+38
0.31838575 0.24846573 1.3110001 -2.115349e+38
0.31965905 0.24751811 1.3060001 -2.1152975e+38
0.32338002 0.24846573 1.3110001 -2.1285377e+38
0.32587716 0.24846573 1.3110001 -2.1151931e+38
0.3283743 0.24846573 1.3110001 -2.1151931e+38
0.33087146 0.24846573 1.3110001 -2.1151409e+38
0.3333686 0.24846573 1.3110001 -2.128433e+38
0.33586574 0.24846573 1.3110001 -2.1284328e+38
0.33836287 0.24846573 1.3110001 -2.1284328e+38
0.34216002 0.24941336 1.3160001 -2.1284328e+38
0.3459762 0.25036097 1.3210001 -2.1283809e+38
0.34981146 0.25130859 1.3260001 -2.1150884e+38
0.35233715 0.25130859 1.3260001 -2.1150884e+38
0.35620096 0.25225621 1.3310001 -2.1150884e+38
0.35873622 0.25225621 1.3310001 -2.1150365e+38
0.36262861 0.25320384 1.3360001 -2.101744e+38
0.36517337 0.25320384 1.3360001 -2.1017438e+38
0.36771813 0.25320384 1.3360001 -2.0883994e+38
0.37192574 0.25434098 1.342 -2.075055e+38
0.37280765 0.25320384 1.3360001 -2.0483662e+38
0.40307146 0.27007145 1.4250001 -1.9950411e+38
0.40407717 0.26893431 1.419 -1.9816965e+38
0.40678003 0.26893431 1.419 -1.9816442e+38
0.4094829 0.26893431 1.419 -1.9681957e+38
0.41044289 0.26779717 1.4130001 -1.9282665e+38
0.41138002 0.26666 1.4070001 -1.9016298e+38
0.4125886 0.26571241 1.4020001 -1.874941e+38
0.41348192 0.26457524 1.396 -1.8615966e+38
0.41286194 0.26249048 1.3850001 -1.8615445e+38
0.41220003 0.26040572 1.3740001 -1.8615445e+38
0.41300574 0.25926858 1.368 -1.8615445e+38
0.41561145 0.25926858 1.368 -1.8615447e+38
0.41668859 0.25832096 1.363 -1.874837e+38
0.41774669 0.25737336 1.358 -1.8881295e+38
0.41847622 0.2562362 1.3520001 -1.9015258e+38
0.42105144 0.2562362 1.3520001 -1.9148702e+38
0.42206004 0.2552886 1.3470001 -1.9282146e+38
0.42462575 0.2552886 1.3470001 -1.9415073e+38
0.42719147 0.2552886 1.3470001 -1.9416635e+38
0.42816192 0.25434098 1.342 -1.9550081e+38
0.43071812 0.25434098 1.342 -1.981645e+38
0.43327433 0.25434098 1.342 -1.9949898e+38
0.43388194 0.25320384 1.3360001 -1.9685616e+38
0.43838671 0.25434098 1.342 -1.9554259e+38
0.43897146 0.25320384 1.3360001 -1.9554784e+38
0.44151622 0.25320384 1.3360001 -1.9688228e+38
0.44239908 0.25225621 1.3310001 -2.0086997e+38
0.44493431 0.25225621 1.3310001 -2.0619211e+38
0.44746956 0.25225621 1.3310001 -2.0752655e+38
0.45000479 0.25225621 1.3310001 -2.1019022e+38
0.45084003 0.25130859 1.3260001 -2.1152466e+38
0.45336574 0.25130859 1.3260001 -2.1418835e+38
0.4541724 0.25036097 1.3210001 -2.1286436e+38
0.45668861 0.25036097 1.3210001 -2.1286959e+38
0.45920479 0.25036097 1.3210001 -2.1154559e+38
0.45997337 0.24941336 1.3160001 -2.1022158e+38
0.46248004 0.24941336 1.3160001 -2.1156121e+38
0.46498671 0.24941336 1.3160001 -2.1289563e+38
0.46749336 0.24941336 1.3160001 -2.1423522e+38
0.47000003 0.24941336 1.3160001 -2.1558003e+38
0.4725067 0.24941336 1.3160001 -2.1556964e+38
0.47320861 0.24846573 1.3110001 -2.1556966e+38
0.47570574 0.24846573 1.3110001 -2.1555928e+38
0.47820288 0.24846573 1.3110001 -2.155593e+38
0.4788667 0.24751811 1.3060001 -2.1556449e+38
0.48135433 0.24751811 1.3060001 -2.168937e+38
0.48384193 0.24751811 1.3060001 -2.1556964e+38
0.48632956 0.24751811 1.3060001 -2.1424042e+38
0.48881719 0.24751811 1.3060001 -2.1158715e+38
0.49130479 0.24751811 1.3060001 -2.1025792e+38
0.49190193 0.2465705 1.3010001 -2.142404e+38
0.49438003 0.2465705 1.3010001 -2.1821769e+38
0.4949486 0.24562287 1.296 -2.2086577e+38
0.49741718 0.24562287 1.296 -2.2351901e+38
0.49988574 0.24562287 1.296 -2.2352935e+38
0.50235432 0.24562287 1.296 -2.2485862e+38
0.50482291 0.24562287 1.296 -2.2220538e+38
0.50729144 0.24562287 1.296 -2.1953133e+38
0.50976002 0.24562287 1.296 -2.1954686e+38
0.51222861 0.24562287 1.296 -2.1954165e+38
0.51469719 0.24562287 1.296 -2.235397e+38
0.51716572 0.24562287 1.296 -2.275274e+38
0.51963431 0.24562287 1.296 -2.275274e+38
0.52210289 0.24562287 1.296 -2.2752229e+38
0.52457148 0.24562287 1.296 -2.2620872e+38
0.52500671 0.24467525 1.291 -2.2488462e+38
0.52746576 0.24467525 1.291 -2.2622937e+38
0.53197718 0.24562287 1.296 -2.2757937e+38
0.53238386 0.24467525 1.291 -2.2359166e+38
0.53691435 0.24562287 1.296 -2.2092807e+38
0.53938287 0.24562287 1.296 -2.209489e+38
0.54185146 0.24562287 1.296 -2.2228328e+38
0.54432005 0.24562287 1.296 -2.2493649e+38
0.54678863 0.24562287 1.296 -2.2763129e+38
0.55137622 0.2465705 1.3010001 -2.2628648e+38
0.55598289 0.24751811 1.3060001 -2.2496245e+38
0.55847049 0.24751811 1.3060001 -2.2760533e+38
0.56310576 0.24846573 1.3110001 -2.3025863e+38
0.5656029 0.24846573 1.3110001 -2.315723e+38
0.56810004 0.24846573 1.3110001 -2.3291194e+38
0.5727734 0.24941336 1.3160001 -2.3689443e+38
0.57528001 0.24941336 1.3160001 -2.4222182e+38
0.57778668 0.24941336 1.3160001 -2.5019727e+38
0.58249813 0.25036097 1.3210001 -2.5817246e+38
0.58501434 0.25036097 1.3210001 -2.4617286e+38
0.58753049 0.25036097 1.3210001 -2.3554001e+38
0.59451336 0.25225621 1.3310001 -3.1970292e+38
0.20075811 0.2672343 1.396 nan
0.20181429 0.26512858 1.3850001 nan
0.20356669 0.26398003 1.3790001 nan
0.20619334 0.26398003 1.3790001 nan
0.20806287 0.26302287 1.3740001 -2.6742497e+38
0.21068001 0.26302287 1.3740001 -2.5138548e+38
0.21329716 0.26302287 1.3740001 -2.3414732e+38
0.21497144 0.26187429 1.368 -2.355339e+38
0.21757716 0.26187429 1.368 -2.3551833e+38
0.21937811 0.26091716 1.363 -2.3152026e+38
0.22116001 0.25996003 1.358 -2.2753257e+38
0.22374669 0.25996003 1.358 -2.2885661e+38
0.22533335 0.25881144 1.3520001 -2.2884622e+38
0.22790858 0.25881144 1.3520001 -2.2751182e+38
0.23048383 0.25881144 1.3520001 -2.261826e+38
0.23305906 0.25881144 1.3520001 -2.2618781e+38
0.23476288 0.25785431 1.3470001 -2.2618783e+38
0.23644763 0.25689715 1.342 -2.2486381e+38
0.23900382 0.25689715 1.342 -2.2352422e+38
0.24048002 0.2557486 1.3360001 -2.2485345e+38
0.24211526 0.25479144 1.3310001 -2.2618268e+38
0.2446505 0.25479144 1.3310001 -2.2485866e+38
0.24625716 0.25383431 1.3260001 -2.2220021e+38
0.24878287 0.25383431 1.3260001 -2.2352945e+38
0.25036097 0.25287715 1.3210001 -2.2353467e+38
0.25192001 0.25192001 1.3160001 -2.2353467e+38
0.25442669 0.25192001 1.3160001 -2.2220544e+38
0.25693336 0.25192001 1.3160001 -2.1954698e+38
0.25845429 0.25096288 1.3110001 -2.1689372e+38
0.26095146 0.25096288 1.3110001 -2.1688853e+38
0.2634486 0.25096288 1.3110001 -2.1689372e+38
0.26594573 0.25096288 1.3110001 -2.1688855e+38
0.26741907 0.25000572 1.3060001 -2.155593e+38
0.26990667 0.25000572 1.3060001 -2.1688849e+38
0.2723943 0.25000572 1.3060001 -2.1688847e+38
0.27488193 0.25000572 1.3060001 -2.1555924e+38
0.27736953 0.25000572 1.3060001 -2.129008e+38
0.27985716 0.25000572 1.3060001 -2.1290082e+38
0.28234479 0.25000572 1.3060001 -2.1156117e+38
0.28483239 0.25000572 1.3060001 -2.1421439e+38
0.28732002 0.25000572 1.3060001 -2.1553839e+38
0.28980765 0.25000572 1.3060001 -2.1687277e+38
0.29229525 0.25000572 1.3060001 -2.1686754e+38
0.29478288 0.25000572 1.3060001 -2.1686749e+38
0.29727051 0.25000572 1.3060001 -2.1553825e+38
0.29975811 0.25000572 1.3060001 -2.1420381e+38
0.30224574 0.25000572 1.3060001 -2.1154533e+38
0.30473337 0.25000572 1.3060001 -2.1287454e+38
0.30722097 0.25000572 1.3060001 -2.1286934e+38
0.31089431 0.25096288 1.3110001 -2.1153492e+38
0.31339145 0.25096288 1.3110001 -2.0887647e+38
0.31588858 0.25096288 1.3110001 -2.0887647e+38
0.31838575 0.25096288 1.3110001 -2.0887647e+38
0.32088289 0.25096288 1.3110001 -2.1152971e+38
0.32338002 0.25096288 1.3110001 -2.1285373e+38
0.32587716 0.25096288 1.3110001 -2.1151929e+38
