# .PCD v0.7 - Point Cloud Data file format
VERSION 0.7
FIELDS x y z rgb
SIZE 4 4 4 4
TYPE F F F F
COUNT 1 1 1 1
WIDTH 1042
HEIGHT 1
VIEWPOINT 0 0 0 1 0 0 0
POINTS 1042
DATA ascii
3.127583 -0.94703299 2.0721302 nan
3.1275697 -0.95263678 2.0721302 nan
3.1275563 -0.95824063 2.0721302 nan
3.1025612 -0.95623761 2.0650587 nan
3.2596555 -0.49446547 2.1033311 nan
3.2596414 -0.50031877 2.1033311 nan
3.2596276 -0.50617212 2.1033311 nan
3.2326229 -0.50813007 2.0957456 nan
3.2326093 -0.51393193 2.0957456 -2.8492924e+38
3.2325954 -0.51973379 2.0957456 -2.8747318e+38
3.2055912 -0.52148604 2.0881598 -2.9015766e+38
3.2055776 -0.52723652 2.0881598 -2.8219793e+38
3.1535828 -0.5249896 2.0735502 -2.7288812e+38
3.1535695 -0.53064096 2.0735502 -2.7288812e+38
3.1535561 -0.53629243 2.0735502 -2.7156408e+38
3.1535425 -0.54194379 2.0735502 -2.7024524e+38
3.1535292 -0.54759526 2.0735502 -2.6890561e+38
3.1535158 -0.55324662 2.0735502 -2.6890561e+38
3.1535025 -0.55889809 2.0735502 -2.6757638e+38
3.1534891 -0.56454945 2.0735502 -2.6758157e+38
3.1534758 -0.57020086 2.0735502 -2.6623675e+38
3.1534624 -0.57585222 2.0735502 -2.6888482e+38
3.128459 -0.57718253 2.0665264 -2.7153808e+38
3.1284456 -0.58278638 2.0665264 -2.7153289e+38
3.1284323 -0.58839017 2.0665264 -2.7022964e+38
3.1284192 -0.59399396 2.0665264 -2.7156408e+38
3.1284058 -0.59959775 2.0665264 -2.7288812e+38
3.1283925 -0.60520154 2.0665264 -2.7421733e+38
3.1283793 -0.61080533 2.0665264 -2.7420694e+38
3.1033771 -0.61175472 2.0595026 -2.7420173e+38
3.103364 -0.61731094 2.0595026 -2.7286731e+38
3.0793614 -0.61830735 2.0527596 -2.7152248e+38
3.0793483 -0.6238178 2.0527596 -2.7019847e+38
3.0793355 -0.62932831 2.0527596 -2.7020368e+38
3.0793223 -0.63483876 2.0527596 -2.6887441e+38
3.0793092 -0.64034921 2.0527596 -2.6887439e+38
3.0792961 -0.64585966 2.0527596 -2.6887433e+38
3.0792832 -0.65137017 2.0527596 -2.702035e+38
3.0792701 -0.65688062 2.0527596 -2.7019835e+38
3.079257 -0.66239101 2.0527596 -2.6886916e+38
3.0792441 -0.66790152 2.0527596 -2.6621587e+38
3.0552428 -0.6683951 2.0460169 -2.6488665e+38
3.0552299 -0.67385989 2.0460169 -2.6223338e+38
3.0552168 -0.67932463 2.0460169 -2.6223858e+38
3.0552039 -0.68478936 2.0460169 -2.6090413e+38
3.055191 -0.69025409 2.0460169 -2.6222817e+38
3.0551782 -0.69571888 2.0460169 -2.6356257e+38
3.0551651 -0.70118362 2.0460169 -2.6488661e+38
3.0551522 -0.70664835 2.0460169 -2.6621583e+38
3.0551393 -0.71211308 2.0460169 -2.6621583e+38
3.0551262 -0.71757787 2.0460169 -2.6621062e+38
3.0551133 -0.72304261 2.0460169 -2.648762e+38
3.0551004 -0.72850734 2.0460169 -2.6355217e+38
3.0550876 -0.73397207 2.0460169 -2.6354697e+38
3.0550745 -0.73943686 2.0460169 -2.6355215e+38
3.0550616 -0.7449016 2.0460169 -2.6620541e+38
3.0550487 -0.75036633 2.0460169 -2.6753464e+38
3.0550356 -0.75583106 2.0460169 -2.6752944e+38
3.0550227 -0.76129586 2.0460169 -2.66195e+38
3.0550098 -0.76676059 2.0460169 -2.6618981e+38
3.054997 -0.77222532 2.0460169 -2.6486056e+38
3.0549839 -0.77769005 2.0460169 -2.6353134e+38
3.054971 -0.78315485 2.0460169 -2.621969e+38
3.0549581 -0.78861952 2.0460169 -2.5953842e+38
3.054945 -0.79408431 2.0460169 -2.568852e+38
3.0549321 -0.79954904 2.0460169 -2.5821444e+38
3.0549192 -0.80501384 2.0460169 -2.5820929e+38
3.0549064 -0.81047851 2.0460169 -2.5953856e+38
3.0548933 -0.8159433 2.0460169 -2.6087821e+38
3.0788655 -0.82770491 2.0527596 -2.635315e+38
3.0788524 -0.83321536 2.0527596 -2.6618993e+38
3.0548544 -0.8323375 2.0460169 -2.6486067e+38
3.0788264 -0.84423631 2.0527596 -2.6220219e+38
3.0788133 -0.84974676 2.0527596 -2.5688524e+38
3.0788002 -0.85525715 2.0527596 -2.5157348e+38
3.0787873 -0.86076766 2.0527596 -2.5157342e+38
3.1027586 -0.872895 2.0595026 -2.502338e+38
3.1027455 -0.87845111 2.0595026 -2.5421629e+38
3.1027322 -0.88400733 2.0595026 -2.5687479e+38
3.1027191 -0.8895635 2.0595026 -2.6085732e+38
3.1276891 -0.90220267 2.0665264 -2.6353144e+38
3.1276758 -0.90780646 2.0665264 -2.6751401e+38
3.1276627 -0.91341025 2.0665264 -2.715018e+38
3.1276493 -0.91901404 2.0665264 -2.7013634e+38
3.127636 -0.92461783 2.0665264 -2.6882273e+38
3.1276228 -0.93022162 2.0665264 -2.4887914e+38
3.1276095 -0.93582541 2.0665264 -2.277989e+38
3.1275961 -0.9414292 2.0665264 -3.0914193e+38
3.127583 -0.94703299 2.0665264 nan
3.1275697 -0.95263678 2.0665264 nan
3.1275563 -0.95824063 2.0665264 nan
3.1025612 -0.95623761 2.0595026 nan
3.2876601 -0.49243844 2.1052911 nan
3.2596555 -0.49446547 2.0974779 nan
3.2596414 -0.50031877 2.0974779 nan
3.2326367 -0.50232816 2.0899436 nan
3.2326229 -0.50813007 2.0899436 -3.1689793e+38
3.2056184 -0.50998509 2.0824094 -2.6225941e+38
3.2056048 -0.51573563 2.0824094 -2.7153806e+38
3.2055912 -0.52148604 2.0824094 -2.8084268e+38
3.1795866 -0.5232873 2.0751541 -2.7553096e+38
3.1535828 -0.5249896 2.0678988 -2.7153808e+38
3.1535695 -0.53064096 2.0678988 -2.7154847e+38
3.1535561 -0.53629243 2.0678988 -2.7156406e+38
3.1535425 -0.54194379 2.0678988 -2.7022445e+38
3.1535292 -0.54759526 2.0678988 -2.6889003e+38
3.1535158 -0.55324662 2.0678988 -2.6889001e+38
3.1535025 -0.55889809 2.0678988 -2.6756078e+38
3.1534891 -0.56454945 2.0678988 -2.6622117e+38
3.1534758 -0.57020086 2.0678988 -2.6488677e+38
3.1284721 -0.5715788 2.0609226 -2.6488158e+38
3.128459 -0.57718253 2.0609226 -2.6355237e+38
3.1284456 -0.58278638 2.0609226 -2.6357835e+38
3.1284323 -0.58839017 2.0609226 -2.6494394e+38
3.1284192 -0.59399396 2.0609226 -2.6891086e+38
3.1034164 -0.59508622 2.0539465 -2.7289337e+38
3.1034033 -0.60064238 2.0539465 -2.7287779e+38
3.1033902 -0.60619855 2.0539465 -2.7287258e+38
3.1033771 -0.61175472 2.0539465 -2.7286737e+38
3.103364 -0.61731094 2.0539465 -2.7286218e+38
3.0793614 -0.61830735 2.0472493 -2.7152774e+38
3.0793483 -0.6238178 2.0472493 -2.688693e+38
3.0793355 -0.62932831 2.0472493 -2.6754009e+38
3.0793223 -0.63483876 2.0472493 -2.6621082e+38
3.0793092 -0.64034921 2.0472493 -2.675452e+38
3.0792961 -0.64585966 2.0472493 -2.6887954e+38
3.0792832 -0.65137017 2.0472493 -2.6753985e+38
3.0792701 -0.65688062 2.0472493 -2.675347e+38
3.079257 -0.66239101 2.0472493 -2.6488667e+38
3.0792441 -0.66790152 2.0472493 -2.6356261e+38
3.0552428 -0.6683951 2.0405521 -2.6356257e+38
3.0552299 -0.67385989 2.0405521 -2.6356257e+38
3.0552168 -0.67932463 2.0405521 -2.6356257e+38
3.0552039 -0.68478936 2.0405521 -2.6356255e+38
3.055191 -0.69025409 2.0405521 -2.6489176e+38
3.0551782 -0.69571888 2.0405521 -2.6622097e+38
3.0551651 -0.70118362 2.0405521 -2.6621575e+38
3.0551522 -0.70664835 2.0405521 -2.6621056e+38
3.0551393 -0.71211308 2.0405521 -2.6621054e+38
3.0551262 -0.71757787 2.0405521 -2.675294e+38
3.0551133 -0.72304261 2.0405521 -2.662002e+38
3.0551004 -0.72850734 2.0405521 -2.648762e+38
3.0550876 -0.73397207 2.0405521 -2.6354699e+38
3.0550745 -0.73943686 2.0405521 -2.6222294e+38
3.0550616 -0.7449016 2.0405521 -2.6355215e+38
3.0550487 -0.75036633 2.0405521 -2.6621062e+38
3.0550356 -0.75583106 2.0405521 -2.6620024e+38
3.0550227 -0.76129586 2.0405521 -2.6619504e+38
3.0550098 -0.76676059 2.0405521 -2.6486062e+38
3.054997 -0.77222532 2.0405521 -2.6353138e+38
3.0549839 -0.77769005 2.0405521 -2.6219694e+38
3.054971 -0.78315485 2.0405521 -2.621917e+38
3.0549581 -0.78861952 2.0405521 -2.595384e+38
3.054945 -0.79408431 2.0405521 -2.58204e+38
3.0549321 -0.79954904 2.0405521 -2.5820919e+38
3.0549192 -0.80501384 2.0405521 -2.5820404e+38
3.0549064 -0.81047851 2.0405521 -2.595385e+38
3.0548933 -0.8159433 2.0405521 -2.6087298e+38
3.0548804 -0.82140803 2.0405521 -2.6087304e+38
3.0548675 -0.82687283 2.0405521 -2.6220223e+38
3.0548544 -0.8323375 2.0405521 -2.6087296e+38
3.0788264 -0.84423631 2.0472493 -2.595489e+38
3.0788133 -0.84974676 2.0472493 -2.5556118e+38
3.0788002 -0.85525715 2.0472493 -2.5290266e+38
3.0787873 -0.86076766 2.0472493 -2.5156297e+38
3.1027586 -0.872895 2.0539465 -2.5022334e+38
3.1027455 -0.87845111 2.0539465 -2.5288177e+38
3.1027322 -0.88400733 2.0539465 -2.5553508e+38
3.1027191 -0.8895635 2.0539465 -2.5687992e+38
3.102706 -0.89511967 2.0539465 -2.5822481e+38
3.1276758 -0.90780646 2.0609226 -2.6220219e+38
3.1276627 -0.91341025 2.0609226 -2.6618999e+38
3.1276493 -0.91901404 2.0609226 -2.6618492e+38
3.127636 -0.92461783 2.0609226 -2.6622646e+38
3.1276228 -0.93022162 2.0609226 -2.4757571e+38
3.1276095 -0.93582541 2.0609226 -2.2897224e+38
3.1275961 -0.9414292 2.0609226 -2.9173206e+38
3.127583 -0.94703299 2.0609226 nan
3.1275697 -0.95263678 2.0609226 nan
3.1275563 -0.95824063 2.0609226 nan
3.1025612 -0.95623761 2.0539465 nan
3.2596693 -0.48861215 2.0916245 nan
3.2596555 -0.49446547 2.0916245 nan
3.2596414 -0.50031877 2.0916245 nan
3.2326367 -0.50232816 2.0841417 -3.2763633e+38
3.2326229 -0.50813007 2.0841417 -2.8350614e+38
3.2056184 -0.50998509 2.0766587 -2.3831764e+38
3.2056048 -0.51573563 2.0766587 -2.5423731e+38
3.2055912 -0.52148604 2.0766587 -2.7019843e+38
3.1795866 -0.5232873 2.0694532 -2.7019321e+38
3.1535828 -0.5249896 2.0622473 -2.6887437e+38
3.1535695 -0.53064096 2.0622473 -2.7020881e+38
3.1535561 -0.53629243 2.0622473 -2.7021402e+38
3.1535425 -0.54194379 2.0622473 -2.7019847e+38
3.1535292 -0.54759526 2.0622473 -2.6887439e+38
3.1535158 -0.55324662 2.0622473 -2.6887437e+38
3.1535025 -0.55889809 2.0622473 -2.6753993e+38
3.1534891 -0.56454945 2.0622473 -2.6617955e+38
3.1534758 -0.57020086 2.0622473 -2.6353671e+38
3.1284721 -0.5715788 2.0553188 -2.5954907e+38
3.128459 -0.57718253 2.0553188 -2.5558215e+38
3.1284456 -0.58278638 2.0553188 -2.5693217e+38
3.1284323 -0.58839017 2.0553188 -2.5827178e+38
3.1284192 -0.59399396 2.0553188 -2.6623679e+38
3.1034164 -0.59508622 2.0483904 -2.7288295e+38
3.1034033 -0.60064238 2.0483904 -2.7286218e+38
3.1033902 -0.60619855 2.0483904 -2.7153814e+38
3.1033771 -0.61175472 2.0483904 -2.7286216e+38
3.103364 -0.61731094 2.0483904 -2.7285692e+38
3.0793614 -0.61830735 2.0417387 -2.7019324e+38
3.0793483 -0.6238178 2.0417387 -2.675348e+38
3.0793355 -0.62932831 2.0417387 -2.6488154e+38
3.0793223 -0.63483876 2.0417387 -2.6222306e+38
3.0793092 -0.64034921 2.0417387 -2.648815e+38
3.0792961 -0.64585966 2.0417387 -2.6753993e+38
3.0792832 -0.65137017 2.0417387 -2.6620028e+38
3.0792701 -0.65688062 2.0417387 -2.6355223e+38
3.079257 -0.66239101 2.0417387 -2.6222821e+38
3.0792441 -0.66790152 2.0417387 -2.6090413e+38
3.0552428 -0.6683951 2.0350873 -2.6223853e+38
3.0552299 -0.67385989 2.0350873 -2.6356257e+38
3.0552168 -0.67932463 2.0350873 -2.6488661e+38
3.0552039 -0.68478936 2.0350873 -2.6621581e+38
3.055191 -0.69025409 2.0350873 -2.6755021e+38
3.0551782 -0.69571888 2.0350873 -2.6887942e+38
3.0551651 -0.70118362 2.0350873 -2.6755019e+38
3.0551522 -0.70664835 2.0350873 -2.6488653e+38
3.0551393 -0.71211308 2.0350873 -2.675346e+38
3.0551262 -0.71757787 2.0350873 -2.6885865e+38
3.0551133 -0.72304261 2.0350873 -2.6752427e+38
3.0551004 -0.72850734 2.0350873 -2.6620024e+38
3.0550876 -0.73397207 2.0350873 -2.635418e+38
3.0550745 -0.73943686 2.0350873 -2.6089371e+38
3.0550616 -0.7449016 2.0350873 -2.6222292e+38
3.0550487 -0.75036633 2.0350873 -2.6354695e+38
3.0550356 -0.75583106 2.0350873 -2.6487101e+38
3.0550227 -0.76129586 2.0350873 -2.6486582e+38
3.0550098 -0.76676059 2.0350873 -2.635262e+38
3.054997 -0.77222532 2.0350873 -2.6219696e+38
3.0549839 -0.77769005 2.0350873 -2.6218655e+38
3.054971 -0.78315485 2.0350873 -2.608625e+38
3.0549581 -0.78861952 2.0350873 -2.5953844e+38
3.054945 -0.79408431 2.0350873 -2.5820919e+38
3.0549321 -0.79954904 2.0350873 -2.5820919e+38
3.0549192 -0.80501384 2.0350873 -2.5687479e+38
3.0549064 -0.81047851 2.0350873 -2.5820406e+38
3.0548933 -0.8159433 2.0350873 -2.5953854e+38
3.0548804 -0.82140803 2.0350873 -2.5953341e+38
3.0548675 -0.82687283 2.0350873 -2.5820935e+38
3.0548544 -0.8323375 2.0350873 -2.5688013e+38
3.0788264 -0.84423631 2.0417387 -2.5555605e+38
3.0788133 -0.84974676 2.0417387 -2.5555601e+38
3.0788002 -0.85525715 2.0417387 -2.5422153e+38
3.0787873 -0.86076766 2.0417387 -2.5288185e+38
3.1027586 -0.872895 2.0483904 -2.5021816e+38
3.1027455 -0.87845111 2.0483904 -2.5154218e+38
3.1027322 -0.88400733 2.0483904 -2.5287664e+38
3.1027191 -0.8895635 2.0483904 -2.5289224e+38
3.1276891 -0.90220267 2.0553188 -2.5288711e+38
3.1276758 -0.90780646 2.0553188 -2.5686966e+38
3.1276627 -0.91341025 2.0553188 -2.6086264e+38
3.1276493 -0.91901404 2.0553188 -2.6218675e+38
3.127636 -0.92461783 2.0553188 -2.6353154e+38
3.1276228 -0.93022162 2.0553188 -2.4622038e+38
3.1276095 -0.93582541 2.0553188 -2.2903436e+38
3.1275961 -0.9414292 2.0553188 -2.744207e+38
3.127583 -0.94703299 2.0553188 -3.1840468e+38
3.1525521 -0.96014833 2.0622473 nan
3.1275563 -0.95824063 2.0553188 nan
3.1025612 -0.95623761 2.0483904 nan
3.2596693 -0.48861215 2.0857711 nan
3.2596555 -0.49446547 2.0857711 nan
3.2326503 -0.49652624 2.0783398 nan
3.2326367 -0.50232816 2.0783398 -2.8230727e+38
3.2326229 -0.50813007 2.0783398 -2.6759161e+38
3.2056184 -0.50998509 2.0709083 -2.542839e+38
3.2056048 -0.51573563 2.0709083 -2.6090939e+38
3.2055912 -0.52148604 2.0709083 -2.6887954e+38
3.1795866 -0.5232873 2.0637522 -2.6753989e+38
3.1795733 -0.52898824 2.0637522 -2.6753991e+38
3.1795597 -0.53468919 2.0637522 -2.6621068e+38
3.1535561 -0.53629243 2.056596 -2.6621592e+38
3.1535425 -0.54194379 2.056596 -2.6621074e+38
3.1535292 -0.54759526 2.056596 -2.662107e+38
3.1535158 -0.55324662 2.056596 -2.6620545e+38
3.1535025 -0.55889809 2.056596 -2.648762e+38
3.1284988 -0.56037116 2.049715 -2.6352618e+38
3.1534758 -0.57020086 2.056596 -2.6352627e+38
3.1284721 -0.5715788 2.049715 -2.6088864e+38
3.128459 -0.57718253 2.049715 -2.5824057e+38
3.1284456 -0.58278638 2.049715 -2.6091979e+38
3.1034429 -0.58397382 2.042834 -2.6358346e+38
3.1034298 -0.58953005 2.042834 -2.6756597e+38
3.1034164 -0.59508622 2.042834 -2.7155368e+38
3.1034033 -0.60064238 2.042834 -2.7021407e+38
3.0794005 -0.60177594 2.0362284 -2.7020368e+38
3.0793877 -0.60728645 2.0362284 -2.7152252e+38
3.0793746 -0.6127969 2.0362284 -2.7151727e+38
3.0793614 -0.61830735 2.0362284 -2.6885873e+38
3.0793483 -0.6238178 2.0362284 -2.6752951e+38
3.0793355 -0.62932831 2.0362284 -2.6355221e+38
3.0793223 -0.63483876 2.0362284 -2.6089375e+38
3.0793092 -0.64034921 2.0362284 -2.6355221e+38
3.0792961 -0.64585966 2.0362284 -2.6753991e+38
3.0792832 -0.65137017 2.0362284 -2.6620551e+38
3.0792701 -0.65688062 2.0362284 -2.6488147e+38
3.079257 -0.66239101 2.0362284 -2.6355742e+38
3.0792441 -0.66790152 2.0362284 -2.6222298e+38
3.0552428 -0.6683951 2.0296226 -2.6355736e+38
3.0552299 -0.67385989 2.0296226 -2.6489697e+38
3.0552168 -0.67932463 2.0296226 -2.6621581e+38
3.0552039 -0.68478936 2.0296226 -2.6753983e+38
3.055191 -0.69025409 2.0296226 -2.67545e+38
3.0551782 -0.69571888 2.0296226 -2.6621058e+38
3.0551651 -0.70118362 2.0296226 -2.6488655e+38
3.0551522 -0.70664835 2.0296226 -2.6488655e+38
3.0551393 -0.71211308 2.0296226 -2.6621056e+38
3.0551262 -0.71757787 2.0296226 -2.6752944e+38
3.0551133 -0.72304261 2.0296226 -2.6752949e+38
3.0551004 -0.72850734 2.0296226 -2.6619507e+38
3.0550876 -0.73397207 2.0296226 -2.6487101e+38
3.0550745 -0.73943686 2.0296226 -2.6355217e+38
3.0550616 -0.7449016 2.0296226 -2.6354695e+38
3.0550487 -0.75036633 2.0296226 -2.6354695e+38
3.0550356 -0.75583106 2.0296226 -2.6354176e+38
3.0550227 -0.76129586 2.0296226 -2.648658e+38
3.0550098 -0.76676059 2.0296226 -2.6353138e+38
3.054997 -0.77222532 2.0296226 -2.6219696e+38
3.0549839 -0.77769005 2.0296226 -2.6086252e+38
3.054971 -0.78315485 2.0296226 -2.5953329e+38
3.0549581 -0.78861952 2.0296226 -2.5820923e+38
3.054945 -0.79408431 2.0296226 -2.5687998e+38
3.0549321 -0.79954904 2.0296226 -2.5687994e+38
3.0549192 -0.80501384 2.0296226 -2.5687477e+38
3.0549064 -0.81047851 2.0296226 -2.5820402e+38
3.0548933 -0.8159433 2.0296226 -2.5953333e+38
3.0548804 -0.82140803 2.0296226 -2.5820416e+38
3.0548675 -0.82687283 2.0296226 -2.5820937e+38
3.0548544 -0.8323375 2.0296226 -2.5688015e+38
3.0788264 -0.84423631 2.0362284 -2.5555088e+38
3.0788133 -0.84974676 2.0362284 -2.5422159e+38
3.0788002 -0.85525715 2.0362284 -2.5421636e+38
3.0787873 -0.86076766 2.0362284 -2.5287668e+38
3.0787742 -0.86627811 2.0362284 -2.5153186e+38
3.1027455 -0.87845111 2.042834 -2.5153701e+38
3.1027322 -0.88400733 2.042834 -2.5153703e+38
3.1027191 -0.8895635 2.042834 -2.5154224e+38
3.1276891 -0.90220267 2.049715 -2.5154228e+38
3.1276758 -0.90780646 2.049715 -2.5420078e+38
3.1276627 -0.91341025 2.049715 -2.5686449e+38
3.1276493 -0.91901404 2.049715 -2.5953339e+38
3.127636 -0.92461783 2.049715 -2.6220219e+38
3.1276228 -0.93022162 2.049715 -2.4889427e+38
3.1525924 -0.94319409 2.056596 -2.3563876e+38
3.1275961 -0.9414292 2.049715 -2.6903604e+38
3.1525655 -0.95449692 2.056596 -3.0371032e+38
3.1275697 -0.95263678 2.049715 -3.3970345e+38
3.1275563 -0.95824063 2.049715 nan
3.1025612 -0.95623761 2.042834 nan
3.2596693 -0.48861215 2.0799179 nan
3.2596555 -0.49446547 2.0799179 nan
3.2326503 -0.49652624 2.0725379 -3.275113e+38
3.2326367 -0.50232816 2.0725379 -2.3704571e+38
3.2326229 -0.50813007 2.0725379 -2.5292875e+38
3.2056184 -0.50998509 2.0651579 -2.688847e+38
3.2056048 -0.51573563 2.0651579 -2.6755551e+38
3.2055912 -0.52148604 2.0651579 -2.6621068e+38
3.1795866 -0.5232873 2.0580511 -2.6619509e+38
3.1795733 -0.52898824 2.0580511 -2.6486584e+38
3.1795597 -0.53468919 2.0580511 -2.6353661e+38
3.1535561 -0.53629243 2.0509446 -2.6088337e+38
3.1535425 -0.54194379 2.0509446 -2.622074e+38
3.1535292 -0.54759526 2.0509446 -2.6354182e+38
3.1535158 -0.55324662 2.0509446 -2.6353142e+38
3.1535025 -0.55889809 2.0509446 -2.621918e+38
3.1534891 -0.56454945 2.0509446 -2.6217623e+38
3.1534758 -0.57020086 2.0509446 -2.6220223e+38
3.1284721 -0.5715788 2.0441113 -2.60899e+38
3.128459 -0.57718253 2.0441113 -2.5958018e+38
3.1284456 -0.58278638 2.0441113 -2.6492827e+38
3.1284323 -0.58839017 2.0441113 -2.6890037e+38
3.1034298 -0.58953005 2.0372779 -2.6889518e+38
3.1034164 -0.59508622 2.0372779 -2.6888999e+38
3.1034033 -0.60064238 2.0372779 -2.688848e+38
3.0794005 -0.60177594 2.0307178 -2.688692e+38
3.0793877 -0.60728645 2.0307178 -2.7018283e+38
3.0793746 -0.6127969 2.0307178 -2.7018798e+38
3.0553722 -0.61374766 2.024158 -2.6885873e+38
3.0553594 -0.61921239 2.024158 -2.6620026e+38
3.0793355 -0.62932831 2.0307178 -2.6355219e+38
3.0553334 -0.63014191 2.024158 -2.5956452e+38
3.0793092 -0.64034921 2.0307178 -2.6354703e+38
3.0792961 -0.64585966 2.0307178 -2.6621068e+38
3.0792832 -0.65137017 2.0307178 -2.6620549e+38
3.0792701 -0.65688062 2.0307178 -2.6621068e+38
3.079257 -0.66239101 2.0307178 -2.6488665e+38
3.0552557 -0.66293037 2.024158 -2.6222298e+38
3.0552428 -0.6683951 2.024158 -2.6354699e+38
3.0552299 -0.67385989 2.024158 -2.6488141e+38
3.0552168 -0.67932463 2.024158 -2.6752951e+38
3.0552039 -0.68478936 2.024158 -2.688691e+38
3.055191 -0.69025409 2.024158 -2.6621062e+38
3.0551782 -0.69571888 2.024158 -2.6355734e+38
3.0551393 -0.71211308 2.024158 -2.6488137e+38
3.0551004 -0.72850734 2.024158 -2.6620543e+38
3.0550876 -0.73397207 2.024158 -2.6620024e+38
3.0550745 -0.73943686 2.024158 -2.6620024e+38
3.0550616 -0.7449016 2.024158 -2.6487099e+38
3.0550487 -0.75036633 2.024158 -2.6221253e+38
3.0550356 -0.75583106 2.024158 -2.6353657e+38
3.0550227 -0.76129586 2.024158 -2.6353138e+38
3.0550098 -0.76676059 2.024158 -2.6352618e+38
3.054997 -0.77222532 2.024158 -2.6219694e+38
3.0549839 -0.77769005 2.024158 -2.5953848e+38
3.054971 -0.78315485 2.024158 -2.5687998e+38
3.0549581 -0.78861952 2.024158 -2.5555593e+38
3.054945 -0.79408431 2.024158 -2.5422668e+38
3.0549321 -0.79954904 2.024158 -2.5556108e+38
3.0549192 -0.80501384 2.024158 -2.5555071e+38
3.0549064 -0.81047851 2.024158 -2.5687479e+38
3.0548933 -0.8159433 2.024158 -2.5819887e+38
3.0548804 -0.82140803 2.024158 -2.5819374e+38
3.0548675 -0.82687283 2.024158 -2.5687491e+38
3.0548544 -0.8323375 2.024158 -2.555457e+38
3.0548415 -0.83780229 2.024158 -2.5421124e+38
3.0548286 -0.84326702 2.024158 -2.542112e+38
3.0548158 -0.84873182 2.024158 -2.5287672e+38
3.0548027 -0.85419649 2.024158 -2.5287149e+38
3.0787742 -0.86627811 2.0307178 -2.5286626e+38
3.1027455 -0.87845111 2.0372779 -2.5153182e+38
3.1027322 -0.88400733 2.0372779 -2.4887336e+38
3.1027191 -0.8895635 2.0372779 -2.5019742e+38
3.1276891 -0.90220267 2.0441113 -2.5020263e+38
3.1276758 -0.90780646 2.0441113 -2.515267e+38
3.1276627 -0.91341025 2.0441113 -2.5287674e+38
3.1276493 -0.91901404 2.0441113 -2.5687485e+38
3.127636 -0.92461783 2.0441113 -2.5952284e+38
3.1276228 -0.93022162 2.0441113 -2.5151624e+38
3.1276095 -0.93582541 2.0441113 -2.4230038e+38
3.1275961 -0.9414292 2.0441113 -2.6502755e+38
3.127583 -0.94703299 2.0441113 -2.877336e+38
3.1275697 -0.95263678 2.0441113 -3.1844101e+38
3.1275563 -0.95824063 2.0441113 nan
3.1275432 -0.96384436 2.0441113 nan
3.2596693 -0.48861215 2.0740645 nan
3.2326641 -0.49072438 2.066736 nan
3.2326503 -0.49652624 2.066736 -3.1025132e+38
3.2056456 -0.49848419 2.0594075 -2.4227924e+38
3.205632 -0.50423467 2.0594075 -2.569114e+38
3.2056184 -0.50998509 2.0594075 -2.7020362e+38
3.1796138 -0.51188546 2.0523503 -2.6886395e+38
3.1796002 -0.51758635 2.0523503 -2.6751912e+38
3.1795866 -0.5232873 2.0523503 -2.6351584e+38
3.1535828 -0.5249896 2.0452931 -2.6086256e+38
3.1535695 -0.53064096 2.0452931 -2.595385e+38
3.1535561 -0.53629243 2.0452931 -2.5954888e+38
3.1535425 -0.54194379 2.0452931 -2.5821444e+38
3.1535292 -0.54759526 2.0452931 -2.5821968e+38
3.1535158 -0.55324662 2.0452931 -2.568697e+38
3.1535025 -0.55889809 2.0452931 -2.5685934e+38
3.1534891 -0.56454945 2.0452931 -2.5819376e+38
3.1534758 -0.57020086 2.0452931 -2.60873e+38
3.1284721 -0.5715788 2.0385075 -2.608886e+38
3.128459 -0.57718253 2.0385075 -2.6223344e+38
3.1284456 -0.58278638 2.0385075 -2.6623153e+38
3.1284323 -0.58839017 2.0385075 -2.7021402e+38
3.1284192 -0.59399396 2.0385075 -2.70214e+38
3.1034164 -0.59508622 2.0317216 -2.7020879e+38
3.1034033 -0.60064238 2.0317216 -2.7020358e+38
3.0794005 -0.60177594 2.0252075 -2.7019317e+38
3.0793877 -0.60728645 2.0252075 -2.6885871e+38
3.0793746 -0.6127969 2.0252075 -2.6885871e+38
3.0553722 -0.61374766 2.018693 -2.6620026e+38
3.0553594 -0.61921239 2.018693 -2.6353659e+38
3.0553463 -0.62467712 2.018693 -2.6221773e+38
3.0553334 -0.63014191 2.018693 -2.6089373e+38
3.0793092 -0.64034921 2.0252075 -2.6355223e+38
3.0553074 -0.64107138 2.018693 -2.6621587e+38
3.0552945 -0.64653611 2.018693 -2.6487624e+38
3.0792701 -0.65688062 2.0252075 -2.6487624e+38
3.079257 -0.66239101 2.0252075 -2.6354701e+38
3.0552557 -0.66293037 2.018693 -2.6221779e+38
3.0552428 -0.6683951 2.018693 -2.6354701e+38
3.0552299 -0.67385989 2.018693 -2.6620549e+38
3.0552168 -0.67932463 2.018693 -2.6620549e+38
3.0552039 -0.68478936 2.018693 -2.6753991e+38
3.055191 -0.69025409 2.018693 -2.6621066e+38
3.0551782 -0.69571888 2.018693 -2.6355738e+38
3.0551522 -0.70664835 2.018693 -2.6356774e+38
3.0551393 -0.71211308 2.018693 -2.6356255e+38
3.0551004 -0.72850734 2.018693 -2.6621062e+38
3.0550876 -0.73397207 2.018693 -2.6487101e+38
3.0550745 -0.73943686 2.018693 -2.6486062e+38
3.0550616 -0.7449016 2.018693 -2.6353657e+38
3.0550487 -0.75036633 2.018693 -2.6354176e+38
3.0550356 -0.75583106 2.018693 -2.6353138e+38
3.0550227 -0.76129586 2.018693 -2.6353138e+38
3.0550098 -0.76676059 2.018693 -2.6219694e+38
3.054997 -0.77222532 2.018693 -2.6219174e+38
3.054945 -0.79408431 2.018693 -2.5423185e+38
3.0549192 -0.80501384 2.018693 -2.5555591e+38
3.0549064 -0.81047851 2.018693 -2.5687477e+38
3.0548933 -0.8159433 2.018693 -2.5819365e+38
3.0548804 -0.82140803 2.018693 -2.5686964e+38
3.0548675 -0.82687283 2.018693 -2.5687487e+38
3.0548544 -0.8323375 2.018693 -2.5686972e+38
3.0548415 -0.83780229 2.018693 -2.568593e+38
3.0548286 -0.84326702 2.018693 -2.5553522e+38
3.0548158 -0.84873182 2.018693 -2.5419557e+38
3.0548027 -0.85419649 2.018693 -2.5153705e+38
3.0787742 -0.86627811 2.0252075 -2.5020261e+38
3.0787611 -0.87178862 2.0252075 -2.5019738e+38
3.078748 -0.87729901 2.0252075 -2.5019218e+38
3.1027191 -0.8895635 2.0317216 -2.5019218e+38
3.102706 -0.89511967 2.0317216 -2.5019222e+38
3.1276758 -0.90780646 2.0385075 -2.5153186e+38
3.1276627 -0.91341025 2.0385075 -2.5287668e+38
3.1276493 -0.91901404 2.0385075 -2.5420074e+38
3.127636 -0.92461783 2.0385075 -2.5685388e+38
3.1276228 -0.93022162 2.0385075 -2.4755435e+38
3.1276095 -0.93582541 2.0385075 -2.3828146e+38
3.1525788 -0.94884551 2.0452931 -2.6098271e+38
3.1525655 -0.95449692 2.0452931 -2.8502842e+38
3.1275697 -0.95263678 2.0385075 -3.2504561e+38
3.1275563 -0.95824063 2.0385075 nan
3.1275432 -0.96384436 2.0385075 nan
3.2596693 -0.48861215 2.0682111 nan
3.2326641 -0.49072438 2.0609341 nan
3.2326503 -0.49652624 2.0609341 -2.9409301e+38
3.2056456 -0.49848419 2.0536571 -2.4758062e+38
3.205632 -0.50423467 2.0536571 -2.5958022e+38
3.2056184 -0.50998509 2.0536571 -2.7152244e+38
3.1796138 -0.51188546 2.0466492 -2.7017756e+38
3.1796002 -0.51758635 2.0466492 -2.6749831e+38
3.1795866 -0.5232873 2.0466492 -2.6215023e+38
3.1535828 -0.5249896 2.0396416 -2.5553003e+38
3.1535695 -0.53064096 2.0396416 -2.5686443e+38
3.1535561 -0.53629243 2.0396416 -2.5687483e+38
3.1535425 -0.54194379 2.0396416 -2.5554562e+38
3.1535292 -0.54759526 2.0396416 -2.528768e+38
3.1535158 -0.55324662 2.0396416 -2.5152683e+38
3.1535025 -0.55889809 2.0396416 -2.5020798e+38
3.1534891 -0.56454945 2.0396416 -2.5418528e+38
3.1534758 -0.57020086 2.0396416 -2.5820933e+38
3.1284721 -0.5715788 2.0329037 -2.6220221e+38
3.128459 -0.57718253 2.0329037 -2.6488145e+38
3.1284456 -0.58278638 2.0329037 -2.6887952e+38
3.1284323 -0.58839017 2.0329037 -2.7154317e+38
3.1284192 -0.59399396 2.0329037 -2.7154317e+38
3.1034164 -0.59508622 2.0261655 -2.7020873e+38
3.1034033 -0.60064238 2.0261655 -2.7019835e+38
3.0794005 -0.60177594 2.019697 -2.7019313e+38
3.0793877 -0.60728645 2.019697 -2.6885352e+38
3.0553851 -0.60828292 2.0132284 -2.6619507e+38
3.0553722 -0.61374766 2.0132284 -2.6353661e+38
3.0553594 -0.61921239 2.0132284 -2.6088335e+38
3.0553463 -0.62467712 2.0132284 -2.6089371e+38
3.0553334 -0.63014191 2.0132284 -2.6088854e+38
3.0553205 -0.63560665 2.0132284 -2.6354182e+38
3.0553074 -0.64107138 2.0132284 -2.6487622e+38
3.0552945 -0.64653611 2.0132284 -2.635418e+38
3.0792701 -0.65688062 2.019697 -2.6221255e+38
3.0552688 -0.65746564 2.0132284 -2.6220736e+38
3.0552557 -0.66293037 2.0132284 -2.6221257e+38
3.0552428 -0.6683951 2.0132284 -2.6487107e+38
3.0552299 -0.67385989 2.0132284 -2.6620032e+38
3.0552168 -0.67932463 2.0132284 -2.6620036e+38
3.0552039 -0.68478936 2.0132284 -2.6620034e+38
3.055191 -0.69025409 2.0132284 -2.6487109e+38
3.0551782 -0.69571888 2.0132284 -2.6356263e+38
3.0551651 -0.70118362 2.0132284 -2.6357819e+38
3.0551522 -0.70664835 2.0132284 -2.63573e+38
3.0551393 -0.71211308 2.0132284 -2.635678e+38
3.0551262 -0.71757787 2.0132284 -2.6223336e+38
3.0551133 -0.72304261 2.0132284 -2.635574e+38
3.0551004 -0.72850734 2.0132284 -2.6487624e+38
3.0550876 -0.73397207 2.0132284 -2.6487105e+38
3.0550745 -0.73943686 2.0132284 -2.6353142e+38
3.0550616 -0.7449016 2.0132284 -2.635314e+38
3.0550487 -0.75036633 2.0132284 -2.6353138e+38
3.0550356 -0.75583106 2.0132284 -2.6352099e+38
3.0550227 -0.76129586 2.0132284 -2.6219694e+38
3.0550098 -0.76676059 2.0132284 -2.6219172e+38
3.054997 -0.77222532 2.0132284 -2.621917e+38
3.054945 -0.79408431 2.0132284 -2.5422666e+38
3.0549192 -0.80501384 2.0132284 -2.5555071e+38
3.0549064 -0.81047851 2.0132284 -2.5686441e+38
3.0548933 -0.8159433 2.0132284 -2.5686962e+38
3.0548804 -0.82140803 2.0132284 -2.5686964e+38
3.0548675 -0.82687283 2.0132284 -2.5554562e+38
3.0548544 -0.8323375 2.0132284 -2.582041e+38
3.0548415 -0.83780229 2.0132284 -2.5952812e+38
3.0548286 -0.84326702 2.0132284 -2.5686962e+38
3.0548158 -0.84873182 2.0132284 -2.5420074e+38
3.0548027 -0.85419649 2.0132284 -2.5154226e+38
3.0787742 -0.86627811 2.019697 -2.4754934e+38
3.0787611 -0.87178862 2.019697 -2.4886296e+38
3.078748 -0.87729901 2.019697 -2.501922e+38
3.1027191 -0.8895635 2.0261655 -2.5018184e+38
3.1276891 -0.90220267 2.0329037 -2.5018703e+38
3.1276758 -0.90780646 2.0329037 -2.5152664e+38
3.1276627 -0.91341025 2.0329037 -2.5152666e+38
3.1276493 -0.91901404 2.0329037 -2.5285074e+38
3.127636 -0.92461783 2.0329037 -2.528663e+38
3.1276228 -0.93022162 2.0329037 -2.435617e+38
3.1276095 -0.93582541 2.0329037 -2.3429378e+38
3.1275961 -0.9414292 2.0329037 -2.5825136e+38
3.1525655 -0.95449692 2.0396416 -2.8103031e+38
3.1275697 -0.95263678 2.0329037 -3.3174903e+38
3.1275563 -0.95824063 2.0329037 nan
3.1275432 -0.96384436 2.0329037 nan
3.1275299 -0.96944815 2.0329037 nan
3.2596693 -0.48861215 2.0623579 nan
3.2326641 -0.49072438 2.0551322 -3.3031022e+38
3.2326503 -0.49652624 2.0551322 -2.9151254e+38
3.2056456 -0.49848419 2.0479064 -2.5418526e+38
3.205632 -0.50423467 2.0479064 -2.622075e+38
3.1796272 -0.50618452 2.0409484 -2.7150683e+38
3.1796138 -0.51188546 2.0409484 -2.688379e+38
3.1796002 -0.51758635 2.0409484 -2.6615347e+38
3.1795866 -0.5232873 2.0409484 -2.6084171e+38
3.1535828 -0.5249896 2.0339904 -2.5552999e+38
3.1535695 -0.53064096 2.0339904 -2.5553516e+38
3.1535561 -0.53629243 2.0339904 -2.5686443e+38
3.1535425 -0.54194379 2.0339904 -2.5553005e+38
3.1535292 -0.54759526 2.0339904 -2.5419565e+38
3.1535158 -0.55324662 2.0339904 -2.5287161e+38
3.1535025 -0.55889809 2.0339904 -2.5155277e+38
3.1284988 -0.56037116 2.0272999 -2.5554564e+38
3.1534758 -0.57020086 2.0339904 -2.5823006e+38
3.1284721 -0.5715788 2.0272999 -2.6088852e+38
3.128459 -0.57718253 2.0272999 -2.6488659e+38
3.1284456 -0.58278638 2.0272999 -2.6622099e+38
3.1284323 -0.58839017 2.0272999 -2.6888463e+38
3.1284192 -0.59399396 2.0272999 -2.6887944e+38
3.1034164 -0.59508622 2.0206094 -2.6887425e+38
3.1034033 -0.60064238 2.0206094 -2.6753983e+38
3.0794005 -0.60177594 2.0141864 -2.6753466e+38
3.0793877 -0.60728645 2.0141864 -2.6487101e+38
3.0553851 -0.60828292 2.0077636 -2.6353661e+38
3.0553722 -0.61374766 2.0077636 -2.6221257e+38
3.0553594 -0.61921239 2.0077636 -2.6088854e+38
3.0553463 -0.62467712 2.0077636 -2.6089373e+38
3.0553334 -0.63014191 2.0077636 -2.5955931e+38
3.0553205 -0.63560665 2.0077636 -2.6088333e+38
3.0553074 -0.64107138 2.0077636 -2.6221255e+38
3.0552945 -0.64653611 2.0077636 -2.6221253e+38
3.0792701 -0.65688062 2.0141864 -2.6220734e+38
3.079257 -0.66239101 2.0141864 -2.6221251e+38
3.0552557 -0.66293037 2.0077636 -2.6221257e+38
3.0552428 -0.6683951 2.0077636 -2.6353665e+38
3.0552299 -0.67385989 2.0077636 -2.6487113e+38
3.0552168 -0.67932463 2.0077636 -2.64866e+38
3.0552039 -0.68478936 2.0077636 -2.6486598e+38
3.055191 -0.69025409 2.0077636 -2.635471e+38
3.0551782 -0.69571888 2.0077636 -2.6091462e+38
3.0551651 -0.70118362 2.0077636 -2.6090424e+38
3.0551522 -0.70664835 2.0077636 -2.6090943e+38
3.0551393 -0.71211308 2.0077636 -2.6090422e+38
3.0551262 -0.71757787 2.0077636 -2.5958535e+38
3.0551133 -0.72304261 2.0077636 -2.6089379e+38
3.0551004 -0.72850734 2.0077636 -2.6221263e+38
3.0550876 -0.73397207 2.0077636 -2.6220225e+38
3.0550745 -0.73943686 2.0077636 -2.6219182e+38
3.0550616 -0.7449016 2.0077636 -2.6219178e+38
3.0550487 -0.75036633 2.0077636 -2.6219178e+38
3.0550356 -0.75583106 2.0077636 -2.6086254e+38
3.0550227 -0.76129586 2.0077636 -2.6086771e+38
3.0550098 -0.76676059 2.0077636 -2.6086247e+38
3.054997 -0.77222532 2.0077636 -2.6219168e+38
3.0549839 -0.77769005 2.0077636 -2.5953321e+38
3.054971 -0.78315485 2.0077636 -2.5820398e+38
3.054945 -0.79408431 2.0077636 -2.5555071e+38
3.0549192 -0.80501384 2.0077636 -2.5687996e+38
3.0549064 -0.81047851 2.0077636 -2.568696e+38
3.0548933 -0.8159433 2.0077636 -2.5819885e+38
3.0548804 -0.82140803 2.0077636 -2.5687481e+38
3.0548675 -0.82687283 2.0077636 -2.5555599e+38
3.0548544 -0.8323375 2.0077636 -2.5688002e+38
3.0548415 -0.83780229 2.0077636 -2.5953327e+38
3.0548286 -0.84326702 2.0077636 -2.5554037e+38
3.0548158 -0.84873182 2.0077636 -2.5287151e+38
3.0548027 -0.85419649 2.0077636 -2.5021823e+38
3.0787742 -0.86627811 2.0141864 -2.4755973e+38
3.0787611 -0.87178862 2.0141864 -2.4887334e+38
3.1027322 -0.88400733 2.0206094 -2.4887338e+38
3.1027191 -0.8895635 2.0206094 -2.4885782e+38
3.1276891 -0.90220267 2.0272999 -2.5017145e+38
3.1276758 -0.90780646 2.0272999 -2.4886298e+38
3.1276627 -0.91341025 2.0272999 -2.4885782e+38
3.1276493 -0.91901404 2.0272999 -2.4887342e+38
3.127636 -0.92461783 2.0272999 -2.5021833e+38
3.1276228 -0.93022162 2.0272999 -2.4757036e+38
3.1276095 -0.93582541 2.0272999 -2.4493798e+38
3.1525788 -0.94884551 2.0339904 -2.5693748e+38
3.1525655 -0.95449692 2.0339904 -2.6902051e+38
3.1525521 -0.96014833 2.0339904 -3.2637514e+38
3.1275563 -0.95824063 2.0272999 nan
3.1275432 -0.96384436 2.0272999 nan
3.1525121 -0.97710258 2.0339904 nan
3.2596831 -0.48275885 2.0565045 nan
3.2596693 -0.48861215 2.0565045 nan
3.2326641 -0.49072438 2.0493302 -3.1954123e+38
3.2326503 -0.49652624 2.0493302 -2.9011062e+38
3.2056456 -0.49848419 2.042156 -2.595385e+38
3.205632 -0.50423467 2.042156 -2.6488147e+38
3.1796272 -0.50618452 2.0352473 -2.7017756e+38
3.1796138 -0.51188546 2.0352473 -2.6750346e+38
3.1796002 -0.51758635 2.0352473 -2.6483979e+38
3.1795866 -0.5232873 2.0352473 -2.6085209e+38
3.1535828 -0.5249896 2.0283389 -2.5552999e+38
3.1535695 -0.53064096 2.0283389 -2.5553001e+38
3.1535561 -0.53629243 2.0283389 -2.5552481e+38
3.1535425 -0.54194379 2.0283389 -2.5551445e+38
3.1535292 -0.54759526 2.0283389 -2.5551964e+38
3.1535158 -0.55324662 2.0283389 -2.542008e+38
3.1285119 -0.55476737 2.0216961 -2.5288717e+38
3.1284988 -0.56037116 2.0216961 -2.555612e+38
3.1284854 -0.56597501 2.0216961 -2.5823004e+38
3.1284721 -0.5715788 2.0216961 -2.608989e+38
3.128459 -0.57718253 2.0216961 -2.6356253e+38
3.1284456 -0.58278638 2.0216961 -2.6489695e+38
3.1284323 -0.58839017 2.0216961 -2.6622099e+38
3.1284192 -0.59399396 2.0216961 -2.6621581e+38
3.1284058 -0.59959775 2.0216961 -2.6621062e+38
3.1034033 -0.60064238 2.015053 -2.6487101e+38
3.0794005 -0.60177594 2.0086761 -2.6354176e+38
3.0793877 -0.60728645 2.0086761 -2.6220732e+38
3.0793746 -0.6127969 2.0086761 -2.6087811e+38
3.0553722 -0.61374766 2.0022988 -2.6087811e+38
3.0553594 -0.61921239 2.0022988 -2.608885e+38
3.0553463 -0.62467712 2.0022988 -2.5956963e+38
3.0553334 -0.63014191 2.0022988 -2.5823002e+38
3.0553205 -0.63560665 2.0022988 -2.5955406e+38
3.0553074 -0.64107138 2.0022988 -2.5955408e+38
3.0552945 -0.64653611 2.0022988 -2.6087811e+38
3.0552816 -0.6520009 2.0022988 -2.6220734e+38
3.0552688 -0.65746564 2.0022988 -2.6221251e+38
3.0792441 -0.66790152 2.0086761 -2.6220219e+38
3.0552428 -0.6683951 2.0022988 -2.6352627e+38
3.0552299 -0.67385989 2.0022988 -2.6352631e+38
3.0552168 -0.67932463 2.0022988 -2.6352635e+38
3.0552039 -0.68478936 2.0022988 -2.6353154e+38
3.055191 -0.69025409 2.0022988 -2.6087827e+38
3.0551782 -0.69571888 2.0022988 -2.5822499e+38
3.0551651 -0.70118362 2.0022988 -2.5821461e+38
3.0551522 -0.70664835 2.0022988 -2.5822497e+38
3.0551393 -0.71211308 2.0022988 -2.5823016e+38
3.0551262 -0.71757787 2.0022988 -2.5690089e+38
3.0551133 -0.72304261 2.0022988 -2.5821972e+38
3.0551004 -0.72850734 2.0022988 -2.5820931e+38
3.0550876 -0.73397207 2.0022988 -2.5952814e+38
3.0550745 -0.73943686 2.0022988 -2.6086252e+38
3.0550616 -0.7449016 2.0022988 -2.6085728e+38
3.0550487 -0.75036633 2.0022988 -2.5953327e+38
3.0550356 -0.75583106 2.0022988 -2.5953327e+38
3.0550227 -0.76129586 2.0022988 -2.5953325e+38
3.0550098 -0.76676059 2.0022988 -2.6086245e+38
3.054997 -0.77222532 2.0022988 -2.6086243e+38
3.0549839 -0.77769005 2.0022988 -2.5953321e+38
3.054971 -0.78315485 2.0022988 -2.5819879e+38
3.0549581 -0.78861952 2.0022988 -2.5819881e+38
3.054945 -0.79408431 2.0022988 -2.5687477e+38
3.0549321 -0.79954904 2.0022988 -2.58204e+38
3.0549192 -0.80501384 2.0022988 -2.5819883e+38
3.0549064 -0.81047851 2.0022988 -2.5819885e+38
3.0548933 -0.8159433 2.0022988 -2.5819883e+38
3.0548804 -0.82140803 2.0022988 -2.5687998e+38
3.0548675 -0.82687283 2.0022988 -2.5554558e+38
3.0548544 -0.8323375 2.0022988 -2.5687481e+38
3.0548415 -0.83780229 2.0022988 -2.5819883e+38
3.0548286 -0.84326702 2.0022988 -2.5554035e+38
3.0548158 -0.84873182 2.0022988 -2.5155267e+38
3.0548027 -0.85419649 2.0022988 -2.5023382e+38
3.0787742 -0.86627811 2.0086761 -2.4755975e+38
3.0787611 -0.87178862 2.0086761 -2.4754411e+38
3.1027322 -0.88400733 2.015053 -2.4754413e+38
3.1027191 -0.8895635 2.015053 -2.488578e+38
3.1276891 -0.90220267 2.0216961 -2.488578e+38
3.1276758 -0.90780646 2.0216961 -2.4754417e+38
3.1276627 -0.91341025 2.0216961 -2.4488054e+38
3.1276493 -0.91901404 2.0216961 -2.4621499e+38
3.127636 -0.92461783 2.0216961 -2.4755987e+38
3.1276228 -0.93022162 2.0216961 -2.5156321e+38
3.1525924 -0.94319409 2.0283389 -2.5555609e+38
3.1525788 -0.94884551 2.0283389 -2.5553532e+38
3.1525655 -0.95449692 2.0283389 -2.5571774e+38
3.1525521 -0.96014833 2.0283389 -3.2112577e+38
3.1525388 -0.96579975 2.0283389 nan
3.1525254 -0.97145116 2.0283389 nan
3.1525121 -0.97710258 2.0283389 nan
3.2596693 -0.48861215 2.0506511 nan
3.2596555 -0.49446547 2.0506511 -2.9015788e+38
3.2326503 -0.49652624 2.0435283 -2.715222e+38
3.2056456 -0.49848419 2.0364056 -2.5422674e+38
3.205632 -0.50423467 2.0364056 -2.6088335e+38
3.2056184 -0.50998509 2.0364056 -2.6618983e+38
3.2056048 -0.51573563 2.0364056 -2.6352093e+38
3.1796002 -0.51758635 2.0295465 -2.6085209e+38
3.1795866 -0.5232873 2.0295465 -2.5818844e+38
3.1795733 -0.52898824 2.0295465 -2.5419559e+38
3.1795597 -0.53468919 2.0295465 -2.5419041e+38
3.1535561 -0.53629243 2.0226874 -2.5418522e+38
3.1535425 -0.54194379 2.0226874 -2.5551443e+38
3.1535292 -0.54759526 2.0226874 -2.5684366e+38
3.1535158 -0.55324662 2.0226874 -2.5685402e+38
3.1285119 -0.55476737 2.0160923 -2.5686962e+38
3.1284988 -0.56037116 2.0160923 -2.5953848e+38
3.1284854 -0.56597501 2.0160923 -2.6353657e+38
3.1284721 -0.5715788 2.0160923 -2.6621579e+38
3.128459 -0.57718253 2.0160923 -2.6888983e+38
3.1284456 -0.58278638 2.0160923 -2.6887425e+38
3.1284323 -0.58839017 2.0160923 -2.6886908e+38
3.1284192 -0.59399396 2.0160923 -2.6620543e+38
3.1034164 -0.59508622 2.0094969 -2.6487101e+38
3.1034033 -0.60064238 2.0094969 -2.6353659e+38
3.1033902 -0.60619855 2.0094969 -2.6087809e+38
3.0793877 -0.60728645 2.0031655 -2.6087805e+38
3.0793746 -0.6127969 2.0031655 -2.5955404e+38
3.0553722 -0.61374766 1.996834 -2.5955404e+38
3.0553594 -0.61921239 1.996834 -2.5955921e+38
3.0553463 -0.62467712 1.996834 -2.5955919e+38
3.0553334 -0.63014191 1.996834 -2.5822998e+38
3.0553205 -0.63560665 1.996834 -2.5954882e+38
3.0553074 -0.64107138 1.996834 -2.6087809e+38
3.0552945 -0.64653611 1.996834 -2.6220215e+38
3.0552816 -0.6520009 1.996834 -2.6220215e+38
3.0552688 -0.65746564 1.996834 -2.6219694e+38
3.0552557 -0.66293037 1.996834 -2.6217623e+38
3.0552428 -0.6683951 1.996834 -2.6085742e+38
3.0552299 -0.67385989 1.996834 -2.6085225e+38
3.0552168 -0.67932463 1.996834 -2.6086266e+38
3.0552039 -0.68478936 1.996834 -2.6086787e+38
3.055191 -0.69025409 1.996834 -2.5953347e+38
3.0551782 -0.69571888 1.996834 -2.5820422e+38
3.0551651 -0.70118362 1.996834 -2.5819899e+38
3.0551522 -0.70664835 1.996834 -2.5820418e+38
3.0551393 -0.71211308 1.996834 -2.5687493e+38
3.0551262 -0.71757787 1.996834 -2.5554568e+38
3.0551133 -0.72304261 1.996834 -2.5687487e+38
3.0550876 -0.73397207 1.996834 -2.5819883e+38
3.0550745 -0.73943686 1.996834 -2.5953321e+38
3.0550616 -0.7449016 1.996834 -2.5819875e+38
3.0550487 -0.75036633 1.996834 -2.5686956e+38
3.0550356 -0.75583106 1.996834 -2.5819881e+38
3.0550227 -0.76129586 1.996834 -2.5952801e+38
3.0550098 -0.76676059 1.996834 -2.5952799e+38
3.054997 -0.77222532 1.996834 -2.6085722e+38
3.0549839 -0.77769005 1.996834 -2.595228e+38
3.054971 -0.78315485 1.996834 -2.5819359e+38
3.0549581 -0.78861952 1.996834 -2.5686439e+38
3.054945 -0.79408431 1.996834 -2.5686958e+38
3.0549321 -0.79954904 1.996834 -2.5685919e+38
3.0549192 -0.80501384 1.996834 -2.5685402e+38
3.0549064 -0.81047851 1.996834 -2.5685923e+38
3.0548933 -0.8159433 1.996834 -2.5685921e+38
3.0548804 -0.82140803 1.996834 -2.5686439e+38
3.0548675 -0.82687283 1.996834 -2.5685921e+38
3.0548544 -0.8323375 1.996834 -2.5686441e+38
3.0548415 -0.83780229 1.996834 -2.5553516e+38
3.0548286 -0.84326702 1.996834 -2.5421629e+38
3.0548158 -0.84873182 1.996834 -2.5155786e+38
3.0548027 -0.85419649 1.996834 -2.5022865e+38
3.0787742 -0.86627811 2.0031655 -2.502234e+38
3.0787611 -0.87178862 2.0031655 -2.4888372e+38
3.1027322 -0.88400733 2.0094969 -2.4754932e+38
3.1027191 -0.8895635 2.0094969 -2.4753894e+38
3.1276891 -0.90220267 2.0160923 -2.4619937e+38
3.1276758 -0.90780646 2.0160923 -2.4487535e+38
3.1276627 -0.91341025 2.0160923 -2.4487537e+38
3.1276493 -0.91901404 2.0160923 -2.4753385e+38
3.127636 -0.92461783 2.0160923 -2.5020794e+38
3.1276228 -0.93022162 2.0160923 -2.5421646e+38
3.1525924 -0.94319409 2.0226874 -2.5821962e+38
3.1525788 -0.94884551 2.0226874 -2.5156816e+38
3.1525655 -0.95449692 2.0226874 -2.4498516e+38
3.1525521 -0.96014833 2.0226874 -3.1838428e+38
3.1525388 -0.96579975 2.0226874 nan
3.1785066 -0.97936231 2.0295465 nan
3.178493 -0.9850632 2.0295465 nan
3.2596693 -0.48861215 2.0447979 nan
3.2596555 -0.49446547 2.0447979 -2.5959054e+38
3.2326503 -0.49652624 2.0377264 -2.5424731e+38
3.2326367 -0.50232816 2.0377264 -2.4893052e+38
3.205632 -0.50423467 2.0306549 -2.5558197e+38
3.2056184 -0.50998509 2.0306549 -2.6220211e+38
3.2056048 -0.51573563 2.0306549 -2.5952805e+38
3.1796002 -0.51758635 2.0238454 -2.5685919e+38
3.1795866 -0.5232873 2.0238454 -2.5552477e+38
3.1535828 -0.5249896 2.017036 -2.5285595e+38
3.1535695 -0.53064096 2.017036 -2.5284561e+38
3.1535561 -0.53629243 2.017036 -2.5285076e+38
3.1535425 -0.54194379 2.017036 -2.555092e+38
3.1535292 -0.54759526 2.017036 -2.5684362e+38
3.1535158 -0.55324662 2.017036 -2.594969e+38
3.1535025 -0.55889809 2.017036 -2.6085211e+38
3.1284988 -0.56037116 2.0104883 -2.6485022e+38
3.1284854 -0.56597501 2.0104883 -2.6752942e+38
3.1284721 -0.5715788 2.0104883 -2.7153269e+38
3.128459 -0.57718253 2.0104883 -2.7418597e+38
3.1284456 -0.58278638 2.0104883 -2.7284636e+38
3.1284323 -0.58839017 2.0104883 -2.701879e+38
3.1284192 -0.59399396 2.0104883 -2.6752947e+38
3.1034164 -0.59508622 2.0039406 -2.6353659e+38
3.1034033 -0.60064238 2.0039406 -2.6087294e+38
3.1033902 -0.60619855 2.0039406 -2.5821966e+38
3.0793877 -0.60728645 1.997655 -2.5821964e+38
3.0793746 -0.6127969 1.997655 -2.5821964e+38
3.0553722 -0.61374766 1.9913692 -2.5821964e+38
3.0553594 -0.61921239 1.9913692 -2.5821962e+38
3.0553463 -0.62467712 1.9913692 -2.5820923e+38
3.0553334 -0.63014191 1.9913692 -2.5821442e+38
3.0553205 -0.63560665 1.9913692 -2.6086769e+38
3.0553074 -0.64107138 1.9913692 -2.6220211e+38
3.0552945 -0.64653611 1.9913692 -2.6219174e+38
3.0552816 -0.6520009 1.9913692 -2.6219174e+38
3.0552688 -0.65746564 1.9913692 -2.6218657e+38
3.0792441 -0.66790152 1.997655 -2.6085738e+38
3.0552428 -0.6683951 1.9913692 -2.595282e+38
3.0552299 -0.67385989 1.9913692 -2.5819897e+38
3.0552168 -0.67932463 1.9913692 -2.581938e+38
3.0552039 -0.68478936 1.9913692 -2.5686455e+38
3.055191 -0.69025409 1.9913692 -2.5685936e+38
3.0551782 -0.69571888 1.9913692 -2.5685934e+38
3.0551651 -0.70118362 1.9913692 -2.5684895e+38
3.0551522 -0.70664835 1.9913692 -2.5685412e+38
3.0551393 -0.71211308 1.9913692 -2.5552487e+38
3.0551262 -0.71757787 1.9913692 -2.5420082e+38
3.0551133 -0.72304261 1.9913692 -2.5552483e+38
3.0550876 -0.73397207 1.9913692 -2.56854e+38
3.0550745 -0.73943686 1.9913692 -2.5686437e+38
3.0550616 -0.7449016 1.9913692 -2.5553514e+38
3.0550487 -0.75036633 1.9913692 -2.5420591e+38
3.0550356 -0.75583106 1.9913692 -2.5686439e+38
3.0550227 -0.76129586 1.9913692 -2.5819359e+38
3.0550098 -0.76676059 1.9913692 -2.595228e+38
3.054997 -0.77222532 1.9913692 -2.6084684e+38
3.0549839 -0.77769005 1.9913692 -2.5951242e+38
3.054971 -0.78315485 1.9913692 -2.5685398e+38
3.0549581 -0.78861952 1.9913692 -2.56854e+38
3.054945 -0.79408431 1.9913692 -2.5552477e+38
3.0549321 -0.79954904 1.9913692 -2.55504e+38
3.0549192 -0.80501384 1.9913692 -2.5551441e+38
3.0549064 -0.81047851 1.9913692 -2.5551443e+38
3.0548933 -0.8159433 1.9913692 -2.5419557e+38
3.0548804 -0.82140803 1.9913692 -2.5685921e+38
3.0548675 -0.82687283 1.9913692 -2.5818844e+38
3.0548544 -0.8323375 1.9913692 -2.5552999e+38
3.0548415 -0.83780229 1.9913692 -2.5288189e+38
3.0548286 -0.84326702 1.9913692 -2.5289226e+38
3.0548158 -0.84873182 1.9913692 -2.5155786e+38
3.0548027 -0.85419649 1.9913692 -2.5155269e+38
3.0787742 -0.86627811 1.997655 -2.5155782e+38
3.0787611 -0.87178862 1.997655 -2.5022336e+38
3.078748 -0.87729901 1.997655 -2.4754932e+38
3.1027191 -0.8895635 2.0039406 -2.4620973e+38
3.1276891 -0.90220267 2.0104883 -2.4354091e+38
3.1276758 -0.90780646 2.0104883 -2.4354093e+38
3.1276627 -0.91341025 2.0104883 -2.4353576e+38
3.1276493 -0.91901404 2.0104883 -2.4751308e+38
3.127636 -0.92461783 2.0104883 -2.5153717e+38
3.1526058 -0.93754268 2.017036 -2.5554047e+38
3.1525924 -0.94319409 2.017036 -2.5952288e+38
3.1525788 -0.94884551 2.017036 -2.4752862e+38
3.1525655 -0.95449692 2.017036 -2.343876e+38
3.1525521 -0.96014833 2.017036 -3.1579833e+38
3.1525388 -0.96579975 2.017036 nan
3.1785066 -0.97936231 2.0238454 nan
3.178493 -0.9850632 2.0238454 nan
3.2596831 -0.48275885 2.0389445 nan
3.2596693 -0.48861215 2.0389445 nan
3.2596555 -0.49446547 2.0389445 -2.5024932e+38
3.2326503 -0.49652624 2.0319245 -2.5425755e+38
3.2326367 -0.50232816 2.0319245 -2.5957982e+38
3.205632 -0.50423467 2.0249045 -2.6221247e+38
3.2056184 -0.50998509 2.0249045 -2.6351055e+38
3.2056048 -0.51573563 2.0249045 -2.5951765e+38
3.2055912 -0.52148604 2.0249045 -2.5552477e+38
3.1795866 -0.5232873 2.0181446 -2.5418514e+38
3.1795733 -0.52898824 2.0181446 -2.541696e+38
3.1535695 -0.53064096 2.0113845 -2.5284559e+38
3.1535561 -0.53629243 2.0113845 -2.5285074e+38
3.1535425 -0.54194379 2.0113845 -2.5418512e+38
3.1535292 -0.54759526 2.0113845 -2.5684879e+38
3.1535158 -0.55324662 2.0113845 -2.5818323e+38
3.1285119 -0.55476737 2.0048845 -2.5952807e+38
3.1284988 -0.56037116 2.0048845 -2.6087811e+38
3.1284854 -0.56597501 2.0048845 -2.6355213e+38
3.1284721 -0.5715788 2.0048845 -2.675294e+38
3.128459 -0.57718253 2.0048845 -2.7151192e+38
3.103456 -0.57841766 1.9983845 -2.6884829e+38
3.1284323 -0.58839017 2.0048845 -2.6618464e+38
3.1034298 -0.58953005 1.9983845 -2.6352618e+38
3.1034164 -0.59508622 1.9983845 -2.6086254e+38
3.1034033 -0.60064238 1.9983845 -2.5821446e+38
3.1033902 -0.60619855 1.9983845 -2.5689043e+38
3.0793877 -0.60728645 1.9921446 -2.5689043e+38
3.0793746 -0.6127969 1.9921446 -2.5688524e+38
3.0553722 -0.61374766 1.9859045 -2.5688522e+38
3.0553594 -0.61921239 1.9859045 -2.5688522e+38
3.0553463 -0.62467712 1.9859045 -2.5688002e+38
3.0553334 -0.63014191 1.9859045 -2.5688522e+38
3.0553205 -0.63560665 1.9859045 -2.5821442e+38
3.0553074 -0.64107138 1.9859045 -2.5954365e+38
3.0792832 -0.65137017 1.9921446 -2.5953846e+38
3.0792701 -0.65688062 1.9921446 -2.6086252e+38
3.079257 -0.66239101 1.9921446 -2.5953331e+38
3.0792441 -0.66790152 1.9921446 -2.5820412e+38
3.0552428 -0.6683951 1.9859045 -2.5686974e+38
3.0552299 -0.67385989 1.9859045 -2.5554051e+38
3.0552168 -0.67932463 1.9859045 -2.5553011e+38
3.0552039 -0.68478936 1.9859045 -2.5420086e+38
3.055191 -0.69025409 1.9859045 -2.5419563e+38
3.0551782 -0.69571888 1.9859045 -2.5419043e+38
3.0551651 -0.70118362 1.9859045 -2.5418524e+38
3.0551522 -0.70664835 1.9859045 -2.5418522e+38
3.0551393 -0.71211308 1.9859045 -2.541852e+38
3.0551262 -0.71757787 1.9859045 -2.5286115e+38
3.0551133 -0.72304261 1.9859045 -2.5286632e+38
3.0550876 -0.73397207 1.9859045 -2.5287149e+38
3.0550745 -0.73943686 1.9859045 -2.528767e+38
3.0550616 -0.7449016 1.9859045 -2.528767e+38
3.0550487 -0.75036633 1.9859045 -2.528767e+38
3.0550356 -0.75583106 1.9859045 -2.5420591e+38
3.0550227 -0.76129586 1.9859045 -2.5552993e+38
3.0550098 -0.76676059 1.9859045 -2.5818317e+38
3.054997 -0.77222532 1.9859045 -2.5950722e+38
3.0549839 -0.77769005 1.9859045 -2.58178e+38
3.054971 -0.78315485 1.9859045 -2.5684879e+38
3.0549581 -0.78861952 1.9859045 -2.5551956e+38
3.054945 -0.79408431 1.9859045 -2.5551956e+38
3.0549321 -0.79954904 1.9859045 -2.5551956e+38
3.0549192 -0.80501384 1.9859045 -2.5551958e+38
3.0549064 -0.81047851 1.9859045 -2.5552479e+38
3.0548933 -0.8159433 1.9859045 -2.5552999e+38
3.0548804 -0.82140803 1.9859045 -2.5685402e+38
3.0548675 -0.82687283 1.9859045 -2.5686441e+38
3.0548544 -0.8323375 1.9859045 -2.5420593e+38
3.0548415 -0.83780229 1.9859045 -2.5156305e+38
3.0548286 -0.84326702 1.9859045 -2.5155784e+38
3.0548158 -0.84873182 1.9859045 -2.5156305e+38
3.0548027 -0.85419649 1.9859045 -2.5155786e+38
