# .PCD v0.7 - Point Cloud Data file format
VERSION 0.7
FIELDS x y z rgb
SIZE 4 4 4 4
TYPE F F F F
COUNT 1 1 1 1
WIDTH 1037
HEIGHT 1
VIEWPOINT 0 0 0 1 0 0 0
POINTS 1037
DATA ascii
2.0413465 -0.76334637 1.0334873 -2.2228929e+38
2.0413289 -0.76687586 1.0334873 -2.2760624e+38
2.0413115 -0.77040529 1.0334873 -2.3157843e+38
2.0412939 -0.77393478 1.0334873 -2.3157332e+38
2.0512576 -0.78127575 1.0323731 -2.3023892e+38
2.05124 -0.78482425 1.0323731 -2.3689025e+38
2.0512223 -0.78837276 1.0323731 -2.4220706e+38
2.0512049 -0.79192132 1.0323731 -2.1293281e+38
2.0511873 -0.79546982 1.0323731 -1.8236138e+38
2.0511696 -0.79901838 1.0323731 -2.6361646e+38
2.051152 -0.80256695 1.0323731 nan
2.0411539 -0.80217069 1.0334873 nan
2.0411363 -0.80570012 1.0334873 nan
2.0411189 -0.80922961 1.0334873 nan
2.0411012 -0.81275904 1.0334873 nan
2.1367013 -0.49065056 1.0193045 -3.1296861e+38
2.1256948 -0.49196833 1.0205511 -1.8504044e+38
2.1146882 -0.49324417 1.0217978 -2.1834866e+38
2.0936928 -0.49226665 1.0241778 -2.5297104e+38
2.0836856 -0.49366269 1.0253111 -2.5164712e+38
2.0836678 -0.49727026 1.0253111 -2.5031795e+38
2.0726621 -0.4983823 1.0265578 -2.5164724e+38
2.0726445 -0.50196898 1.0265578 -2.5298164e+38
2.062638 -0.50324881 1.0276911 -2.5431604e+38
2.0626202 -0.50681639 1.0276911 -2.5696931e+38
2.0626025 -0.51038396 1.0276911 -2.5963813e+38
2.0625849 -0.51395154 1.0276911 -2.6096729e+38
2.0525787 -0.51513618 1.0288244 -2.5831397e+38
2.052561 -0.51868474 1.0288244 -2.5565545e+38
2.0525434 -0.52223325 1.0288244 -2.5432616e+38
2.0525258 -0.52578175 1.0288244 -2.5299168e+38
2.0525084 -0.52933031 1.0288244 -2.5165199e+38
2.0425029 -0.53040063 1.0299578 -2.5031749e+38
2.0424852 -0.53393012 1.0299578 -2.4631932e+38
2.0424678 -0.53745961 1.0299578 -2.4363484e+38
2.0424502 -0.54098904 1.0299578 -2.3963669e+38
2.0324452 -0.54196423 1.0310911 -2.3696779e+38
2.0324278 -0.54547465 1.0310911 -2.3294889e+38
2.0423977 -0.55157751 1.0299578 -2.3026445e+38
2.0423801 -0.555107 1.0299578 -2.2759557e+38
2.0423627 -0.55863649 1.0299578 -2.2626634e+38
2.042345 -0.56216598 1.0299578 -2.2625594e+38
2.0423276 -0.56569541 1.0299578 -2.2625079e+38
2.04231 -0.56922495 1.0299578 -2.26256e+38
2.0422926 -0.57275438 1.0299578 -2.2626125e+38
2.0522616 -0.57900965 1.0288244 -2.3290224e+38
2.0522439 -0.58255816 1.0288244 -2.395683e+38
2.0522265 -0.58610666 1.0288244 -2.0611865e+38
2.0621953 -0.59243816 1.0276911 -1.7281217e+38
2.0521913 -0.59320378 1.0288244 -2.9715941e+38
2.0521736 -0.59675229 1.0288244 nan
2.052156 -0.60030079 1.0288244 nan
2.0521383 -0.60384935 1.0288244 nan
2.0826292 -0.70650959 1.0253111 -2.6356273e+38
2.0826113 -0.71011716 1.0253111 -2.5827203e+38
2.0716119 -0.70999306 1.0265578 -2.5296035e+38
2.071594 -0.71357965 1.0265578 -2.5297075e+38
2.0715761 -0.7171663 1.0265578 -2.5167272e+38
2.0715585 -0.72075289 1.0265578 -2.5299158e+38
2.0615578 -0.72087085 1.0276911 -2.5300199e+38
2.0615401 -0.72443849 1.0276911 -2.5565008e+38
2.0615222 -0.72800606 1.0276911 -2.5697933e+38
2.0615046 -0.73157358 1.0276911 -2.5563454e+38
2.0515041 -0.73159635 1.0288244 -2.5563971e+38
2.0514867 -0.73514485 1.0288244 -2.5295008e+38
2.0514691 -0.73869342 1.0288244 -2.5160003e+38
2.0514514 -0.74224192 1.0288244 -2.4892591e+38
2.0414517 -0.7421695 1.0299578 -2.4626226e+38
2.041434 -0.74569893 1.0299578 -2.4092977e+38
2.0414166 -0.74922848 1.0299578 -2.3561282e+38
2.041399 -0.75275791 1.0299578 -2.3294392e+38
2.0413816 -0.7562874 1.0299578 -2.3028544e+38
2.041364 -0.75981688 1.0299578 -2.2761656e+38
2.0413465 -0.76334637 1.0299578 -2.2628214e+38
2.0413289 -0.76687586 1.0299578 -2.2760099e+38
2.0512929 -0.77417862 1.0288244 -2.3025433e+38
2.0412939 -0.77393478 1.0299578 -2.3024401e+38
2.0512576 -0.78127575 1.0288244 -2.3155762e+38
2.05124 -0.78482425 1.0288244 -2.3819331e+38
2.0512223 -0.78837276 1.0288244 -2.4480806e+38
2.0512049 -0.79192132 1.0288244 -2.1422516e+38
2.0511873 -0.79546982 1.0288244 -1.8350344e+38
2.0511696 -0.79901838 1.0288244 -2.8499317e+38
2.0611327 -0.80649269 1.0276911 nan
2.0511343 -0.80611545 1.0288244 nan
2.0411363 -0.80570012 1.0299578 nan
2.0411189 -0.80922961 1.0299578 nan
2.1257131 -0.48828074 1.0168636 -3.1417288e+38
2.1256948 -0.49196833 1.0168636 -1.8509745e+38
2.1146882 -0.49324417 1.0181311 -2.1834361e+38
2.1046808 -0.49469933 1.0192835 -2.5162108e+38
2.0936747 -0.49589327 1.0205511 -2.5163152e+38
2.0836678 -0.49727026 1.0217035 -2.5163674e+38
2.0726621 -0.4983823 1.0229712 -2.5163678e+38
2.0726445 -0.50196898 1.0229712 -2.5031793e+38
2.062638 -0.50324881 1.0241235 -2.5164197e+38
2.0626202 -0.50681639 1.0241235 -2.5298158e+38
2.0626025 -0.51038396 1.0241235 -2.5564004e+38
2.0625849 -0.51395154 1.0241235 -2.569744e+38
2.0625672 -0.51751912 1.0241235 -2.5564513e+38
2.052561 -0.51868474 1.0252759 -2.529918e+38
2.0525434 -0.52223325 1.0252759 -2.5431059e+38
2.0525258 -0.52578175 1.0252759 -2.5431049e+38
2.0525084 -0.52933031 1.0252759 -2.5297596e+38
2.0524907 -0.53287882 1.0252759 -2.5031743e+38
2.0524731 -0.53642732 1.0252759 -2.4632447e+38
2.0424678 -0.53745961 1.0264282 -2.4230557e+38
2.0424502 -0.54098904 1.0264282 -2.36973e+38
2.0424328 -0.54451853 1.0264282 -2.3162487e+38
2.0424151 -0.54804802 1.0264282 -2.289404e+38
2.0423977 -0.55157751 1.0264282 -2.2493192e+38
2.0423801 -0.555107 1.0264282 -2.2226306e+38
2.0423627 -0.55863649 1.0264282 -2.196098e+38
2.0523322 -0.56481558 1.0252759 -2.2226304e+38
2.0523145 -0.56836408 1.0252759 -2.2492671e+38
2.0522969 -0.57191259 1.0252759 -2.2625596e+38
2.0522792 -0.57546115 1.0252759 -2.2758521e+38
2.0522616 -0.57900965 1.0252759 -2.3289177e+38
2.0622306 -0.58530307 1.0241235 -2.3815593e+38
2.0622129 -0.58887064 1.0241235 -2.0604076e+38
2.0621953 -0.59243816 1.0241235 -1.7301978e+38
2.0521913 -0.59320378 1.0252759 -2.8530525e+38
2.0521736 -0.59675229 1.0252759 nan
2.04217 -0.59746081 1.0264282 nan
2.0421524 -0.60099024 1.0264282 nan
2.0926306 -0.70623738 1.0205511 -2.1962562e+38
2.0926127 -0.70986396 1.0205511 -2.6487657e+38
2.0826113 -0.71011716 1.0217035 -2.595805e+38
2.0716119 -0.70999306 1.0229712 -2.5293436e+38
2.071594 -0.71357965 1.0229712 -2.5029149e+38
2.0715761 -0.7171663 1.0229712 -2.4764343e+38
2.0715585 -0.72075289 1.0229712 -2.4765384e+38
2.0715406 -0.72433954 1.0229712 -2.46335e+38
2.0615401 -0.72443849 1.0241235 -2.5032787e+38
2.0615222 -0.72800606 1.0241235 -2.5297077e+38
2.0615046 -0.73157358 1.0241235 -2.5562406e+38
2.061487 -0.73514116 1.0241235 -2.582617e+38
2.0614691 -0.73870879 1.0241235 -2.5425321e+38
2.0514691 -0.73869342 1.0252759 -2.4892072e+38
2.0514514 -0.74224192 1.0252759 -2.4624669e+38
2.0414517 -0.7421695 1.0264282 -2.4225377e+38
2.041434 -0.74569893 1.0264282 -2.3825049e+38
2.0513985 -0.75288755 1.0252759 -2.3292834e+38
2.0513809 -0.75643605 1.0252759 -2.3158871e+38
2.0413816 -0.7562874 1.0264282 -2.3026463e+38
2.041364 -0.75981688 1.0264282 -2.3026461e+38
2.0413465 -0.76334637 1.0264282 -2.28925e+38
2.0513105 -0.77063012 1.0252759 -2.2890945e+38
2.0512929 -0.77417862 1.0252759 -2.2891987e+38
2.0512753 -0.77772725 1.0252759 -2.3024914e+38
2.061239 -0.78508723 1.0241235 -2.3156792e+38
2.0612214 -0.7886548 1.0241235 -2.395069e+38
2.0612035 -0.79222244 1.0241235 -2.4619466e+38
2.0611858 -0.79578996 1.0241235 -2.1566406e+38
2.0611682 -0.79935753 1.0241235 -1.8376348e+38
2.0611503 -0.80292511 1.0241235 -3.0504087e+38
2.0611327 -0.80649269 1.0241235 nan
2.0411539 -0.80217069 1.0264282 nan
2.0411363 -0.80570012 1.0264282 nan
2.0311384 -0.80524665 1.0275806 nan
2.1257315 -0.48459318 1.013176 nan
2.1257131 -0.48828074 1.013176 -3.1421927e+38
2.1256948 -0.49196833 1.013176 -1.8365908e+38
2.1146882 -0.49324417 1.0144645 -2.1700933e+38
2.1046808 -0.49469933 1.0156358 -2.4898345e+38
2.0936747 -0.49589327 1.0169245 -2.476438e+38
2.0836678 -0.49727026 1.0180959 -2.4764901e+38
2.0726621 -0.4983823 1.0193845 -2.4632498e+38
2.0726445 -0.50196898 1.0193845 -2.4633538e+38
2.062638 -0.50324881 1.0205559 -2.4766461e+38
2.0626202 -0.50681639 1.0205559 -2.4899386e+38
2.0626025 -0.51038396 1.0205559 -2.5032309e+38
2.0625849 -0.51395154 1.0205559 -2.5166268e+38
2.0625672 -0.51751912 1.0205559 -2.5033341e+38
2.0625494 -0.52108669 1.0205559 -2.5033854e+38
2.0625317 -0.52465427 1.0205559 -2.4899887e+38
2.0625141 -0.52822185 1.0205559 -2.4899355e+38
2.0525084 -0.52933031 1.0217273 -2.4766418e+38
2.0524907 -0.53287882 1.0217273 -2.4766931e+38
2.0524731 -0.53642732 1.0217273 -2.436504e+38
2.0424678 -0.53745961 1.0228988 -2.396315e+38
2.0424502 -0.54098904 1.0228988 -2.3561777e+38
2.0424328 -0.54451853 1.0228988 -2.3159887e+38
2.0424151 -0.54804802 1.0228988 -2.2892476e+38
2.0423977 -0.55157751 1.0228988 -2.2490073e+38
2.0523674 -0.55771852 1.0217273 -2.2359227e+38
2.0523498 -0.56126708 1.0217273 -2.2093381e+38
2.0523322 -0.56481558 1.0217273 -2.2359225e+38
2.0523145 -0.56836408 1.0217273 -2.2625592e+38
2.0522969 -0.57191259 1.0217273 -2.2758515e+38
2.0522792 -0.57546115 1.0217273 -2.2890918e+38
2.0622485 -0.58173543 1.0205559 -2.2360265e+38
2.0622306 -0.58530307 1.0205559 -2.1961939e+38
2.0622129 -0.58887064 1.0205559 -1.9547444e+38
2.0621953 -0.59243816 1.0205559 -1.7281203e+38
2.0521913 -0.59320378 1.0217273 -3.0648447e+38
2.0521736 -0.59675229 1.0217273 nan
2.052156 -0.60030079 1.0217273 nan
2.0926306 -0.70623738 1.0169245 -2.1956885e+38
2.0926127 -0.70986396 1.0169245 -2.6622155e+38
2.0826113 -0.71011716 1.0180959 -2.5823053e+38
2.0825934 -0.71372473 1.0180959 -2.5156879e+38
2.071594 -0.71357965 1.0193845 -2.4893106e+38
2.0715761 -0.7171663 1.0193845 -2.462778e+38
2.0715585 -0.72075289 1.0193845 -2.4628818e+38
2.0615578 -0.72087085 1.0205559 -2.4630893e+38
2.0615401 -0.72443849 1.0205559 -2.4762256e+38
2.0615222 -0.72800606 1.0205559 -2.48957e+38
2.0615046 -0.73157358 1.0205559 -2.5159471e+38
2.061487 -0.73514116 1.0205559 -2.5290832e+38
2.0614691 -0.73870879 1.0205559 -2.4891539e+38
2.0614514 -0.74227631 1.0205559 -2.4358815e+38
2.0514514 -0.74224192 1.0217273 -2.3959014e+38
2.0514338 -0.74579042 1.0217273 -2.3692124e+38
2.0514162 -0.74933898 1.0217273 -2.3425234e+38
2.0513985 -0.75288755 1.0217273 -2.315835e+38
2.0513809 -0.75643605 1.0217273 -2.3024908e+38
2.0513632 -0.75998455 1.0217273 -2.3023865e+38
2.0513458 -0.76353312 1.0217273 -2.2891977e+38
2.0513282 -0.76708162 1.0217273 -2.2890942e+38
2.0612922 -0.7743845 1.0205559 -2.2891983e+38
2.0612743 -0.77795213 1.0205559 -2.2892504e+38
2.0612566 -0.78151965 1.0205559 -2.3159908e+38
2.061239 -0.78508723 1.0205559 -2.3293343e+38
2.0612214 -0.7886548 1.0205559 -2.4090355e+38
2.0612035 -0.79222244 1.0205559 -2.4758648e+38
2.0611858 -0.79578996 1.0205559 -2.1563351e+38
2.0611682 -0.79935753 1.0205559 -1.8370162e+38
2.0611503 -0.80292511 1.0205559 -2.9311441e+38
2.0611327 -0.80649269 1.0205559 nan
2.0411539 -0.80217069 1.0228988 nan
2.0311558 -0.80173624 1.0240701 nan
2.0311384 -0.80524665 1.0240701 nan
2.1147428 -0.48224431 1.0107977 nan
2.1147246 -0.48591092 1.0107977 -3.1397533e+38
2.1147065 -0.48957756 1.0107977 -1.8237657e+38
2.1046989 -0.49105173 1.0119883 -2.1438189e+38
2.1046808 -0.49469933 1.0119883 -2.4629376e+38
2.0936747 -0.49589327 1.0132978 -2.4496455e+38
2.0836678 -0.49727026 1.0144882 -2.4232168e+38
2.0726621 -0.4983823 1.0157979 -2.4234244e+38
2.0726445 -0.50196898 1.0157979 -2.4234764e+38
2.062638 -0.50324881 1.0169883 -2.4367686e+38
2.0626202 -0.50681639 1.0169883 -2.4500611e+38
2.0626025 -0.51038396 1.0169883 -2.4500096e+38
2.0625849 -0.51395154 1.0169883 -2.4501652e+38
2.0625672 -0.51751912 1.0169883 -2.4635092e+38
2.0625494 -0.52108669 1.0169883 -2.4634564e+38
2.0625317 -0.52465427 1.0169883 -2.4501634e+38
2.0625141 -0.52822185 1.0169883 -2.436766e+38
2.0525084 -0.52933031 1.0181787 -2.4367129e+38
2.0524907 -0.53287882 1.0181787 -2.4366082e+38
2.0524731 -0.53642732 1.0181787 -2.3963671e+38
2.0524554 -0.53997588 1.0181787 -2.3562822e+38
2.0424502 -0.54098904 1.0193692 -2.3427299e+38
2.0424328 -0.54451853 1.0193692 -2.3160406e+38
2.0524025 -0.55062145 1.0181787 -2.2893514e+38
2.0523849 -0.55417001 1.0181787 -2.2493186e+38
2.0523674 -0.55771852 1.0181787 -2.2360781e+38
2.0523498 -0.56126708 1.0181787 -2.2227339e+38
2.0523322 -0.56481558 1.0181787 -2.2492144e+38
2.0523145 -0.56836408 1.0181787 -2.2625592e+38
2.0522969 -0.57191259 1.0181787 -2.2891961e+38
2.0522792 -0.57546115 1.0181787 -2.3025407e+38
2.0622485 -0.58173543 1.0169883 -2.1564296e+38
2.0622306 -0.58530307 1.0169883 -1.9954108e+38
2.0622129 -0.58887064 1.0169883 -1.8609245e+38
2.0522089 -0.58965522 1.0181787 -1.730825e+38
2.0521913 -0.59320378 1.0181787 -3.2804337e+38
2.0521736 -0.59675229 1.0181787 nan
2.052156 -0.60030079 1.0181787 nan
2.1036127 -0.70990622 1.0119883 -2.2094456e+38
2.0926127 -0.70986396 1.0132978 -2.6750908e+38
2.0925946 -0.71349061 1.0132978 -2.5820449e+38
2.0825934 -0.71372473 1.0144882 -2.4890506e+38
2.071594 -0.71357965 1.0157979 -2.4758103e+38
2.0715761 -0.7171663 1.0157979 -2.4492257e+38
2.0715585 -0.72075289 1.0157979 -2.4491736e+38
2.0615578 -0.72087085 1.0169883 -2.4491734e+38
2.0615401 -0.72443849 1.0169883 -2.4489136e+38
2.0615222 -0.72800606 1.0169883 -2.449121e+38
2.0615046 -0.73157358 1.0169883 -2.4622573e+38
2.061487 -0.73514116 1.0169883 -2.4757052e+38
2.0614691 -0.73870879 1.0169883 -2.4358282e+38
2.0614514 -0.74227631 1.0169883 -2.3825556e+38
2.0514514 -0.74224192 1.0181787 -2.3426272e+38
2.0514338 -0.74579042 1.0181787 -2.3026463e+38
2.0514162 -0.74933898 1.0181787 -2.3024906e+38
2.0513985 -0.75288755 1.0181787 -2.2891462e+38
2.0513809 -0.75643605 1.0181787 -2.2890423e+38
2.0513632 -0.75998455 1.0181787 -2.289146e+38
2.0513458 -0.76353312 1.0181787 -2.2891458e+38
2.0513282 -0.76708162 1.0181787 -2.2759577e+38
2.0612922 -0.7743845 1.0169883 -2.289406e+38
2.0612743 -0.77795213 1.0169883 -2.2895098e+38
2.0612566 -0.78151965 1.0169883 -2.3163542e+38
2.061239 -0.78508723 1.0169883 -2.3427822e+38
2.0612214 -0.7886548 1.0169883 -2.4225353e+38
2.0612035 -0.79222244 1.0169883 -2.4887411e+38
2.0611858 -0.79578996 1.0169883 -2.1690554e+38
2.0611682 -0.79935753 1.0169883 -1.8376384e+38
2.0611503 -0.80292511 1.0169883 -2.8114091e+38
2.0611327 -0.80649269 1.0169883 nan
2.0511343 -0.80611545 1.0181787 nan
2.0411363 -0.80570012 1.0193692 nan
2.0311384 -0.80524665 1.0205597 nan
2.1147428 -0.48224431 1.0071311 nan
2.1147246 -0.48591092 1.0071311 -3.0085967e+38
2.1147065 -0.48957756 1.0071311 -1.8363828e+38
2.1046989 -0.49105173 1.0083406 -2.1433501e+38
2.1046808 -0.49469933 1.0083406 -2.462781e+38
2.0936747 -0.49589327 1.0096711 -2.4363009e+38
2.0836678 -0.49727026 1.0108807 -2.4098202e+38
2.0726621 -0.4983823 1.0122111 -2.3966316e+38
2.0726445 -0.50196898 1.0122111 -2.3836508e+38
2.0726266 -0.50555557 1.0122111 -2.3968393e+38
2.0726087 -0.50914222 1.0122111 -2.42358e+38
2.0626025 -0.51038396 1.0134207 -2.4368727e+38
2.0625849 -0.51395154 1.0134207 -2.4502688e+38
2.0625672 -0.51751912 1.0134207 -2.4501648e+38
2.0625494 -0.52108669 1.0134207 -2.4500599e+38
2.0625317 -0.52465427 1.0134207 -2.4367147e+38
2.0525258 -0.52578175 1.0146302 -2.4366098e+38
2.0525084 -0.52933031 1.0146302 -2.4233163e+38
2.0425029 -0.53040063 1.0158397 -2.4100232e+38
2.0424852 -0.53393012 1.0158397 -2.3830225e+38
2.0424678 -0.53745961 1.0158397 -2.3561781e+38
2.0424502 -0.54098904 1.0158397 -2.3294376e+38
2.0424328 -0.54451853 1.0158397 -2.2894042e+38
2.0524025 -0.55062145 1.0146302 -2.2628186e+38
2.0523849 -0.55417001 1.0146302 -2.2361819e+38
2.0523674 -0.55771852 1.0146302 -2.2361296e+38
2.0623369 -0.56389761 1.0134207 -2.2360777e+38
2.0523322 -0.56481558 1.0146302 -2.2493178e+38
2.0623014 -0.57103276 1.0134207 -2.2758515e+38
2.0522969 -0.57191259 1.0146302 -2.315781e+38
2.0622661 -0.57816792 1.0134207 -2.3557623e+38
2.0622485 -0.58173543 1.0134207 -2.1017558e+38
2.0622306 -0.58530307 1.0134207 -1.861037e+38
2.0622129 -0.58887064 1.0134207 -2.5147953e+38
2.0621953 -0.59243816 1.0134207 -3.1774038e+38
2.0621774 -0.59600574 1.0134207 nan
2.0621598 -0.59957337 1.0134207 nan
2.1036308 -0.70625865 1.0083406 -1.7280647e+38
2.0926306 -0.70623738 1.0096711 -2.1954759e+38
2.0926127 -0.70986396 1.0096711 -2.6616931e+38
2.0925946 -0.71349061 1.0096711 -2.5686996e+38
2.0825934 -0.71372473 1.0108807 -2.4888942e+38
2.071594 -0.71357965 1.0122111 -2.4623618e+38
2.0715761 -0.7171663 1.0122111 -2.435777e+38
2.0715585 -0.72075289 1.0122111 -2.4223807e+38
2.0615578 -0.72087085 1.0134207 -2.4088286e+38
2.0615401 -0.72443849 1.0134207 -2.408984e+38
2.0615222 -0.72800606 1.0134207 -2.4089836e+38
2.0615046 -0.73157358 1.0134207 -2.4223272e+38
2.061487 -0.73514116 1.0134207 -2.4223791e+38
2.0614691 -0.73870879 1.0134207 -2.3957426e+38
2.0614514 -0.74227631 1.0134207 -2.3690027e+38
2.0514514 -0.74224192 1.0146302 -2.3424702e+38
2.0514338 -0.74579042 1.0146302 -2.3157822e+38
2.0514162 -0.74933898 1.0146302 -2.3024902e+38
2.0513985 -0.75288755 1.0146302 -2.2891458e+38
2.0513809 -0.75643605 1.0146302 -2.2758533e+38
2.0513632 -0.75998455 1.0146302 -2.2626131e+38
2.0513458 -0.76353312 1.0146302 -2.2626651e+38
2.0513282 -0.76708162 1.0146302 -2.2627174e+38
2.0513105 -0.77063012 1.0146302 -2.2761656e+38
2.0512929 -0.77417862 1.0146302 -2.302906e+38
2.0612566 -0.78151965 1.0134207 -2.3295424e+38
2.061239 -0.78508723 1.0134207 -2.3560225e+38
2.0612214 -0.7886548 1.0134207 -2.4223793e+38
2.0612035 -0.79222244 1.0134207 -2.4887407e+38
2.0611858 -0.79578996 1.0134207 -2.1558662e+38
2.0611682 -0.79935753 1.0134207 -1.8357686e+38
2.0611503 -0.80292511 1.0134207 -2.9044025e+38
2.0611327 -0.80649269 1.0134207 nan
2.0511343 -0.80611545 1.0146302 nan
2.0411363 -0.80570012 1.0158397 nan
2.1147428 -0.48224431 1.0034645 nan
2.1147246 -0.48591092 1.0034645 -2.8734376e+38
2.1147065 -0.48957756 1.0034645 -1.8369004e+38
2.1046989 -0.49105173 1.004693 -2.1569028e+38
2.1046808 -0.49469933 1.004693 -2.4627293e+38
2.0936747 -0.49589327 1.0060445 -2.4229046e+38
2.0836678 -0.49727026 1.0072731 -2.3829756e+38
2.0726621 -0.4983823 1.0086244 -2.3696832e+38
2.0726445 -0.50196898 1.0086244 -2.3432542e+38
2.0726266 -0.50555557 1.0086244 -2.3699424e+38
2.0726087 -0.50914222 1.0086244 -2.3834943e+38
2.0626025 -0.51038396 1.009853 -2.423579e+38
2.0725732 -0.51631546 1.0086244 -2.4501116e+38
2.0625672 -0.51751912 1.009853 -2.4501636e+38
2.0625494 -0.52108669 1.009853 -2.4366626e+38
2.0625317 -0.52465427 1.009853 -2.4366098e+38
2.0625141 -0.52822185 1.009853 -2.4232127e+38
2.0525084 -0.52933031 1.0110816 -2.4098675e+38
2.0524907 -0.53287882 1.0110816 -2.3830748e+38
2.0424852 -0.53393012 1.0123101 -2.3695223e+38
2.0424678 -0.53745961 1.0123101 -2.356126e+38
2.0424502 -0.54098904 1.0123101 -2.3161451e+38
2.0424328 -0.54451853 1.0123101 -2.2629234e+38
2.0524025 -0.55062145 1.0110816 -2.2495784e+38
2.0523849 -0.55417001 1.0110816 -2.2229417e+38
2.0523674 -0.55771852 1.0110816 -2.2361302e+38
2.0523498 -0.56126708 1.0110816 -2.2360783e+38
2.0523322 -0.56481558 1.0110816 -2.2626111e+38
2.0523145 -0.56836408 1.0110816 -2.2891965e+38
2.0522969 -0.57191259 1.0110816 -2.3556587e+38
2.0622661 -0.57816792 1.009853 -2.4081506e+38
2.0622485 -0.58173543 1.009853 -2.0603685e+38
2.0622306 -0.58530307 1.009853 -1.7171652e+38
2.0622129 -0.58887064 1.009853 -3.1863333e+38
2.0621953 -0.59243816 1.009853 nan
2.0621774 -0.59600574 1.009853 nan
2.0621598 -0.59957337 1.009853 nan
2.0621421 -0.60314089 1.009853 nan
2.1036308 -0.70625865 1.004693 -1.7288436e+38
2.0926306 -0.70623738 1.0060445 -2.1960459e+38
2.0926127 -0.70986396 1.0060445 -2.6483476e+38
2.0826113 -0.71011716 1.0072731 -2.5687503e+38
2.0825934 -0.71372473 1.0072731 -2.4756007e+38
2.0825756 -0.7173323 1.0072731 -2.4490164e+38
2.0715761 -0.7171663 1.0086244 -2.4090878e+38
2.0715585 -0.72075289 1.0086244 -2.3956917e+38
2.0615578 -0.72087085 1.009853 -2.3691589e+38
2.0615401 -0.72443849 1.009853 -2.3692106e+38
2.0615222 -0.72800606 1.009853 -2.3691585e+38
2.0615046 -0.73157358 1.009853 -2.3691065e+38
2.061487 -0.73514116 1.009853 -2.3690542e+38
2.0614691 -0.73870879 1.009853 -2.3556577e+38
2.0614514 -0.74227631 1.009853 -2.3423656e+38
2.0614338 -0.74584389 1.009853 -2.3290737e+38
2.0514338 -0.74579042 1.0110816 -2.3157818e+38
2.0514162 -0.74933898 1.0110816 -2.302438e+38
2.0513985 -0.75288755 1.0110816 -2.2758535e+38
2.0513809 -0.75643605 1.0110816 -2.2626133e+38
2.0513632 -0.75998455 1.0110816 -2.2360809e+38
2.0513458 -0.76353312 1.0110816 -2.2494251e+38
2.0513282 -0.76708162 1.0110816 -2.2495291e+38
2.0513105 -0.77063012 1.0110816 -2.276218e+38
2.0512929 -0.77417862 1.0110816 -2.3029066e+38
2.0612566 -0.78151965 1.009853 -2.3294913e+38
2.061239 -0.78508723 1.009853 -2.3560244e+38
2.0612214 -0.7886548 1.009853 -2.4222783e+38
2.0612035 -0.79222244 1.009853 -2.4755014e+38
2.0611858 -0.79578996 1.009853 -2.1565404e+38
2.0611682 -0.79935753 1.009853 -1.8378978e+38
2.0611503 -0.80292511 1.009853 -3.0110543e+38
2.0611327 -0.80649269 1.009853 nan
2.0511343 -0.80611545 1.0110816 nan
2.0411363 -0.80570012 1.0123101 nan
2.1147428 -0.48224431 0.99979782 nan
2.1147246 -0.48591092 0.99979782 -2.8613878e+38
2.1147065 -0.48957756 0.99979782 -1.8498797e+38
2.1146882 -0.49324417 0.99979782 -2.1433515e+38
2.1046808 -0.49469933 1.0010455 -2.436093e+38
2.0936747 -0.49589327 1.0024178 -2.4094042e+38
2.0836678 -0.49727026 1.0036654 -2.3826637e+38
2.0726621 -0.4983823 1.0050378 -2.3561309e+38
2.0726445 -0.50196898 1.0050378 -2.3427862e+38
2.0726266 -0.50555557 1.0050378 -2.3563895e+38
2.0726087 -0.50914222 1.0050378 -2.3699931e+38
2.0725911 -0.51272881 1.0050378 -2.3964736e+38
2.0725732 -0.51631546 1.0050378 -2.423266e+38
2.0625672 -0.51751912 1.0062854 -2.409818e+38
2.0625494 -0.52108669 1.0062854 -2.4098691e+38
2.0625317 -0.52465427 1.0062854 -2.4230567e+38
2.0525258 -0.52578175 1.0075331 -2.4362963e+38
2.0525084 -0.52933031 1.0075331 -2.4096071e+38
2.0524907 -0.53287882 1.0075331 -2.3827627e+38
2.0424852 -0.53393012 1.0087807 -2.356126e+38
2.0524554 -0.53997588 1.0075331 -2.3161451e+38
2.0424502 -0.54098904 1.0087807 -2.2762681e+38
2.0424328 -0.54451853 1.0087807 -2.2230466e+38
2.0524025 -0.55062145 1.0075331 -2.223046e+38
2.0523849 -0.55417001 1.0075331 -2.2229941e+38
2.0523674 -0.55771852 1.0075331 -2.2228902e+38
2.0523498 -0.56126708 1.0075331 -2.236131e+38
2.0523322 -0.56481558 1.0075331 -2.2626638e+38
2.0523145 -0.56836408 1.0075331 -2.2892492e+38
2.0522969 -0.57191259 1.0075331 -2.2093923e+38
2.0622661 -0.57816792 1.0062854 -2.142926e+38
2.0622485 -0.58173543 1.0062854 -1.9281678e+38
2.0622306 -0.58530307 1.0062854 -1.7148875e+38
2.0622129 -0.58887064 1.0062854 -3.1851054e+38
2.0721815 -0.5952211 1.0050378 nan
2.0721638 -0.59880775 1.0050378 nan
2.0721459 -0.6023944 1.0050378 nan
2.1036308 -0.70625865 1.0010455 -1.7280647e+38
2.0926306 -0.70623738 1.0024178 -2.1689408e+38
2.0926127 -0.70986396 1.0024178 -2.6219696e+38
2.0925946 -0.71349061 1.0024178 -2.5421126e+38
2.0825934 -0.71372473 1.0036654 -2.4754957e+38
2.0825756 -0.7173323 1.0036654 -2.4223268e+38
2.0715761 -0.7171663 1.0050378 -2.369158e+38
2.0715585 -0.72075289 1.0050378 -2.3426258e+38
2.0615578 -0.72087085 1.0062854 -2.3161451e+38
2.0615401 -0.72443849 1.0062854 -2.3159891e+38
2.0615222 -0.72800606 1.0062854 -2.3292816e+38
2.0615046 -0.73157358 1.0062854 -2.3424702e+38
2.061487 -0.73514116 1.0062854 -2.3556579e+38
2.0614691 -0.73870879 1.0062854 -2.3423648e+38
2.0614514 -0.74227631 1.0062854 -2.3423652e+38
2.0514514 -0.74224192 1.0075331 -2.3290733e+38
2.0514338 -0.74579042 1.0075331 -2.3290737e+38
2.0514162 -0.74933898 1.0075331 -2.3157299e+38
2.0513985 -0.75288755 1.0075331 -2.3024382e+38
2.0513809 -0.75643605 1.0075331 -2.2891983e+38
2.0513632 -0.75998455 1.0075331 -2.2891985e+38
2.0513458 -0.76353312 1.0075331 -2.2760101e+38
2.0513282 -0.76708162 1.0075331 -2.276166e+38
2.0513105 -0.77063012 1.0075331 -2.3028027e+38
2.0512929 -0.77417862 1.0075331 -2.3161995e+38
2.0512753 -0.77772725 1.0075331 -2.3428363e+38
2.061239 -0.78508723 1.0062854 -2.356182e+38
2.0612214 -0.7886548 1.0062854 -2.4357292e+38
2.0612035 -0.79222244 1.0062854 -2.5153273e+38
2.0611858 -0.79578996 1.0062854 -2.1696242e+38
2.0611682 -0.79935753 1.0062854 -1.8369638e+38
2.0611503 -0.80292511 1.0062854 -2.9445428e+38
2.0611327 -0.80649269 1.0062854 nan
2.0511343 -0.80611545 1.0075331 nan
2.0511167 -0.80966395 1.0075331 nan
2.1257315 -0.48459318 0.9947378 nan
2.1147246 -0.48591092 0.99613112 -2.8596248e+38
2.1147065 -0.48957756 0.99613112 -1.8503482e+38
2.1046989 -0.49105173 0.99739778 -2.1305266e+38
2.1046808 -0.49469933 0.99739778 -2.4094564e+38
2.0936747 -0.49589327 0.99879116 -2.3958519e+38
2.0836678 -0.49727026 1.0000578 -2.3693189e+38
2.0836499 -0.50087786 1.0000578 -2.3559743e+38
2.0726445 -0.50196898 1.0014511 -2.3293891e+38
2.0726266 -0.50555557 1.0014511 -2.3427848e+38
2.0726087 -0.50914222 1.0014511 -2.3427329e+38
2.0725911 -0.51272881 1.0014511 -2.3690576e+38
2.0725732 -0.51631546 1.0014511 -2.3826613e+38
2.0625672 -0.51751912 1.0027179 -2.3826093e+38
2.0625494 -0.52108669 1.0027179 -2.3695239e+38
2.0625317 -0.52465427 1.0027179 -2.4094521e+38
2.0525258 -0.52578175 1.0039845 -2.4493283e+38
2.0525084 -0.52933031 1.0039845 -2.4226912e+38
2.0524907 -0.53287882 1.0039845 -2.3827103e+38
2.0524731 -0.53642732 1.0039845 -2.3294372e+38
2.0524554 -0.53997588 1.0039845 -2.2762683e+38
2.0524378 -0.54352438 1.0039845 -2.2364433e+38
2.0524201 -0.54707295 1.0039845 -2.1831698e+38
2.0524025 -0.55062145 1.0039845 -2.1965134e+38
2.0523849 -0.55417001 1.0039845 -2.2097022e+38
2.0523674 -0.55771852 1.0039845 -2.2229428e+38
2.0623369 -0.56389761 1.0027179 -2.2361833e+38
2.0623193 -0.56746513 1.0027179 -2.262716e+38
2.0623014 -0.57103276 1.0027179 -2.2759054e+38
2.0622838 -0.57460028 1.0027179 -2.0762626e+38
2.0622661 -0.57816792 1.0027179 -1.8631148e+38
2.0622485 -0.58173543 1.0027179 -1.7945205e+38
2.0722172 -0.58804786 1.0014511 -1.7174327e+38
2.0721993 -0.59163451 1.0014511 -3.2006821e+38
2.0831664 -0.59828234 1.0000578 nan
2.0831485 -0.60188991 1.0000578 nan
2.0831306 -0.60549748 1.0000578 nan
2.1036308 -0.70625865 0.99739778 -1.7155519e+38
2.0926306 -0.70623738 0.99879116 -2.1562737e+38
2.0926127 -0.70986396 0.99879116 -2.5953341e+38
2.0925946 -0.71349061 0.99879116 -2.5288206e+38
2.0825934 -0.71372473 1.0000578 -2.4622034e+38
2.0825756 -0.7173323 1.0000578 -2.3956901e+38
2.0715761 -0.7171663 1.0014511 -2.3159366e+38
2.0715585 -0.72075289 1.0014511 -2.2894563e+38
2.0615578 -0.72087085 1.0027179 -2.2627679e+38
2.0615401 -0.72443849 1.0027179 -2.2759042e+38
2.0615222 -0.72800606 1.0027179 -2.2759563e+38
2.0615046 -0.73157358 1.0027179 -2.3024892e+38
2.061487 -0.73514116 1.0027179 -2.3290212e+38
2.0614691 -0.73870879 1.0027179 -2.3290206e+38
2.0614514 -0.74227631 1.0027179 -2.3290208e+38
2.0514514 -0.74224192 1.0039845 -2.3289691e+38
2.0514338 -0.74579042 1.0039845 -2.3290218e+38
2.0514162 -0.74933898 1.0039845 -2.3289707e+38
2.0513985 -0.75288755 1.0039845 -2.3290232e+38
2.0513809 -0.75643605 1.0039845 -2.3290238e+38
2.0513632 -0.75998455 1.0039845 -2.3291277e+38
2.0513458 -0.76353312 1.0039845 -2.3158875e+38
2.0513282 -0.76708162 1.0039845 -2.302751e+38
2.0513105 -0.77063012 1.0039845 -2.3160952e+38
2.0512929 -0.77417862 1.0039845 -2.3295435e+38
2.0512753 -0.77772725 1.0039845 -2.3428879e+38
2.061239 -0.78508723 1.0027179 -2.3561292e+38
2.0612214 -0.7886548 1.0027179 -2.4623129e+38
2.0612035 -0.79222244 1.0027179 -2.5552025e+38
2.0611858 -0.79578996 1.0027179 -2.1962065e+38
2.0611682 -0.79935753 1.0027179 -1.8243967e+38
2.0611503 -0.80292511 1.0027179 -2.8776125e+38
2.0611327 -0.80649269 1.0027179 nan
2.061115 -0.81006026 1.0027179 nan
2.1257315 -0.48459318 0.99105018 -3.2252258e+38
2.1147246 -0.48591092 0.99246448 -2.5427931e+38
2.1147065 -0.48957756 0.99246448 -1.8773494e+38
2.1046989 -0.49105173 0.99375021 -2.1303189e+38
2.0936928 -0.49226665 0.99516445 -2.3828716e+38
2.0936747 -0.49589327 0.99516445 -2.3560785e+38
2.0836678 -0.49727026 0.99645019 -2.3293895e+38
2.0726621 -0.4983823 0.99786448 -2.3160445e+38
2.0726445 -0.50196898 0.99786448 -2.2893557e+38
2.0726266 -0.50555557 0.99786448 -2.2893553e+38
2.0726087 -0.50914222 0.99786448 -2.2891476e+38
2.0725911 -0.51272881 0.99786448 -2.2892514e+38
2.0725732 -0.51631546 0.99786448 -2.289303e+38
2.0625672 -0.51751912 0.99915016 -2.315939e+38
2.0625494 -0.52108669 0.99915016 -2.3293867e+38
2.0625317 -0.52465427 0.99915016 -2.3692629e+38
2.0525258 -0.52578175 1.0004359 -2.4091393e+38
2.0525084 -0.52933031 1.0004359 -2.3825542e+38
2.0524907 -0.53287882 1.0004359 -2.3560215e+38
2.0524731 -0.53642732 1.0004359 -2.3160406e+38
2.0524554 -0.53997588 1.0004359 -2.2762161e+38
2.0524378 -0.54352438 1.0004359 -2.2362878e+38
2.0524201 -0.54707295 1.0004359 -2.1963584e+38
2.0524025 -0.55062145 1.0004359 -2.1963576e+38
2.0523849 -0.55417001 1.0004359 -2.1963582e+38
2.0523674 -0.55771852 1.0004359 -2.2228914e+38
2.0623369 -0.56389761 0.99915016 -2.2494241e+38
2.0623193 -0.56746513 0.99915016 -2.2760084e+38
2.0623014 -0.57103276 0.99915016 -2.3025423e+38
2.0622838 -0.57460028 0.99915016 -2.1563804e+38
2.0722528 -0.58087462 0.99786448 -2.023662e+38
2.0722349 -0.58446127 0.99786448 -1.8883994e+38
2.0722172 -0.58804786 0.99786448 -1.7547144e+38
2.0721993 -0.59163451 0.99786448 -3.3320989e+38
2.0721815 -0.5952211 0.99786448 nan
2.0721638 -0.59880775 0.99786448 nan
2.1036489 -0.70261103 0.99375021 -3.3663383e+38
2.1036308 -0.70625865 0.99375021 -1.7281179e+38
2.1036127 -0.70990622 0.99375021 -2.1559122e+38
2.0926127 -0.70986396 0.99516445 -2.5956466e+38
2.0925946 -0.71349061 0.99516445 -2.5287686e+38
2.0825934 -0.71372473 0.99645019 -2.4619955e+38
2.071594 -0.71357965 0.99786448 -2.3955858e+38
2.0715761 -0.7171663 0.99786448 -2.3291248e+38
2.0715585 -0.72075289 0.99786448 -2.2892482e+38
2.0615578 -0.72087085 0.99915016 -2.2625598e+38
2.0615401 -0.72443849 0.99915016 -2.2758519e+38
2.0615222 -0.72800606 0.99915016 -2.2891443e+38
2.0615046 -0.73157358 0.99915016 -2.3024368e+38
2.061487 -0.73514116 0.99915016 -2.3156768e+38
2.0614691 -0.73870879 0.99915016 -2.3024358e+38
2.0614514 -0.74227631 0.99915016 -2.3024879e+38
2.0514514 -0.74224192 1.0004359 -2.302436e+38
2.0514338 -0.74579042 1.0004359 -2.3024372e+38
2.0514162 -0.74933898 1.0004359 -2.3156786e+38
2.0513985 -0.75288755 1.0004359 -2.3157313e+38
2.0513809 -0.75643605 1.0004359 -2.3157841e+38
2.0513632 -0.75998455 1.0004359 -2.3292321e+38
2.0513458 -0.76353312 1.0004359 -2.3026476e+38
2.0513282 -0.76708162 1.0004359 -2.2894591e+38
2.0513105 -0.77063012 1.0004359 -2.3028551e+38
2.0512929 -0.77417862 1.0004359 -2.3163031e+38
2.0512753 -0.77772725 1.0004359 -2.3428355e+38
2.061239 -0.78508723 0.99915016 -2.3826613e+38
2.0612214 -0.7886548 0.99915016 -2.4489677e+38
2.0612035 -0.79222244 0.99915016 -2.5286163e+38
2.0611858 -0.79578996 0.99915016 -2.1692562e+38
2.0611682 -0.79935753 0.99915016 -1.8222658e+38
2.0611503 -0.80292511 0.99915016 -3.0107414e+38
2.0611327 -0.80649269 0.99915016 nan
2.061115 -0.81006026 0.99915016 nan
2.1257496 -0.48090559 0.98736256 nan
2.1257315 -0.48459318 0.98736256 -2.5841834e+38
2.1147246 -0.48591092 0.98879778 -2.2354613e+38
2.1147065 -0.48957756 0.98879778 -1.8905897e+38
2.1046989 -0.49105173 0.99010253 -2.1171824e+38
2.1046808 -0.49469933 0.99010253 -2.3429941e+38
2.0936747 -0.49589327 0.99153781 -2.3162528e+38
2.0836678 -0.49727026 0.99284256 -2.2895636e+38
2.0836499 -0.50087786 0.99284256 -2.2762188e+38
2.083632 -0.50448543 0.99284256 -2.2494782e+38
2.0836141 -0.508093 0.99284256 -2.2493742e+38
2.0726087 -0.50914222 0.99427783 -2.2360298e+38
2.0725911 -0.51272881 0.99427783 -2.2226854e+38
2.0725732 -0.51631546 0.99427783 -2.1961525e+38
2.0725553 -0.51990205 0.99427783 -2.2492176e+38
2.0625494 -0.52108669 0.99558258 -2.2892496e+38
2.0625317 -0.52465427 0.99558258 -2.3290222e+38
2.0625141 -0.52822185 0.99558258 -2.3690023e+38
2.0624962 -0.53178942 0.99558258 -2.3556057e+38
2.0624785 -0.535357 0.99558258 -2.3290731e+38
2.0624609 -0.53892457 0.99558258 -2.3023847e+38
2.0624433 -0.54249215 0.99558258 -2.2759561e+38
2.0524378 -0.54352438 0.99688733 -2.2361316e+38
2.0524201 -0.54707295 0.99688733 -2.1962544e+38
2.0524025 -0.55062145 0.99688733 -2.196254e+38
2.0523849 -0.55417001 0.99688733 -2.183014e+38
2.0523674 -0.55771852 0.99688733 -2.2228912e+38
2.0623369 -0.56389761 0.99558258 -2.2494756e+38
2.0623193 -0.56746513 0.99558258 -2.2893005e+38
2.0623014 -0.57103276 0.99558258 -2.3160417e+38
2.0622838 -0.57460028 0.99558258 -2.2496847e+38
2.0722528 -0.58087462 0.99427783 -2.1691498e+38
2.0722349 -0.58446127 0.99427783 -1.9806667e+38
2.0722172 -0.58804786 0.99427783 -1.7984869e+38
2.0721993 -0.59163451 0.99427783 nan
2.0721815 -0.5952211 0.99427783 nan
2.0721638 -0.59880775 0.99427783 nan
2.1036308 -0.70625865 0.99010253 -1.7289975e+38
2.1036127 -0.70990622 0.99010253 -2.1700836e+38
2.1035945 -0.71355379 0.99010253 -2.5952812e+38
2.0826113 -0.71011716 0.99284256 -2.5285603e+38
2.0825934 -0.71372473 0.99284256 -2.4487028e+38
2.071594 -0.71357965 0.99427783 -2.3954299e+38
2.0715761 -0.7171663 0.99427783 -2.3290204e+38
2.0715585 -0.72075289 0.99427783 -2.3024879e+38
2.0615578 -0.72087085 0.99558258 -2.2625594e+38
2.0615401 -0.72443849 0.99558258 -2.2758519e+38
2.0615222 -0.72800606 0.99558258 -2.2891443e+38
2.0615046 -0.73157358 0.99558258 -2.2890924e+38
2.061487 -0.73514116 0.99558258 -2.2890922e+38
2.0614691 -0.73870879 0.99558258 -2.289092e+38
2.0614514 -0.74227631 0.99558258 -2.2759036e+38
2.0614338 -0.74584389 0.99558258 -2.2759036e+38
2.0514338 -0.74579042 0.99688733 -2.2758523e+38
2.0613983 -0.7529791 0.99558258 -2.2889894e+38
2.0613806 -0.75654662 0.99558258 -2.302438e+38
2.0513809 -0.75643605 0.99688733 -2.3157311e+38
2.0513632 -0.75998455 0.99688733 -2.3158348e+38
2.0513458 -0.76353312 0.99688733 -2.3024906e+38
2.0513282 -0.76708162 0.99688733 -2.2761139e+38
2.0513105 -0.77063012 0.99688733 -2.2896143e+38
2.0512929 -0.77417862 0.99688733 -2.3029072e+38
2.0512753 -0.77772725 0.99688733 -2.3560769e+38
2.0512576 -0.78127575 0.99688733 -2.3959026e+38
2.05124 -0.78482425 0.99688733 -2.4489168e+38
2.0512223 -0.78837276 0.99688733 -2.4888963e+38
2.0611858 -0.79578996 0.99558258 -2.1565361e+38
2.0611682 -0.79935753 0.99558258 -1.8247074e+38
2.0611503 -0.80292511 0.99558258 -3.1584638e+38
2.051152 -0.80256695 0.99688733 nan
2.0511343 -0.80611545 0.99688733 nan
2.1367381 -0.48323351 0.98221874 nan
2.1257315 -0.48459318 0.98367494 -2.2217597e+38
2.1257131 -0.48828074 0.98367494 -2.1159865e+38
2.1147065 -0.48957756 0.98513114 -2.0103241e+38
2.1146882 -0.49324417 0.98513114 -2.1702474e+38
2.1046808 -0.49469933 0.98645496 -2.3164611e+38
2.0936747 -0.49589327 0.98791111 -2.2896674e+38
2.0836678 -0.49727026 0.98923492 -2.2761666e+38
2.0836499 -0.50087786 0.98923492 -2.2495294e+38
2.083632 -0.50448543 0.98923492 -2.2228929e+38
2.0836141 -0.508093 0.98923492 -2.222789e+38
2.0835962 -0.51170057 0.98923492 -2.2094444e+38
2.0725911 -0.51272881 0.99069113 -2.1828594e+38
2.0725732 -0.51631546 0.99069113 -2.1695672e+38
2.0725553 -0.51990205 0.99069113 -2.2226844e+38
2.0725377 -0.5234887 0.99069113 -2.2758531e+38
2.0625317 -0.52465427 0.99201494 -2.2758005e+38
2.0625141 -0.52822185 0.99201494 -2.2890924e+38
2.0624962 -0.53178942 0.99201494 -2.2757476e+38
2.0624785 -0.535357 0.99201494 -2.2623517e+38
2.0624609 -0.53892457 0.99201494 -2.2492152e+38
2.0624433 -0.54249215 0.99201494 -2.2359233e+38
2.0624254 -0.54605973 0.99201494 -2.2226831e+38
2.0524201 -0.54707295 0.99333876 -2.2094428e+38
2.0524025 -0.55062145 0.99333876 -2.1962022e+38
2.0623722 -0.55676246 0.99201494 -2.1962024e+38
2.0623546 -0.56032997 0.99201494 -2.2228389e+38
2.0623369 -0.56389761 0.99201494 -2.2494754e+38
2.0623193 -0.56746513 0.99201494 -2.3027484e+38
2.0623014 -0.57103276 0.99201494 -2.3428331e+38
2.0722706 -0.57728803 0.99069113 -2.2895603e+38
2.0722528 -0.58087462 0.99069113 -2.2498374e+38
2.0722349 -0.58446127 0.99069113 -2.2614664e+38
2.0722172 -0.58804786 0.99069113 -2.2893163e+38
2.0721993 -0.59163451 0.99069113 nan
2.0721815 -0.5952211 0.99069113 nan
2.0721638 -0.59880775 0.99069113 nan
2.1136143 -0.70957488 0.98513114 -1.7281637e+38
2.1036127 -0.70990622 0.98645496 -2.1556453e+38
2.1035945 -0.71355379 0.98645496 -2.5816751e+38
2.0826113 -0.71011716 0.98923492 -2.5019752e+38
2.0825934 -0.71372473 0.98923492 -2.4353582e+38
2.071594 -0.71357965 0.99069113 -2.3821891e+38
2.0715761 -0.7171663 0.99069113 -2.328968e+38
2.0715585 -0.72075289 0.99069113 -2.3024354e+38
2.0615578 -0.72087085 0.99201494 -2.2758515e+38
2.0715227 -0.72792619 0.99069113 -2.2758519e+38
2.0615222 -0.72800606 0.99201494 -2.2759038e+38
2.0615046 -0.73157358 0.99201494 -2.2891441e+38
2.061487 -0.73514116 0.99201494 -2.3023847e+38
2.0614691 -0.73870879 0.99201494 -2.2758521e+38
2.0614514 -0.74227631 0.99201494 -2.2493194e+38
2.0614338 -0.74584389 0.99201494 -2.2493192e+38
2.0514338 -0.74579042 0.99333876 -2.2625598e+38
2.0514162 -0.74933898 0.99333876 -2.275904e+38
2.0613806 -0.75654662 0.99201494 -2.2893007e+38
2.0513809 -0.75643605 0.99333876 -2.2892492e+38
2.0513632 -0.75998455 0.99333876 -2.289249e+38
2.0513458 -0.76353312 0.99333876 -2.2759565e+38
2.0513282 -0.76708162 0.99333876 -2.2760612e+38
2.0513105 -0.77063012 0.99333876 -2.28951e+38
2.0512929 -0.77417862 0.99333876 -2.3028555e+38
2.0512753 -0.77772725 0.99333876 -2.3294412e+38
2.0512576 -0.78127575 0.99333876 -2.369267e+38
2.0612214 -0.7886548 0.99201494 -2.3959562e+38
2.0612035 -0.79222244 0.99201494 -2.4227993e+38
2.0611858 -0.79578996 0.99201494 -2.1295372e+38
2.0611682 -0.79935753 0.99201494 -1.8364434e+38
2.0611503 -0.80292511 0.99201494 -3.1448614e+38
2.0611327 -0.80649269 0.99201494 nan
2.0511343 -0.80611545 0.99333876 nan
2.1257496 -0.48090559 0.97998732 nan
2.1257315 -0.48459318 0.97998732 -1.8647897e+38
2.1257131 -0.48828074 0.97998732 -1.9964613e+38
2.1147065 -0.48957756 0.98146451 -2.130111e+38
2.1146882 -0.49324417 0.98146451 -2.210332e+38
2.1046808 -0.49469933 0.98280734 -2.2898765e+38
2.0936747 -0.49589327 0.98428446 -2.2763749e+38
2.0936568 -0.49951988 0.98428446 -2.2495821e+38
2.0936387 -0.50314653 0.98428446 -2.2228929e+38
2.083632 -0.50448543 0.98562729 -2.1962562e+38
2.0836141 -0.508093 0.98562729 -2.1961521e+38
2.0835962 -0.51170057 0.98562729 -2.1829114e+38
2.0725911 -0.51272881 0.98710448 -2.1563264e+38
2.0725732 -0.51631546 0.98710448 -2.129638e+38
2.0725553 -0.51990205 0.98710448 -2.1960994e+38
2.0625494 -0.52108669 0.98844731 -2.249216e+38
2.0625317 -0.52465427 0.98844731 -2.2225272e+38
2.0625141 -0.52822185 0.98844731 -2.1960461e+38
2.0624962 -0.53178942 0.98844731 -2.1959937e+38
2.0624785 -0.535357 0.98844731 -2.1960459e+38
2.0624609 -0.53892457 0.98844731 -2.1962018e+38
2.0624433 -0.54249215 0.98844731 -2.1960461e+38
2.0624254 -0.54605973 0.98844731 -2.2092347e+38
2.0624077 -0.5496273 0.98844731 -2.2093907e+38
2.0623901 -0.55319488 0.98844731 -2.2094428e+38
2.0623722 -0.55676246 0.98844731 -2.2094949e+38
2.0623546 -0.56032997 0.98844731 -2.2361318e+38
2.0623369 -0.56389761 0.98844731 -2.2495273e+38
2.0623193 -0.56746513 0.98844731 -2.3160922e+38
2.0722883 -0.57370138 0.98710448 -2.3692597e+38
2.0722706 -0.57728803 0.98710448 -2.3424656e+38
2.0722528 -0.58087462 0.98710448 -2.3152095e+38
2.0832202 -0.58745962 0.98562729 -2.5526049e+38
2.0832021 -0.59106719 0.98562729 -2.7842491e+38
2.0831842 -0.59467483 0.98562729 nan
2.0721815 -0.5952211 0.98710448 nan
2.0721638 -0.59880775 0.98710448 nan
2.0721459 -0.6023944 0.98710448 nan
2.1036308 -0.70625865 0.98280734 -1.7154444e+38
2.1036127 -0.70990622 0.98280734 -2.1427193e+38
2.0926127 -0.70986396 0.98428446 -2.5551443e+38
2.0826113 -0.71011716 0.98562729 -2.4887878e+38
2.0825934 -0.71372473 0.98562729 -2.4088262e+38
2.071594 -0.71357965 0.98710448 -2.3689491e+38
2.0715761 -0.7171663 0.98710448 -2.3157281e+38
2.0715585 -0.72075289 0.98710448 -2.302436e+38
2.0615578 -0.72087085 0.98844731 -2.2758517e+38
2.0715227 -0.72792619 0.98710448 -2.2625596e+38
2.0615222 -0.72800606 0.98844731 -2.2492675e+38
2.0615046 -0.73157358 0.98844731 -2.2758005e+38
2.061487 -0.73514116 0.98844731 -2.3024368e+38
2.0614691 -0.73870879 0.98844731 -2.2626636e+38
2.0614514 -0.74227631 0.98844731 -2.2094426e+38
2.0614338 -0.74584389 0.98844731 -2.2228385e+38
2.0514338 -0.74579042 0.9897902 -2.2360789e+38
2.0514162 -0.74933898 0.9897902 -2.2494233e+38
2.0513985 -0.75288755 0.9897902 -2.262664e+38
2.0513809 -0.75643605 0.9897902 -2.2626125e+38
2.0513632 -0.75998455 0.9897902 -2.2493202e+38
2.0513458 -0.76353312 0.9897902 -2.2625608e+38
2.0513282 -0.76708162 0.9897902 -2.2627693e+38
2.0513105 -0.77063012 0.9897902 -2.2761662e+38
2.0512929 -0.77417862 0.9897902 -2.2894595e+38
2.0512753 -0.77772725 0.9897902 -2.3160972e+38
2.0512576 -0.78127575 0.9897902 -2.3294422e+38
2.05124 -0.78482425 0.9897902 -2.3427355e+38
2.0612035 -0.79222244 0.98844731 -2.342682e+38
2.0611858 -0.79578996 0.98844731 -2.0891405e+38
2.0611682 -0.79935753 0.98844731 -1.8384171e+38
2.0511696 -0.79901838 0.9897902 -3.1463171e+38
2.0611327 -0.80649269 0.98844731 nan
2.061115 -0.81006026 0.98844731 nan
2.1257496 -0.48090559 0.9762997 nan
2.1147428 -0.48224431 0.97779781 -1.8504596e+38
2.1147246 -0.48591092 0.97779781 -2.0767873e+38
2.1147065 -0.48957756 0.97779781 -2.3032228e+38
2.1146882 -0.49324417 0.97779781 -2.303326e+38
2.1046808 -0.49469933 0.97915971 -2.3164609e+38
2.0936747 -0.49589327 0.98065782 -2.2763228e+38
2.0936568 -0.49951988 0.98065782 -2.249478e+38
2.0936387 -0.50314653 0.98065782 -2.1963083e+38
2.0936208 -0.50677317 0.98065782 -2.1563791e+38
2.0836141 -0.508093 0.98201966 -2.1696191e+38
2.0835962 -0.51170057 0.98201966 -2.1696187e+38
2.0725911 -0.51272881 0.98351777 -2.1695144e+38
2.0725732 -0.51631546 0.98351777 -2.1560664e+38
2.0725553 -0.51990205 0.98351777 -2.1827029e+38
2.0625494 -0.52108669 0.98487973 -2.2093387e+38
2.0625317 -0.52465427 0.98487973 -2.1960459e+38
2.0625141 -0.52822185 0.98487973 -2.1828053e+38
2.0624962 -0.53178942 0.98487973 -2.1694609e+38
2.0624785 -0.535357 0.98487973 -2.1562207e+38
2.0624609 -0.53892457 0.98487973 -2.1695651e+38
2.0624433 -0.54249215 0.98487973 -2.1960459e+38
2.0624254 -0.54605973 0.98487973 -2.2093901e+38
2.0624077 -0.5496273 0.98487973 -2.2227866e+38
2.0623901 -0.55319488 0.98487973 -2.222787e+38
2.0623722 -0.55676246 0.98487973 -2.2361318e+38
2.0623546 -0.56032997 0.98487973 -2.2494764e+38
2.0623369 -0.56389761 0.98487973 -2.276164e+38
2.0623193 -0.56746513 0.98487973 -2.329384e+38
2.0722883 -0.57370138 0.98351777 -2.3958937e+38
2.0722706 -0.57728803 0.98351777 -2.3423575e+38
2.0832381 -0.58385205 0.98201966 -2.3020223e+38
2.0832202 -0.58745962 0.98201966 -2.5420709e+38
2.0832021 -0.59106719 0.98201966 -2.7992062e+38
2.0831842 -0.59467483 0.98201966 nan
2.0621953 -0.59243816 0.98487973 nan
2.0621774 -0.59600574 0.98487973 nan
2.1136327 -0.7059083 0.97779781 -3.3263026e+38
2.1036308 -0.70625865 0.97915971 -1.7280635e+38
2.1036127 -0.70990622 0.97915971 -2.1290662e+38
2.0926127 -0.70986396 0.98065782 -2.5288212e+38
2.0925946 -0.71349061 0.98065782 -2.4621521e+38
2.0825934 -0.71372473 0.98201966 -2.4087229e+38
2.071594 -0.71357965 0.98351777 -2.3556053e+38
2.0715761 -0.7171663 0.98351777 -2.3157287e+38
2.0715585 -0.72075289 0.98351777 -2.3024364e+38
2.0615578 -0.72087085 0.98487973 -2.2759038e+38
2.0715227 -0.72792619 0.98351777 -2.2625594e+38
2.0615222 -0.72800606 0.98487973 -2.2625081e+38
2.0615046 -0.73157358 0.98487973 -2.275801e+38
2.061487 -0.73514116 0.98487973 -2.2890928e+38
2.0614691 -0.73870879 0.98487973 -2.2625079e+38
2.0614514 -0.74227631 0.98487973 -2.222631e+38
2.0514514 -0.74224192 0.98624158 -2.2360269e+38
2.0514338 -0.74579042 0.98624158 -2.2360789e+38
2.0514162 -0.74933898 0.98624158 -2.2493192e+38
2.0513985 -0.75288755 0.98624158 -2.26256e+38
2.0513809 -0.75643605 0.98624158 -2.2625604e+38
2.0513632 -0.75998455 0.98624158 -2.2625608e+38
2.0513458 -0.76353312 0.98624158 -2.2493206e+38
2.0513282 -0.76708162 0.98624158 -2.2495291e+38
2.0513105 -0.77063012 0.98624158 -2.2760626e+38
2.0512929 -0.77417862 0.98624158 -2.289304e+38
2.0512753 -0.77772725 0.98624158 -2.3293895e+38
2.0512576 -0.78127575 0.98624158 -2.356183e+38
2.0612214 -0.7886548 0.98487973 -2.3827686e+38
2.0612035 -0.79222244 0.98487973 -2.3963703e+38
2.0611858 -0.79578996 0.98487973 -2.1027957e+38
2.0611682 -0.79935753 0.98487973 -1.8102754e+38
2.0611503 -0.80292511 0.98487973 -3.2386899e+38
2.0611327 -0.80649269 0.98487973 nan
2.061115 -0.81006026 0.98487973 nan
2.1257496 -0.48090559 0.97261208 -3.3405946e+38
2.1147428 -0.48224431 0.97413111 -1.8237675e+38
2.1147246 -0.48591092 0.97413111 -2.1570079e+38
2.1147065 -0.48957756 0.97413111 -2.4761259e+38
2.1146882 -0.49324417 0.97413111 -2.4097677e+38
2.1046808 -0.49469933 0.97551209 -2.3296491e+38
2.1046629 -0.49834687 0.97551209 -2.2895113e+38
2.0936568 -0.49951988 0.97703111 -2.2362377e+38
2.0936387 -0.50314653 0.97703111 -2.1829643e+38
2.0936208 -0.50677317 0.97703111 -2.1164504e+38
2.0836141 -0.508093 0.97841209 -2.1429826e+38
2.0835962 -0.51170057 0.97841209 -2.1562226e+38
2.0725911 -0.51272881 0.97993112 -2.1693587e+38
2.0725732 -0.51631546 0.97993112 -2.1826507e+38
2.0725553 -0.51990205 0.97993112 -2.1826505e+38
2.0725377 -0.5234887 0.97993112 -2.1694617e+38
2.0625317 -0.52465427 0.9813121 -2.1695132e+38
2.0625141 -0.52822185 0.9813121 -2.169513e+38
2.0624962 -0.53178942 0.9813121 -2.1428765e+38
2.0624785 -0.535357 0.9813121 -2.1030518e+38
2.0624609 -0.53892457 0.9813121 -2.1429808e+38
2.0624433 -0.54249215 0.9813121 -2.1828055e+38
2.0624254 -0.54605973 0.9813121 -2.2093901e+38
2.0624077 -0.5496273 0.9813121 -2.2227866e+38
2.0623901 -0.55319488 0.9813121 -2.2361312e+38
2.0623722 -0.55676246 0.9813121 -2.2494239e+38
2.0623546 -0.56032997 0.9813121 -2.276061e+38
2.0623369 -0.56389761 0.9813121 -2.3026971e+38
2.0723062 -0.57011479 0.97993112 -2.3559177e+38
2.0722883 -0.57370138 0.97993112 -2.4090848e+38
2.083256 -0.58024448 0.97841209 -2.3422579e+38
2.0832381 -0.58385205 0.97841209 -2.2754383e+38
2.0832202 -0.58745962 0.97841209 -2.5410294e+38
2.0832021 -0.59106719 0.97841209 -2.7988932e+38
2.0721993 -0.59163451 0.97993112 nan
2.0621953 -0.59243816 0.9813121 nan
2.0621774 -0.59600574 0.9813121 nan
2.1246147 -0.70953524 0.97261208 -3.296596e+38
2.1136143 -0.70957488 0.97413111 -1.7288395e+38
2.1036127 -0.70990622 0.97551209 -2.11671e+38
2.0926127 -0.70986396 0.97703111 -2.5021334e+38
2.0925946 -0.71349061 0.97703111 -2.4488079e+38
2.0825934 -0.71372473 0.97841209 -2.3955345e+38
2.071594 -0.71357965 0.97993112 -2.3556055e+38
2.0715761 -0.7171663 0.97993112 -2.3157289e+38
2.0715585 -0.72075289 0.97993112 -2.3024368e+38
2.0615578 -0.72087085 0.9813121 -2.2758003e+38
2.0615401 -0.72443849 0.9813121 -2.2757486e+38
2.0615222 -0.72800606 0.9813121 -2.2625604e+38
2.0615046 -0.73157358 0.9813121 -2.2758531e+38
2.061487 -0.73514116 0.9813121 -2.2756969e+38
2.0614691 -0.73870879 0.9813121 -2.2623525e+38
2.0614514 -0.74227631 0.9813121 -2.2358197e+38
2.0514514 -0.74224192 0.98269308 -2.2358716e+38
2.0514338 -0.74579042 0.98269308 -2.2359233e+38
2.0514162 -0.74933898 0.98269308 -2.2492154e+38
2.0513985 -0.75288755 0.98269308 -2.2492158e+38
2.0513809 -0.75643605 0.98269308 -2.2625087e+38
2.0513632 -0.75998455 0.98269308 -2.262561e+38
2.0513458 -0.76353312 0.98269308 -2.2492691e+38
2.0513282 -0.76708162 0.98269308 -2.2360815e+38
2.0513105 -0.77063012 0.98269308 -2.262563e+38
2.0512929 -0.77417862 0.98269308 -2.2893038e+38
2.0512753 -0.77772725 0.98269308 -2.3426293e+38
2.0512576 -0.78127575 0.98269308 -2.382611e+38
2.0612214 -0.7886548 0.9813121 -2.4224369e+38
2.0612035 -0.79222244 0.9813121 -2.4488628e+38
2.0611858 -0.79578996 0.9813121 -2.1153071e+38
2.0611682 -0.79935753 0.9813121 -1.7715914e+38
2.0611503 -0.80292511 0.9813121 -3.333397e+38
2.0611327 -0.80649269 0.9813121 nan
2.061115 -0.81006026 0.9813121 nan
2.1147611 -0.47857767 0.97046447 -3.3543475e+38
2.1147428 -0.48224431 0.97046447 -1.7812911e+38
2.1147246 -0.48591092 0.97046447 -2.1428323e+38
2.1147065 -0.48957756 0.97046447 -2.516054e+38
2.1146882 -0.49324417 0.97046447 -2.4361959e+38
2.1046808 -0.49469933 0.97186446 -2.3693181e+38
2.1046629 -0.49834687 0.97186446 -2.3028555e+38
2.0936568 -0.49951988 0.97340447 -2.2495302e+38
2.0936387 -0.50314653 0.97340447 -2.1830162e+38
2.0936208 -0.50677317 0.97340447 -2.1296909e+38
2.0836141 -0.508093 0.97480446 -2.1429826e+38
2.0835962 -0.51170057 0.97480446 -2.1694629e+38
2.0725911 -0.51272881 0.97634447 -2.1561181e+38
2.0725732 -0.51631546 0.97634447 -2.1561179e+38
