# .PCD v0.7 - Point Cloud Data file format
VERSION 0.7
FIELDS x y z rgb
SIZE 4 4 4 4
TYPE F F F F
COUNT 1 1 1 1
WIDTH 996
HEIGHT 1
VIEWPOINT 0 0 0 1 0 0 0
POINTS 996
DATA ascii
0.045000002 -0.49833336 1.7500001 -2.5288721e+38
0.048333336 -0.49833336 1.7500001 -2.5288723e+38
0.05166667 -0.49833336 1.7500001 -2.5289246e+38
0.055000003 -0.49833336 1.7500001 -2.5289248e+38
0.058333337 -0.49833336 1.7500001 -2.5155808e+38
0.061666671 -0.49833336 1.7500001 -2.5022368e+38
0.065000005 -0.49833336 1.7500001 -2.4757042e+38
0.068333335 -0.49833336 1.7500001 -2.4756521e+38
0.071666673 -0.49833336 1.7500001 -2.4623594e+38
0.075000003 -0.49833336 1.7500001 -2.449015e+38
0.078333341 -0.49833336 1.7500001 -2.4224819e+38
0.081666671 -0.49833336 1.7500001 -2.4224815e+38
0.085000008 -0.49833336 1.7500001 -2.4091892e+38
0.087879054 -0.49577051 1.7410001 -2.4224298e+38
0.091195241 -0.49577051 1.7410001 -2.4357221e+38
0.094511434 -0.49577051 1.7410001 -2.4223781e+38
0.097827628 -0.49577051 1.7410001 -2.409086e+38
0.10114381 -0.49577051 1.7410001 -2.4091381e+38
0.10446001 -0.49577051 1.7410001 -2.4091381e+38
0.10777619 -0.49577051 1.7410001 -2.4091381e+38
0.11109239 -0.49577051 1.7410001 -2.4091379e+38
0.11440858 -0.49577051 1.7410001 -2.4223783e+38
0.11833334 -0.49833336 1.7500001 -2.4223785e+38
0.12166668 -0.49833336 1.7500001 -2.435619e+38
0.12500001 -0.49833336 1.7500001 -2.4356706e+38
0.12833335 -0.49833336 1.7500001 -2.4356704e+38
0.13166668 -0.49833336 1.7500001 -2.4223777e+38
0.13500001 -0.49833336 1.7500001 -2.409085e+38
0.13833334 -0.49833336 1.7500001 -2.3957929e+38
0.14166668 -0.49833336 1.7500001 -2.395741e+38
0.14500001 -0.49833336 1.7500001 -2.3825006e+38
0.14833334 -0.49833336 1.7500001 -2.4090852e+38
0.15166667 -0.49833336 1.7500001 -2.4223253e+38
0.15500002 -0.49833336 1.7500001 -2.4355655e+38
0.15914764 -0.50089622 1.7590001 -2.4355132e+38
0.1624981 -0.50089622 1.7590001 -2.4222205e+38
0.16584858 -0.50089622 1.7590001 -2.4088239e+38
0.16919906 -0.50089622 1.7590001 -2.4087199e+38
0.17254953 -0.50089622 1.7590001 -2.4087201e+38
0.17680001 -0.5034591 1.7680001 -2.3953761e+38
0.18016763 -0.5034591 1.7680001 -2.3688435e+38
0.18446954 -0.50602192 1.7770001 -2.38198e+38
0.1878543 -0.50602192 1.7770001 -2.3821362e+38
0.19220763 -0.5085848 1.7860001 -2.3954288e+38
0.19560954 -0.5085848 1.7860001 -2.3954286e+38
0.19901145 -0.5085848 1.7860001 -2.4087207e+38
0.20241335 -0.5085848 1.7860001 -2.4087205e+38
0.20581526 -0.5085848 1.7860001 -2.4087203e+38
0.20921716 -0.5085848 1.7860001 -2.3954282e+38
0.21261907 -0.5085848 1.7860001 -2.3821881e+38
0.21602097 -0.5085848 1.7860001 -2.3689475e+38
0.22052859 -0.51114768 1.7950001 -2.3557072e+38
0.22394763 -0.51114768 1.7950001 -2.3424151e+38
0.22736669 -0.51114768 1.7950001 -2.3424151e+38
0.23194288 -0.5137105 1.8040001 -2.3292271e+38
0.23798859 -0.51940572 1.8240001 -2.3292794e+38
0.24146287 -0.51940572 1.8240001 -2.3292796e+38
0.24614573 -0.5219686 1.8330001 -2.3558643e+38
0.25099906 -0.52481622 1.8430001 -2.3823966e+38
0.25589049 -0.52766383 1.853 -2.3823964e+38
0.26082003 -0.53051144 1.863 -2.3823436e+38
0.26436859 -0.53051144 1.863 -2.3822909e+38
0.26791716 -0.53051144 1.863 -2.3688425e+38
0.27146572 -0.53051144 1.863 -2.3687382e+38
0.27649048 -0.53335911 1.8730001 -2.3686861e+38
0.28005812 -0.53335911 1.8730001 -2.3420494e+38
0.28362572 -0.53335911 1.8730001 -2.3021725e+38
0.28719336 -0.53335911 1.8730001 -2.3022247e+38
0.29076096 -0.53335911 1.8730001 -2.2889847e+38
0.2943286 -0.53335911 1.8730001 -2.3156216e+38
0.29630575 -0.53051144 1.863 -2.3289139e+38
0.29985431 -0.53051144 1.863 -2.3687909e+38
0.30340287 -0.53051144 1.863 -2.4087199e+38
0.30695146 -0.53051144 1.863 -2.408772e+38
0.31050003 -0.53051144 1.863 -2.4087722e+38
0.3157343 -0.53335911 1.8730001 -2.4221166e+38
0.31759715 -0.53051144 1.863 -2.4221688e+38
0.32286954 -0.53335911 1.8730001 -2.422169e+38
0.32643718 -0.53335911 1.8730001 -2.4089807e+38
0.33000478 -0.53335911 1.8730001 -2.4223773e+38
0.33535334 -0.53620672 1.8830001 -2.4356178e+38
0.33894002 -0.53620672 1.8830001 -2.4622026e+38
0.34252667 -0.53620672 1.8830001 -2.4755476e+38
0.34813526 -0.53933907 1.8940001 -2.5154255e+38
0.35174289 -0.53933907 1.8940001 -2.5553552e+38
0.35535049 -0.53933907 1.8940001 -2.5819408e+38
0.35895813 -0.53933907 1.8940001 -2.6090448e+38
0.36256573 -0.53933907 1.8940001 -2.6362007e+38
0.36617336 -0.53933907 1.8940001 -2.6633627e+38
-0.1518943 -0.55694574 1.9690001 nan
-0.14814381 -0.55694574 1.9690001 nan
-0.14439334 -0.55694574 1.9690001 nan
-0.14064287 -0.55694574 1.9690001 -3.3828074e+38
-0.13689239 -0.55694574 1.9690001 -2.3570121e+38
-0.13314192 -0.55694574 1.9690001 -2.4892029e+38
-0.12939143 -0.55694574 1.9690001 -2.6352622e+38
-0.12564096 -0.55694574 1.9690001 -2.6487103e+38
-0.12189049 -0.55694574 1.9690001 -2.6751385e+38
-0.11814 -0.55694574 1.9690001 -2.6485533e+38
-0.11438953 -0.55694574 1.9690001 -2.6218645e+38
-0.11002096 -0.55383432 1.9580001 -2.5818313e+38
-0.10629144 -0.55383432 1.9580001 -2.5550907e+38
-0.10256191 -0.55383432 1.9580001 -2.5285579e+38
-0.098832384 -0.55383432 1.9580001 -2.5019731e+38
-0.09456858 -0.5507229 1.9470001 -2.5151614e+38
-0.090860009 -0.5507229 1.9470001 -2.5151093e+38
-0.087151438 -0.5507229 1.9470001 -2.5018166e+38
-0.083442859 -0.5507229 1.9470001 -2.5017644e+38
-0.079283811 -0.54761147 1.9360001 -2.48842e+38
-0.075166672 -0.54450005 1.9250001 -2.4750235e+38
-0.071128577 -0.54167145 1.9150001 -2.4617827e+38
-0.067480959 -0.54167145 1.9150001 -2.4617308e+38
-0.063466668 -0.53856003 1.904 -2.4617308e+38
-0.059840005 -0.53856003 1.904 -2.4617831e+38
-0.055918097 -0.53573143 1.8940001 -2.4618872e+38
-0.052006669 -0.53262001 1.8830001 -2.4486992e+38
-0.048420005 -0.53262001 1.8830001 -2.4488032e+38
-0.044595242 -0.52979147 1.8730001 -2.4488038e+38
-0.04102762 -0.52979147 1.8730001 -2.4488042e+38
-0.037260003 -0.52696288 1.863 -2.4620971e+38
-0.033530477 -0.52413434 1.853 -2.435513e+38
-0.02983905 -0.52130574 1.8430001 -2.4222213e+38
-0.026328573 -0.52130574 1.8430001 -2.4223255e+38
-0.022694288 -0.5184772 1.8330001 -2.4222736e+38
-0.019202858 -0.5184772 1.8330001 -2.4090333e+38
-0.015634287 -0.51593149 1.8240001 -2.4090331e+38
-0.012026668 -0.51027429 1.8040001 -2.422273e+38
-0.0085476199 -0.50772858 1.7950001 -2.4222207e+38
-0.0051285718 -0.50772858 1.7950001 -2.4355126e+38
-0.0017009525 -0.50518286 1.7860001 -2.4488568e+38
0.0017009525 -0.50518286 1.7860001 -2.462045e+38
0.0051028575 -0.50518286 1.7860001 -2.4619935e+38
0.0084619056 -0.50263715 1.7770001 -2.4753381e+38
0.011846667 -0.50263715 1.7770001 -2.4886825e+38
0.015154286 -0.50009143 1.7680001 -2.501923e+38
0.018521907 -0.50009143 1.7680001 -2.5152155e+38
0.021889525 -0.50009143 1.7680001 -2.5019233e+38
0.025257144 -0.50009143 1.7680001 -2.5019752e+38
0.028479049 -0.49754575 1.7590001 -2.4887348e+38
0.031829525 -0.49754575 1.7590001 -2.4755468e+38
0.035180002 -0.49754575 1.7590001 -2.4888393e+38
0.03853048 -0.49754575 1.7590001 -2.4888914e+38
0.041880954 -0.49754575 1.7590001 -2.4889433e+38
0.045231432 -0.49754575 1.7590001 -2.4889435e+38
0.048581909 -0.49754575 1.7590001 -2.502236e+38
0.051932383 -0.49754575 1.7590001 -2.5022883e+38
0.055000003 -0.49500003 1.7500001 -2.5022885e+38
0.058333337 -0.49500003 1.7500001 -2.5022368e+38
0.061666671 -0.49500003 1.7500001 -2.4756523e+38
0.065000005 -0.49500003 1.7500001 -2.4623602e+38
0.068333335 -0.49500003 1.7500001 -2.4624121e+38
0.071666673 -0.49500003 1.7500001 -2.4757038e+38
0.075000003 -0.49500003 1.7500001 -2.4358263e+38
0.078333341 -0.49500003 1.7500001 -2.4092935e+38
0.081666671 -0.49500003 1.7500001 -2.4092412e+38
0.08456286 -0.49245432 1.7410001 -2.4092933e+38
0.087879054 -0.49245432 1.7410001 -2.4091894e+38
0.091195241 -0.49245432 1.7410001 -2.4224817e+38
0.094511434 -0.49245432 1.7410001 -2.4223779e+38
0.097827628 -0.49245432 1.7410001 -2.4223264e+38
0.10114381 -0.49245432 1.7410001 -2.4223785e+38
0.10446001 -0.49245432 1.7410001 -2.4091381e+38
0.10777619 -0.49245432 1.7410001 -2.4091898e+38
0.11109239 -0.49245432 1.7410001 -2.4091898e+38
0.11440858 -0.49245432 1.7410001 -2.4091896e+38
0.11833334 -0.49500003 1.7500001 -2.40919e+38
0.12166668 -0.49500003 1.7500001 -2.4091383e+38
0.12500001 -0.49500003 1.7500001 -2.409086e+38
0.12833335 -0.49500003 1.7500001 -2.4090854e+38
0.13166668 -0.49500003 1.7500001 -2.4090335e+38
0.13500001 -0.49500003 1.7500001 -2.4090333e+38
0.13833334 -0.49500003 1.7500001 -2.4090852e+38
0.14166668 -0.49500003 1.7500001 -2.4090333e+38
0.14500001 -0.49500003 1.7500001 -2.4090852e+38
0.14833334 -0.49500003 1.7500001 -2.4090852e+38
0.15244667 -0.49754575 1.7590001 -2.4223773e+38
0.15579715 -0.49754575 1.7590001 -2.4222732e+38
0.15996191 -0.50009143 1.7680001 -2.4222209e+38
0.16332954 -0.50009143 1.7680001 -2.4221686e+38
0.16584858 -0.49754575 1.7590001 -2.4220124e+38
0.17006478 -0.50009143 1.7680001 -2.4087197e+38
0.17254953 -0.49754575 1.7590001 -2.3953755e+38
0.17680001 -0.50009143 1.7680001 -2.3687909e+38
0.18016763 -0.50009143 1.7680001 -2.3554987e+38
0.18353525 -0.50009143 1.7680001 -2.3554987e+38
0.18690287 -0.50009143 1.7680001 -2.3688952e+38
0.19123906 -0.50263715 1.7770001 -2.3821359e+38
0.19462383 -0.50263715 1.7770001 -2.3821359e+38
0.19901145 -0.50518286 1.7860001 -2.395428e+38
0.20241335 -0.50518286 1.7860001 -2.395428e+38
0.20581526 -0.50518286 1.7860001 -2.395428e+38
0.20921716 -0.50518286 1.7860001 -2.3821879e+38
0.21261907 -0.50518286 1.7860001 -2.3689475e+38
0.21710953 -0.50772858 1.7950001 -2.355707e+38
0.22052859 -0.50772858 1.7950001 -2.3557068e+38
0.22394763 -0.50772858 1.7950001 -2.3424147e+38
0.22850668 -0.51027429 1.8040001 -2.3424668e+38
0.23194288 -0.51027429 1.8040001 -2.329279e+38
0.23798859 -0.51593149 1.8240001 -2.3425717e+38
0.24265431 -0.5184772 1.8330001 -2.3558641e+38
0.24748859 -0.52130574 1.8430001 -2.3824489e+38
0.25099906 -0.52130574 1.8430001 -2.4090333e+38
0.25589049 -0.52413434 1.853 -2.4089809e+38
0.25942001 -0.52413434 1.853 -2.4222205e+38
0.26436859 -0.52696288 1.863 -2.4088233e+38
0.26791716 -0.52696288 1.863 -2.3953751e+38
0.27292287 -0.52979147 1.8730001 -2.3952708e+38
0.27649048 -0.52979147 1.8730001 -2.3951668e+38
0.28005812 -0.52979147 1.8730001 -2.3552897e+38
0.28362572 -0.52979147 1.8730001 -2.3154129e+38
0.28719336 -0.52979147 1.8730001 -2.3155168e+38
0.29076096 -0.52979147 1.8730001 -2.3022247e+38
0.2943286 -0.52979147 1.8730001 -2.315621e+38
0.29789621 -0.52979147 1.8730001 -2.3423096e+38
0.30146384 -0.52979147 1.8730001 -2.3688422e+38
0.30340287 -0.52696288 1.863 -2.4087195e+38
0.30695146 -0.52696288 1.863 -2.4219601e+38
0.31216669 -0.52979147 1.8730001 -2.4352525e+38
0.3157343 -0.52979147 1.8730001 -2.4486489e+38
0.31930193 -0.52979147 1.8730001 -2.4487012e+38
0.32286954 -0.52979147 1.8730001 -2.4487533e+38
0.32643718 -0.52979147 1.8730001 -2.4354612e+38
0.33000478 -0.52979147 1.8730001 -2.4355134e+38
0.33357242 -0.52979147 1.8730001 -2.4355138e+38
0.33894002 -0.53262001 1.8830001 -2.4489101e+38
0.34252667 -0.53262001 1.8830001 -2.4622553e+38
0.34611335 -0.53262001 1.8830001 -2.5021849e+38
0.35174289 -0.53573143 1.8940001 -2.5420627e+38
0.35535049 -0.53573143 1.8940001 -2.5555635e+38
0.35895813 -0.53573143 1.8940001 -2.5825639e+38
0.36256573 -0.53573143 1.8940001 -2.5826681e+38
0.36617336 -0.53573143 1.8940001 -2.582569e+38
-0.1518943 -0.5531953 1.9690001 nan
-0.14814381 -0.5531953 1.9690001 nan
-0.14439334 -0.5531953 1.9690001 nan
-0.14064287 -0.5531953 1.9690001 -3.1141531e+38
-0.13689239 -0.5531953 1.9690001 -1.9043451e+38
-0.13314192 -0.5531953 1.9690001 -2.3298509e+38
-0.12939143 -0.5531953 1.9690001 -2.7552039e+38
-0.12564096 -0.5531953 1.9690001 -2.7154309e+38
-0.12120953 -0.5501048 1.9580001 -2.6620018e+38
-0.11814 -0.5531953 1.9690001 -2.635261e+38
-0.11438953 -0.5531953 1.9690001 -2.595228e+38
-0.11002096 -0.5501048 1.9580001 -2.5817796e+38
-0.10629144 -0.5501048 1.9580001 -2.5684352e+38
-0.10256191 -0.5501048 1.9580001 -2.5417983e+38
-0.098832384 -0.5501048 1.9580001 -2.5152135e+38
-0.095102862 -0.5501048 1.9580001 -2.5284019e+38
-0.091373339 -0.5501048 1.9580001 -2.5284015e+38
-0.087151438 -0.5470143 1.9470001 -2.5150569e+38
-0.083442859 -0.5470143 1.9470001 -2.5017642e+38
-0.079283811 -0.54392385 1.9360001 -2.4751793e+38
-0.075166672 -0.54083335 1.9250001 -2.4485426e+38
-0.071128577 -0.53802383 1.9150001 -2.4617829e+38
-0.067480959 -0.53802383 1.9150001 -2.4750235e+38
-0.063466668 -0.53493339 1.904 -2.4749199e+38
-0.059840005 -0.53493339 1.904 -2.4617836e+38
-0.055918097 -0.53212386 1.8940001 -2.4618357e+38
-0.052006669 -0.52903336 1.8830001 -2.4486994e+38
-0.048420005 -0.52903336 1.8830001 -2.4489073e+38
-0.044595242 -0.52622384 1.8730001 -2.4488038e+38
-0.04102762 -0.52622384 1.8730001 -2.4619925e+38
-0.037260003 -0.52341431 1.863 -2.4620448e+38
-0.033530477 -0.52060479 1.853 -2.4355124e+38
-0.02983905 -0.51779526 1.8430001 -2.4089801e+38
-0.026328573 -0.51779526 1.8430001 -2.4091363e+38
-0.022818096 -0.51779526 1.8430001 -2.4090325e+38
-0.019202858 -0.51498574 1.8330001 -2.4089807e+38
-0.015634287 -0.51245719 1.8240001 -2.4090322e+38
-0.012026668 -0.50683814 1.8040001 -2.4089799e+38
-0.0085476199 -0.50430954 1.7950001 -2.4089276e+38
-0.0051285718 -0.50430954 1.7950001 -2.4354081e+38
-0.001709524 -0.50430954 1.7950001 -2.4487004e+38
0.0017009525 -0.50178099 1.7860001 -2.4486487e+38
0.0051028575 -0.50178099 1.7860001 -2.4354085e+38
0.0085047623 -0.50178099 1.7860001 -2.4486493e+38
0.011846667 -0.49925241 1.7770001 -2.4486493e+38
0.01523143 -0.49925241 1.7770001 -2.4751821e+38
0.018521907 -0.49672383 1.7680001 -2.4884746e+38
0.021889525 -0.49672383 1.7680001 -2.4884748e+38
0.025257144 -0.49672383 1.7680001 -2.4752866e+38
0.028479049 -0.49419528 1.7590001 -2.4620462e+38
0.031829525 -0.49419528 1.7590001 -2.4488584e+38
0.035180002 -0.49419528 1.7590001 -2.4621511e+38
0.03853048 -0.49419528 1.7590001 -2.4622032e+38
0.041880954 -0.49419528 1.7590001 -2.4622553e+38
0.045231432 -0.49419528 1.7590001 -2.4490152e+38
0.048581909 -0.49419528 1.7590001 -2.4623074e+38
0.051932383 -0.49419528 1.7590001 -2.4756519e+38
0.055000003 -0.4916667 1.7500001 -2.4756001e+38
0.058333337 -0.4916667 1.7500001 -2.4756521e+38
0.061666671 -0.4916667 1.7500001 -2.4624117e+38
0.065000005 -0.4916667 1.7500001 -2.4491194e+38
0.068333335 -0.4916667 1.7500001 -2.4624119e+38
0.071666673 -0.4916667 1.7500001 -2.4757038e+38
0.075000003 -0.4916667 1.7500001 -2.4358265e+38
0.078333341 -0.4916667 1.7500001 -2.3959493e+38
0.081666671 -0.4916667 1.7500001 -2.4092412e+38
0.08456286 -0.48913813 1.7410001 -2.4092412e+38
0.087879054 -0.48913813 1.7410001 -2.4091892e+38
0.091195241 -0.48913813 1.7410001 -2.395845e+38
0.094511434 -0.48913813 1.7410001 -2.4223259e+38
0.097827628 -0.48913813 1.7410001 -2.4356184e+38
0.10114381 -0.48913813 1.7410001 -2.4223262e+38
0.10446001 -0.48913813 1.7410001 -2.4091377e+38
0.10777619 -0.48913813 1.7410001 -2.4091896e+38
0.11166667 -0.4916667 1.7500001 -2.4091894e+38
0.11500001 -0.4916667 1.7500001 -2.4091894e+38
0.11833334 -0.4916667 1.7500001 -2.3958972e+38
0.12166668 -0.4916667 1.7500001 -2.3826051e+38
0.12500001 -0.4916667 1.7500001 -2.369209e+38
0.12833335 -0.4916667 1.7500001 -2.3824491e+38
0.13166668 -0.4916667 1.7500001 -2.3824489e+38
0.13500001 -0.4916667 1.7500001 -2.4089815e+38
0.13833334 -0.4916667 1.7500001 -2.4223257e+38
0.14239524 -0.49419528 1.7590001 -2.4222738e+38
0.14500001 -0.4916667 1.7500001 -2.4222738e+38
0.14909621 -0.49419528 1.7590001 -2.4222738e+38
0.15244667 -0.49419528 1.7590001 -2.4089811e+38
0.15579715 -0.49419528 1.7590001 -2.408929e+38
0.15996191 -0.49672383 1.7680001 -2.3956363e+38
0.16332954 -0.49672383 1.7680001 -2.4221686e+38
0.16584858 -0.49419528 1.7590001 -2.4353566e+38
0.16919906 -0.49419528 1.7590001 -2.408668e+38
0.17254953 -0.49419528 1.7590001 -2.3687909e+38
0.17590001 -0.49419528 1.7590001 -2.3554467e+38
0.18016763 -0.49672383 1.7680001 -2.3289139e+38
0.18353525 -0.49672383 1.7680001 -2.3422581e+38
0.18690287 -0.49672383 1.7680001 -2.3554989e+38
0.19123906 -0.49925241 1.7770001 -2.3687394e+38
0.19462383 -0.49925241 1.7770001 -2.3687915e+38
0.19800858 -0.49925241 1.7770001 -2.382084e+38
0.20241335 -0.50178099 1.7860001 -2.3821359e+38
0.20581526 -0.50178099 1.7860001 -2.3821362e+38
0.20921716 -0.50178099 1.7860001 -2.3688958e+38
0.21261907 -0.50178099 1.7860001 -2.3557074e+38
0.21710953 -0.50430954 1.7950001 -2.3424149e+38
0.22052859 -0.50430954 1.7950001 -2.3424145e+38
0.22394763 -0.50430954 1.7950001 -2.3424149e+38
0.22850668 -0.50683814 1.8040001 -2.3424151e+38
0.23322859 -0.50964767 1.8140001 -2.329279e+38
0.23798859 -0.51245719 1.8240001 -2.3558641e+38
0.24265431 -0.51498574 1.8330001 -2.3825008e+38
0.24748859 -0.51779526 1.8430001 -2.4090858e+38
0.25099906 -0.51779526 1.8430001 -2.4223257e+38
0.25450954 -0.51779526 1.8430001 -2.4355657e+38
0.25942001 -0.52060479 1.853 -2.4488052e+38
0.26436859 -0.52341431 1.863 -2.4354083e+38
0.26791716 -0.52341431 1.863 -2.4086676e+38
0.27292287 -0.52622384 1.8730001 -2.4218556e+38
0.27649048 -0.52622384 1.8730001 -2.4217513e+38
0.28005812 -0.52622384 1.8730001 -2.3818222e+38
0.28362572 -0.52622384 1.8730001 -2.3287571e+38
0.28719336 -0.52622384 1.8730001 -2.328861e+38
0.29076096 -0.52622384 1.8730001 -2.3155687e+38
0.2943286 -0.52622384 1.8730001 -2.328965e+38
0.29789621 -0.52622384 1.8730001 -2.3422573e+38
0.30146384 -0.52622384 1.8730001 -2.3821343e+38
0.30503145 -0.52622384 1.8730001 -2.4086674e+38
0.30859905 -0.52622384 1.8730001 -2.4351483e+38
0.31216669 -0.52622384 1.8730001 -2.4618369e+38
0.3157343 -0.52622384 1.8730001 -2.4751294e+38
0.31930193 -0.52622384 1.8730001 -2.4752336e+38
0.32286954 -0.52622384 1.8730001 -2.4752862e+38
0.32643718 -0.52622384 1.8730001 -2.4619943e+38
0.33000478 -0.52622384 1.8730001 -2.4486505e+38
0.33535334 -0.52903336 1.8830001 -2.4222738e+38
0.33894002 -0.52903336 1.8830001 -2.4356704e+38
0.34252667 -0.52903336 1.8830001 -2.4357229e+38
0.34611335 -0.52903336 1.8830001 -2.4756525e+38
0.34970003 -0.52903336 1.8830001 -2.515582e+38
0.35535049 -0.53212386 1.8940001 -2.528979e+38
0.35895813 -0.53212386 1.8940001 -2.5425315e+38
0.36256573 -0.53212386 1.8940001 -2.5160516e+38
0.36617336 -0.53212386 1.8940001 -2.4893642e+38
-0.15274286 -0.55251431 1.9800001 nan
-0.14814381 -0.54944479 1.9690001 nan
-0.14439334 -0.54944479 1.9690001 nan
-0.14064287 -0.54944479 1.9690001 -3.2343499e+38
-0.13689239 -0.54944479 1.9690001 -1.8234984e+38
-0.13314192 -0.54944479 1.9690001 -2.3029542e+38
-0.12939143 -0.54944479 1.9690001 -2.7819957e+38
-0.12564096 -0.54944479 1.9690001 -2.7286189e+38
-0.12120953 -0.54637527 1.9580001 -2.6752938e+38
-0.11814 -0.54944479 1.9690001 -2.6219685e+38
-0.11438953 -0.54944479 1.9690001 -2.5819357e+38
-0.11002096 -0.54637527 1.9580001 -2.5685913e+38
-0.10629144 -0.54637527 1.9580001 -2.568539e+38
-0.10256191 -0.54637527 1.9580001 -2.5418502e+38
-0.098832384 -0.54637527 1.9580001 -2.528506e+38
-0.095102862 -0.54637527 1.9580001 -2.5151616e+38
-0.091373339 -0.54637527 1.9580001 -2.5151093e+38
-0.087643817 -0.54637527 1.9580001 -2.5018164e+38
-0.083914295 -0.54637527 1.9580001 -2.4884716e+38
-0.079734288 -0.54330575 1.9470001 -2.4751787e+38
-0.075166672 -0.53716671 1.9250001 -2.4485424e+38
-0.071128577 -0.5343762 1.9150001 -2.4618349e+38
-0.067093335 -0.53130668 1.904 -2.4750237e+38
-0.063133337 -0.52851623 1.8940001 -2.4750241e+38
-0.059525717 -0.52851623 1.8940001 -2.4750762e+38
-0.055593338 -0.52544671 1.8830001 -2.4751801e+38
-0.052006669 -0.52544671 1.8830001 -2.4752841e+38
-0.048420005 -0.52544671 1.8830001 -2.4753363e+38
-0.044595242 -0.5226562 1.8730001 -2.4620442e+38
-0.040808573 -0.51986575 1.863 -2.4487519e+38
-0.037260003 -0.51986575 1.863 -2.4487521e+38
-0.033530477 -0.5170753 1.853 -2.4222714e+38
-0.02983905 -0.51428479 1.8430001 -2.3956872e+38
-0.026328573 -0.51428479 1.8430001 -2.3957394e+38
-0.022818096 -0.51428479 1.8430001 -2.3957915e+38
-0.019202858 -0.51149434 1.8330001 -2.3957915e+38
-0.015634287 -0.5089829 1.8240001 -2.4090314e+38
-0.012093334 -0.50619239 1.8140001 -2.4222712e+38
-0.0085904766 -0.50340194 1.8040001 -2.4355113e+38
-0.0051285718 -0.50089049 1.7950001 -2.4354073e+38
-0.001709524 -0.50089049 1.7950001 -2.4486481e+38
0.0017009525 -0.49837908 1.7860001 -2.435356e+38
0.0051028575 -0.49837908 1.7860001 -2.4354081e+38
0.0085047623 -0.49837908 1.7860001 -2.4486487e+38
0.011906668 -0.49837908 1.7860001 -2.4485969e+38
0.01523143 -0.49586764 1.7770001 -2.4618373e+38
0.018521907 -0.49335623 1.7680001 -2.4750781e+38
0.021889525 -0.49335623 1.7680001 -2.4485976e+38
0.025257144 -0.49335623 1.7680001 -2.4354093e+38
0.028624764 -0.49335623 1.7680001 -2.4354095e+38
0.031829525 -0.49084479 1.7590001 -2.4354623e+38
0.035180002 -0.49084479 1.7590001 -2.4488071e+38
0.03853048 -0.49084479 1.7590001 -2.4488075e+38
0.041880954 -0.49084479 1.7590001 -2.4489115e+38
0.045231432 -0.49084479 1.7590001 -2.4623076e+38
0.048333336 -0.48833337 1.7500001 -2.4489634e+38
0.05166667 -0.48833337 1.7500001 -2.4357752e+38
0.055000003 -0.48833337 1.7500001 -2.4357233e+38
0.058333337 -0.48833337 1.7500001 -2.4490156e+38
0.061666671 -0.48833337 1.7500001 -2.4490673e+38
0.065000005 -0.48833337 1.7500001 -2.4491192e+38
0.068333335 -0.48833337 1.7500001 -2.4490673e+38
0.071666673 -0.48833337 1.7500001 -2.4623594e+38
0.075000003 -0.48833337 1.7500001 -2.4225342e+38
0.078333341 -0.48833337 1.7500001 -2.3959493e+38
0.081666671 -0.48833337 1.7500001 -2.4092412e+38
0.085000008 -0.48833337 1.7500001 -2.409189e+38
0.087879054 -0.48582193 1.7410001 -2.4091888e+38
0.091195241 -0.48582193 1.7410001 -2.4091373e+38
0.094511434 -0.48582193 1.7410001 -2.4223779e+38
0.097827628 -0.48582193 1.7410001 -2.4223779e+38
0.10114381 -0.48582193 1.7410001 -2.4224296e+38
0.10446001 -0.48582193 1.7410001 -2.4091894e+38
0.10777619 -0.48582193 1.7410001 -2.4091894e+38
0.11109239 -0.48582193 1.7410001 -2.4091892e+38
0.11500001 -0.48833337 1.7500001 -2.3959487e+38
0.11833334 -0.48833337 1.7500001 -2.3825525e+38
0.12166668 -0.48833337 1.7500001 -2.3825525e+38
0.12500001 -0.48833337 1.7500001 -2.3957933e+38
0.12833335 -0.48833337 1.7500001 -2.3957416e+38
0.13166668 -0.48833337 1.7500001 -2.3957414e+38
0.13500001 -0.48833337 1.7500001 -2.3956893e+38
0.13833334 -0.48833337 1.7500001 -2.4089817e+38
0.14239524 -0.49084479 1.7590001 -2.422274e+38
0.14574572 -0.49084479 1.7590001 -2.4222221e+38
0.14909621 -0.49084479 1.7590001 -2.4222221e+38
0.15244667 -0.49084479 1.7590001 -2.4088256e+38
0.15579715 -0.49084479 1.7590001 -2.4088769e+38
0.15996191 -0.49335623 1.7680001 -2.4088765e+38
0.16332954 -0.49335623 1.7680001 -2.4221164e+38
0.16669716 -0.49335623 1.7680001 -2.4353566e+38
0.17006478 -0.49335623 1.7680001 -2.4087199e+38
0.17254953 -0.49084479 1.7590001 -2.3820832e+38
0.17590001 -0.49084479 1.7590001 -2.3687388e+38
0.17925049 -0.49084479 1.7590001 -2.3554985e+38
0.18353525 -0.49335623 1.7680001 -2.3554982e+38
0.18690287 -0.49335623 1.7680001 -2.368635e+38
0.19027048 -0.49335623 1.7680001 -2.368739e+38
0.19462383 -0.49586764 1.7770001 -2.3820836e+38
0.19800858 -0.49586764 1.7770001 -2.3821359e+38
0.20139335 -0.49586764 1.7770001 -2.3954806e+38
0.20581526 -0.49837908 1.7860001 -2.3821885e+38
0.20921716 -0.49837908 1.7860001 -2.3821885e+38
0.21261907 -0.49837908 1.7860001 -2.3689479e+38
0.21710953 -0.50089049 1.7950001 -2.342363e+38
0.22052859 -0.50089049 1.7950001 -2.3424664e+38
0.22394763 -0.50089049 1.7950001 -2.3424149e+38
0.22850668 -0.50340194 1.8040001 -2.3425191e+38
0.23322859 -0.50619239 1.8140001 -2.3426234e+38
0.23798859 -0.5089829 1.8240001 -2.3692083e+38
0.24265431 -0.51149434 1.8330001 -2.3957933e+38
0.24748859 -0.51428479 1.8430001 -2.409086e+38
0.25099906 -0.51428479 1.8430001 -2.4223259e+38
0.25450954 -0.51428479 1.8430001 -2.4355657e+38
0.25802001 -0.51428479 1.8430001 -2.4355132e+38
0.26294953 -0.5170753 1.853 -2.4221162e+38
0.26791716 -0.51986575 1.863 -2.3953755e+38
0.27146572 -0.51986575 1.863 -2.4085633e+38
0.27501431 -0.51986575 1.863 -2.4216994e+38
0.28005812 -0.5226562 1.8730001 -2.3818739e+38
0.28362572 -0.5226562 1.8730001 -2.3552895e+38
0.28719336 -0.5226562 1.8730001 -2.3420494e+38
0.29076096 -0.5226562 1.8730001 -2.3420494e+38
0.2943286 -0.5226562 1.8730001 -2.342205e+38
0.29789621 -0.5226562 1.8730001 -2.3554455e+38
0.30146384 -0.5226562 1.8730001 -2.3687899e+38
0.30503145 -0.5226562 1.8730001 -2.3953749e+38
0.30859905 -0.5226562 1.8730001 -2.4219596e+38
0.31216669 -0.5226562 1.8730001 -2.4486483e+38
0.3157343 -0.5226562 1.8730001 -2.4619407e+38
0.31930193 -0.5226562 1.8730001 -2.4752336e+38
0.32286954 -0.5226562 1.8730001 -2.4620458e+38
0.32643718 -0.5226562 1.8730001 -2.4620464e+38
0.33000478 -0.5226562 1.8730001 -2.4355663e+38
0.33535334 -0.52544671 1.8830001 -2.4224302e+38
0.33894002 -0.52544671 1.8830001 -2.4357227e+38
0.34252667 -0.52544671 1.8830001 -2.4490675e+38
0.34611335 -0.52544671 1.8830001 -2.4624123e+38
0.34970003 -0.52544671 1.8830001 -2.4890494e+38
0.35535049 -0.52851623 1.8940001 -2.5157384e+38
0.35895813 -0.52851623 1.8940001 -2.555824e+38
0.36256573 -0.52851623 1.8940001 -2.555825e+38
0.36617336 -0.52851623 1.8940001 -2.569115e+38
-0.14897144 -0.54874289 1.9800001 nan
-0.14439334 -0.54569435 1.9690001 nan
-0.14064287 -0.54569435 1.9690001 -3.3501356e+38
-0.13689239 -0.54569435 1.9690001 -1.7429117e+38
-0.13314192 -0.54569435 1.9690001 -2.2764198e+38
-0.12939143 -0.54569435 1.9690001 -2.7949753e+38
-0.12564096 -0.54569435 1.9690001 -2.7418072e+38
-0.12189049 -0.54569435 1.9690001 -2.6751898e+38
-0.11814 -0.54569435 1.9690001 -2.6219166e+38
-0.11438953 -0.54569435 1.9690001 -2.5686956e+38
-0.11002096 -0.54264575 1.9580001 -2.5686956e+38
-0.10629144 -0.54264575 1.9580001 -2.5552993e+38
-0.10256191 -0.54264575 1.9580001 -2.5417991e+38
-0.098832384 -0.54264575 1.9580001 -2.5285064e+38
-0.095102862 -0.54264575 1.9580001 -2.5152139e+38
-0.091373339 -0.54264575 1.9580001 -2.5018691e+38
-0.087643817 -0.54264575 1.9580001 -2.4885243e+38
-0.083914295 -0.54264575 1.9580001 -2.4752316e+38
-0.079734288 -0.53959715 1.9470001 -2.4618868e+38
-0.076025717 -0.53959715 1.9470001 -2.4485945e+38
-0.071128577 -0.53072858 1.9150001 -2.4618868e+38
-0.067093335 -0.52768004 1.904 -2.4618355e+38
-0.063133337 -0.5249086 1.8940001 -2.4751284e+38
-0.059525717 -0.5249086 1.8940001 -2.4751288e+38
-0.055593338 -0.52186006 1.8830001 -2.4884734e+38
-0.052006669 -0.52186006 1.8830001 -2.5018695e+38
-0.048162859 -0.51908863 1.8730001 -2.4885253e+38
-0.044595242 -0.51908863 1.8730001 -2.4753367e+38
-0.04102762 -0.51908863 1.8730001 -2.4487521e+38
-0.037260003 -0.51631719 1.863 -2.4222193e+38
-0.033530477 -0.51354575 1.853 -2.3957385e+38
-0.030000955 -0.51354575 1.853 -2.3691025e+38
-0.026328573 -0.51077431 1.8430001 -2.369051e+38
-0.022818096 -0.51077431 1.8430001 -2.3691548e+38
-0.019202858 -0.50800288 1.8330001 -2.3958434e+38
-0.015634287 -0.5055086 1.8240001 -2.4089793e+38
-0.012093334 -0.50273716 1.8140001 -2.4354596e+38
-0.0085904766 -0.49996576 1.8040001 -2.4487519e+38
-0.0051285718 -0.49747145 1.7950001 -2.4486481e+38
-0.001709524 -0.49747145 1.7950001 -2.4353558e+38
0.0017009525 -0.49497718 1.7860001 -2.4353041e+38
0.0051028575 -0.49497718 1.7860001 -2.435356e+38
0.0085047623 -0.49497718 1.7860001 -2.4485446e+38
0.011906668 -0.49497718 1.7860001 -2.4484927e+38
0.01523143 -0.4924829 1.7770001 -2.4484408e+38
0.018616192 -0.4924829 1.7770001 -2.4484929e+38
0.021889525 -0.4899886 1.7680001 -2.4219085e+38
0.025257144 -0.4899886 1.7680001 -2.395428e+38
0.028624764 -0.4899886 1.7680001 -2.4087724e+38
0.031992383 -0.4899886 1.7680001 -2.4221174e+38
0.035180002 -0.48749432 1.7590001 -2.4354105e+38
0.03853048 -0.48749432 1.7590001 -2.4354627e+38
0.041880954 -0.48749432 1.7590001 -2.4488071e+38
0.045231432 -0.48749432 1.7590001 -2.4621515e+38
0.048333336 -0.48500004 1.7500001 -2.4355152e+38
0.05166667 -0.48500004 1.7500001 -2.3957422e+38
0.055000003 -0.48500004 1.7500001 -2.4090347e+38
0.058333337 -0.48500004 1.7500001 -2.4090866e+38
0.061666671 -0.48500004 1.7500001 -2.4224308e+38
0.065000005 -0.48500004 1.7500001 -2.4357231e+38
0.068333335 -0.48500004 1.7500001 -2.4357233e+38
0.071666673 -0.48500004 1.7500001 -2.4358269e+38
0.075000003 -0.48500004 1.7500001 -2.4226383e+38
0.078333341 -0.48500004 1.7500001 -2.3959495e+38
0.081666671 -0.48500004 1.7500001 -2.4092933e+38
0.085000008 -0.48500004 1.7500001 -2.4092414e+38
0.088333338 -0.48500004 1.7500001 -2.4224819e+38
0.091195241 -0.48250574 1.7410001 -2.4224817e+38
0.095000006 -0.48500004 1.7500001 -2.4224298e+38
0.097827628 -0.48250574 1.7410001 -2.4091894e+38
0.10166667 -0.48500004 1.7500001 -2.4091894e+38
0.105 -0.48500004 1.7500001 -2.4092412e+38
0.10833334 -0.48500004 1.7500001 -2.4091892e+38
0.11166667 -0.48500004 1.7500001 -2.3960004e+38
0.11500001 -0.48500004 1.7500001 -2.3827598e+38
0.11833334 -0.48500004 1.7500001 -2.3693639e+38
0.12166668 -0.48500004 1.7500001 -2.3958968e+38
0.12500001 -0.48500004 1.7500001 -2.4090854e+38
0.12833335 -0.48500004 1.7500001 -2.4089819e+38
0.13166668 -0.48500004 1.7500001 -2.3956895e+38
0.13500001 -0.48500004 1.7500001 -2.3956375e+38
0.13833334 -0.48500004 1.7500001 -2.3956373e+38
0.14239524 -0.48749432 1.7590001 -2.4089294e+38
0.14574572 -0.48749432 1.7590001 -2.4221698e+38
0.14909621 -0.48749432 1.7590001 -2.4221698e+38
0.15322667 -0.4899886 1.7680001 -2.4088252e+38
0.15659429 -0.4899886 1.7680001 -2.4088765e+38
0.15996191 -0.4899886 1.7680001 -2.4087724e+38
0.16332954 -0.4899886 1.7680001 -2.4219609e+38
0.16669716 -0.4899886 1.7680001 -2.4220126e+38
0.17006478 -0.4899886 1.7680001 -2.4086682e+38
0.17254953 -0.48749432 1.7590001 -2.3820315e+38
0.17590001 -0.48749432 1.7590001 -2.3819794e+38
0.17925049 -0.48749432 1.7590001 -2.3687388e+38
0.18260096 -0.48749432 1.7590001 -2.3687907e+38
0.18690287 -0.4899886 1.7680001 -2.3686871e+38
0.19027048 -0.4899886 1.7680001 -2.3820315e+38
0.19462383 -0.4924829 1.7770001 -2.3820838e+38
0.19800858 -0.4924829 1.7770001 -2.3954284e+38
0.20139335 -0.4924829 1.7770001 -2.3954804e+38
0.20581526 -0.49497718 1.7860001 -2.3954806e+38
0.20921716 -0.49497718 1.7860001 -2.3955325e+38
0.21261907 -0.49497718 1.7860001 -2.3689998e+38
0.21710953 -0.49747145 1.7950001 -2.342467e+38
0.22052859 -0.49747145 1.7950001 -2.3425706e+38
0.22394763 -0.49747145 1.7950001 -2.3425708e+38
0.22977334 -0.50273716 1.8140001 -2.3559672e+38
0.2345143 -0.5055086 1.8240001 -2.3559153e+38
0.23798859 -0.5055086 1.8240001 -2.3825e+38
0.24265431 -0.50800288 1.8330001 -2.3957927e+38
0.24614573 -0.50800288 1.8330001 -2.4091375e+38
0.25099906 -0.51077431 1.8430001 -2.4223255e+38
0.25450954 -0.51077431 1.8430001 -2.4222734e+38
0.25802001 -0.51077431 1.8430001 -2.4222211e+38
0.26294953 -0.51354575 1.853 -2.4088767e+38
0.26791716 -0.51631719 1.863 -2.3821879e+38
0.27146572 -0.51631719 1.863 -2.3953759e+38
0.27501431 -0.51631719 1.863 -2.4086156e+38
0.28005812 -0.51908863 1.8730001 -2.395323e+38
0.28362572 -0.51908863 1.8730001 -2.3686346e+38
0.28719336 -0.51908863 1.8730001 -2.3685824e+38
0.29076096 -0.51908863 1.8730001 -2.3554461e+38
0.2943286 -0.51908863 1.8730001 -2.35555e+38
0.29789621 -0.51908863 1.8730001 -2.3554982e+38
0.30146384 -0.51908863 1.8730001 -2.3687907e+38
0.30503145 -0.51908863 1.8730001 -2.3820832e+38
0.30859905 -0.51908863 1.8730001 -2.408668e+38
0.31216669 -0.51908863 1.8730001 -2.4353564e+38
0.3157343 -0.51908863 1.8730001 -2.4486487e+38
0.31930193 -0.51908863 1.8730001 -2.4620452e+38
0.32286954 -0.51908863 1.8730001 -2.4620977e+38
0.32643718 -0.51908863 1.8730001 -2.4488578e+38
0.33176669 -0.52186006 1.8830001 -2.435618e+38
0.33535334 -0.52186006 1.8830001 -2.4224298e+38
0.33894002 -0.52186006 1.8830001 -2.4357744e+38
0.34252667 -0.52186006 1.8830001 -2.4491192e+38
0.34611335 -0.52186006 1.8830001 -2.4624638e+38
0.34970003 -0.52186006 1.8830001 -2.4625164e+38
0.35328668 -0.52186006 1.8830001 -2.5157382e+38
0.35687336 -0.52186006 1.8830001 -2.555668e+38
0.36256573 -0.5249086 1.8940001 -2.6087862e+38
0.36617336 -0.5249086 1.8940001 -2.6486614e+38
-0.1498743 -0.54827434 1.9920001 nan
-0.14520001 -0.54497147 1.9800001 nan
-0.14142857 -0.54497147 1.9800001 -3.3262486e+38
-0.13765715 -0.54497147 1.9800001 -1.7414037e+38
-0.13388573 -0.54497147 1.9800001 -2.2754831e+38
-0.13011429 -0.54497147 1.9800001 -2.8080069e+38
-0.12564096 -0.54194385 1.9690001 -2.7415991e+38
-0.12189049 -0.54194385 1.9690001 -2.6749819e+38
-0.11814 -0.54194385 1.9690001 -2.6218647e+38
-0.11438953 -0.54194385 1.9690001 -2.5819881e+38
-0.11002096 -0.53891623 1.9580001 -2.5686439e+38
-0.10629144 -0.53891623 1.9580001 -2.5553516e+38
-0.10256191 -0.53891623 1.9580001 -2.5419035e+38
-0.098832384 -0.53891623 1.9580001 -2.528507e+38
-0.095102862 -0.53891623 1.9580001 -2.5152141e+38
-0.091373339 -0.53891623 1.9580001 -2.5019212e+38
-0.087643817 -0.53891623 1.9580001 -2.4886283e+38
-0.083914295 -0.53891623 1.9580001 -2.4886279e+38
-0.080184765 -0.53891623 1.9580001 -2.4752314e+38
-0.076025717 -0.53588861 1.9470001 -2.461887e+38
-0.071500003 -0.52983338 1.9250001 -2.4618349e+38
-0.06674096 -0.52130097 1.8940001 -2.475076e+38
-0.062766671 -0.51827335 1.8830001 -2.4618363e+38
-0.059180003 -0.51827335 1.8830001 -2.4618371e+38
-0.055593338 -0.51827335 1.8830001 -2.4752338e+38
-0.052006669 -0.51827335 1.8830001 -2.4886817e+38
-0.048162859 -0.51552099 1.8730001 -2.4753373e+38
-0.044595242 -0.51552099 1.8730001 -2.4753371e+38
-0.040808573 -0.51276863 1.863 -2.4487521e+38
-0.037260003 -0.51276863 1.863 -2.4354596e+38
-0.033530477 -0.5100162 1.853 -2.4089785e+38
-0.030000955 -0.5100162 1.853 -2.3956349e+38
-0.026328573 -0.50726384 1.8430001 -2.3956874e+38
-0.022818096 -0.50726384 1.8430001 -2.3957394e+38
-0.019202858 -0.50451148 1.8330001 -2.4089797e+38
-0.015634287 -0.50203431 1.8240001 -2.4221677e+38
-0.012093334 -0.49928194 1.8140001 -2.4354594e+38
-0.0085904766 -0.49652955 1.8040001 -2.4487e+38
-0.0051285718 -0.49405241 1.7950001 -2.4487002e+38
-0.001709524 -0.49405241 1.7950001 -2.4486483e+38
0.0017009525 -0.49157527 1.7860001 -2.4486483e+38
0.0051028575 -0.49157527 1.7860001 -2.4486483e+38
0.0085047623 -0.49157527 1.7860001 -2.4485442e+38
0.011906668 -0.49157527 1.7860001 -2.4616288e+38
0.01523143 -0.48909813 1.7770001 -2.4484404e+38
0.018616192 -0.48909813 1.7770001 -2.4351481e+38
0.021889525 -0.48662099 1.7680001 -2.4086674e+38
0.025257144 -0.48662099 1.7680001 -2.3820832e+38
0.028624764 -0.48662099 1.7680001 -2.3821353e+38
0.031992383 -0.48662099 1.7680001 -2.3954284e+38
0.035180002 -0.48414385 1.7590001 -2.4088254e+38
0.03853048 -0.48414385 1.7590001 -2.4354621e+38
0.041880954 -0.48414385 1.7590001 -2.4354623e+38
0.045000002 -0.48166668 1.7500001 -2.4354627e+38
0.048333336 -0.48166668 1.7500001 -2.4221706e+38
0.05166667 -0.48166668 1.7500001 -2.3956382e+38
0.055000003 -0.48166668 1.7500001 -2.4089824e+38
0.058333337 -0.48166668 1.7500001 -2.4090864e+38
0.061666671 -0.48166668 1.7500001 -2.435671e+38
0.065000005 -0.48166668 1.7500001 -2.4489634e+38
0.068333335 -0.48166668 1.7500001 -2.4490156e+38
0.071666673 -0.48166668 1.7500001 -2.4491194e+38
0.075000003 -0.48166668 1.7500001 -2.435775e+38
0.07793048 -0.47918954 1.7410001 -2.4223785e+38
0.081666671 -0.48166668 1.7500001 -2.4224817e+38
0.08456286 -0.47918954 1.7410001 -2.4224821e+38
0.087879054 -0.47918954 1.7410001 -2.4224825e+38
0.091195241 -0.47918954 1.7410001 -2.4357744e+38
0.095000006 -0.48166668 1.7500001 -2.4224817e+38
0.098333336 -0.48166668 1.7500001 -2.4092416e+38
0.10166667 -0.48166668 1.7500001 -2.4092416e+38
0.105 -0.48166668 1.7500001 -2.409345e+38
0.10833334 -0.48166668 1.7500001 -2.4092927e+38
0.11166667 -0.48166668 1.7500001 -2.4093963e+38
0.11500001 -0.48166668 1.7500001 -2.4092401e+38
0.11833334 -0.48166668 1.7500001 -2.4091886e+38
0.12166668 -0.48166668 1.7500001 -2.409085e+38
0.12500001 -0.48166668 1.7500001 -2.4089815e+38
0.12833335 -0.48166668 1.7500001 -2.4089298e+38
0.13166668 -0.48166668 1.7500001 -2.3955858e+38
0.13500001 -0.48166668 1.7500001 -2.3955858e+38
0.13833334 -0.48166668 1.7500001 -2.3955854e+38
0.14239524 -0.48414385 1.7590001 -2.3955329e+38
0.14574572 -0.48414385 1.7590001 -2.3955329e+38
0.14909621 -0.48414385 1.7590001 -2.3955329e+38
0.15322667 -0.48662099 1.7680001 -2.3821883e+38
0.15659429 -0.48662099 1.7680001 -2.3954799e+38
0.15996191 -0.48662099 1.7680001 -2.3954282e+38
0.16332954 -0.48662099 1.7680001 -2.3821359e+38
0.16584858 -0.48414385 1.7590001 -2.3821357e+38
0.16919906 -0.48414385 1.7590001 -2.3687913e+38
0.17254953 -0.48414385 1.7590001 -2.3687394e+38
0.17590001 -0.48414385 1.7590001 -2.3686873e+38
0.17925049 -0.48414385 1.7590001 -2.3686352e+38
0.18260096 -0.48414385 1.7590001 -2.3687388e+38
0.18690287 -0.48662099 1.7680001 -2.3686352e+38
0.19027048 -0.48662099 1.7680001 -2.3554469e+38
0.1936381 -0.48662099 1.7680001 -2.3554993e+38
0.19800858 -0.48909813 1.7770001 -2.3556035e+38
0.20139335 -0.48909813 1.7770001 -2.3556554e+38
0.20581526 -0.49157527 1.7860001 -2.3423632e+38
0.20921716 -0.49157527 1.7860001 -2.3423632e+38
0.21261907 -0.49157527 1.7860001 -2.3291747e+38
0.21710953 -0.49405241 1.7950001 -2.3159344e+38
0.22052859 -0.49405241 1.7950001 -2.3293305e+38
0.22394763 -0.49405241 1.7950001 -2.3426747e+38
0.22977334 -0.49928194 1.8140001 -2.355967e+38
0.2345143 -0.50203431 1.8240001 -2.3824996e+38
0.23798859 -0.50203431 1.8240001 -2.3957917e+38
0.24265431 -0.50451148 1.8330001 -2.4089807e+38
0.24614573 -0.50451148 1.8330001 -2.4223253e+38
0.25099906 -0.50726384 1.8430001 -2.4222734e+38
0.25450954 -0.50726384 1.8430001 -2.4222213e+38
0.25802001 -0.50726384 1.8430001 -2.4088773e+38
0.26153049 -0.50726384 1.8430001 -2.3955333e+38
0.26647907 -0.5100162 1.853 -2.3821887e+38
0.27146572 -0.51276863 1.863 -2.3688441e+38
0.27501431 -0.51276863 1.863 -2.3687917e+38
0.28005812 -0.51552099 1.8730001 -2.3687394e+38
0.28362572 -0.51552099 1.8730001 -2.3686871e+38
0.28719336 -0.51552099 1.8730001 -2.3687386e+38
0.29076096 -0.51552099 1.8730001 -2.3555506e+38
0.2943286 -0.51552099 1.8730001 -2.3554989e+38
0.29789621 -0.51552099 1.8730001 -2.3687913e+38
0.30146384 -0.51552099 1.8730001 -2.3688433e+38
0.30503145 -0.51552099 1.8730001 -2.3821357e+38
0.30859905 -0.51552099 1.8730001 -2.4087205e+38
0.31216669 -0.51552099 1.8730001 -2.4220645e+38
0.3157343 -0.51552099 1.8730001 -2.4487006e+38
0.31930193 -0.51552099 1.8730001 -2.4753894e+38
0.32286954 -0.51552099 1.8730001 -2.4620975e+38
0.32643718 -0.51552099 1.8730001 -2.4488576e+38
0.33000478 -0.51552099 1.8730001 -2.4489618e+38
0.33357242 -0.51552099 1.8730001 -2.4357738e+38
0.33714002 -0.51552099 1.8730001 -2.4358261e+38
0.34252667 -0.51827335 1.8830001 -2.4492227e+38
0.34611335 -0.51827335 1.8830001 -2.4625153e+38
0.34970003 -0.51827335 1.8830001 -2.4758084e+38
0.35328668 -0.51827335 1.8830001 -2.5157378e+38
0.35687336 -0.51827335 1.8830001 -2.5689601e+38
0.36046001 -0.51827335 1.8830001 -2.555565e+38
0.36617336 -0.52130097 1.8940001 -2.5556161e+38
0.36763334 -0.51827335 1.8830001 -2.3956923e+38
-0.14520001 -0.54120004 1.9800001 nan
-0.14142857 -0.54120004 1.9800001 -3.3100434e+38
-0.13765715 -0.54120004 1.9800001 -1.7289929e+38
-0.13388573 -0.54120004 1.9800001 -2.2761608e+38
-0.13011429 -0.54120004 1.9800001 -2.8080083e+38
-0.12634286 -0.54120004 1.9800001 -2.7415473e+38
-0.12189049 -0.53819335 1.9690001 -2.6616898e+38
-0.11814 -0.53819335 1.9690001 -2.6351051e+38
-0.11438953 -0.53819335 1.9690001 -2.5951244e+38
-0.11002096 -0.53518671 1.9580001 -2.568436e+38
-0.10629144 -0.53518671 1.9580001 -2.5419553e+38
-0.10256191 -0.53518671 1.9580001 -2.528663e+38
-0.098832384 -0.53518671 1.9580001 -2.5153182e+38
-0.095102862 -0.53518671 1.9580001 -2.5019736e+38
-0.091373339 -0.53518671 1.9580001 -2.4886807e+38
-0.087643817 -0.53518671 1.9580001 -2.4886803e+38
-0.083914295 -0.53518671 1.9580001 -2.488576e+38
-0.079734288 -0.53218001 1.9470001 -2.4752835e+38
-0.076025717 -0.53218001 1.9470001 -2.4618355e+38
-0.071128577 -0.52343339 1.9150001 -2.474972e+38
-0.06674096 -0.51769334 1.8940001 -2.4750243e+38
-0.062766671 -0.5146867 1.8830001 -2.4618363e+38
-0.059180003 -0.5146867 1.8830001 -2.4353043e+38
-0.055593338 -0.5146867 1.8830001 -2.4619933e+38
-0.052006669 -0.5146867 1.8830001 -2.4753892e+38
-0.048162859 -0.51195335 1.8730001 -2.4753369e+38
-0.044357147 -0.50922 1.863 -2.4620963e+38
-0.040808573 -0.50922 1.863 -2.4488038e+38
-0.037260003 -0.50922 1.863 -2.4355113e+38
-0.033530477 -0.50648671 1.853 -2.4356152e+38
-0.02983905 -0.50375336 1.8430001 -2.4222195e+38
-0.026328573 -0.50375336 1.8430001 -2.4222199e+38
-0.022818096 -0.50375336 1.8430001 -2.4222199e+38
-0.019202858 -0.50102001 1.8330001 -2.4221682e+38
-0.015634287 -0.49856004 1.8240001 -2.4221677e+38
-0.012093334 -0.49582669 1.8140001 -2.4354598e+38
-0.0085904766 -0.49309337 1.8040001 -2.4487523e+38
-0.0051285718 -0.49063337 1.7950001 -2.4487525e+38
-0.001709524 -0.49063337 1.7950001 -2.4487525e+38
0.0017009525 -0.48817337 1.7860001 -2.4487525e+38
0.0051028575 -0.48817337 1.7860001 -2.4486485e+38
0.0085047623 -0.48817337 1.7860001 -2.4618369e+38
0.011906668 -0.48817337 1.7860001 -2.4618367e+38
0.01523143 -0.48571336 1.7770001 -2.4353041e+38
0.018616192 -0.48571336 1.7770001 -2.4086674e+38
0.021889525 -0.48325336 1.7680001 -2.395427e+38
0.025257144 -0.48325336 1.7680001 -2.3688427e+38
0.028624764 -0.48325336 1.7680001 -2.368895e+38
0.031992383 -0.48325336 1.7680001 -2.3556552e+38
0.035360001 -0.48325336 1.7680001 -2.3955846e+38
0.03853048 -0.48079336 1.7590001 -2.4354097e+38
0.041880954 -0.48079336 1.7590001 -2.4220657e+38
0.045231432 -0.48079336 1.7590001 -2.4087739e+38
0.048333336 -0.47833335 1.7500001 -2.4087743e+38
0.05166667 -0.47833335 1.7500001 -2.3955341e+38
0.055000003 -0.47833335 1.7500001 -2.4088266e+38
0.058333337 -0.47833335 1.7500001 -2.4089306e+38
0.061666671 -0.47833335 1.7500001 -2.4355154e+38
0.065000005 -0.47833335 1.7500001 -2.4621519e+38
0.068333335 -0.47833335 1.7500001 -2.4622038e+38
0.071666673 -0.47833335 1.7500001 -2.4622557e+38
0.074614294 -0.47587335 1.7410001 -2.4489634e+38
0.07793048 -0.47587335 1.7410001 -2.4356708e+38
0.081666671 -0.47833335 1.7500001 -2.4357223e+38
0.08456286 -0.47587335 1.7410001 -2.4224821e+38
0.088333338 -0.47833335 1.7500001 -2.4357746e+38
0.091195241 -0.47587335 1.7410001 -2.4357225e+38
0.095000006 -0.47833335 1.7500001 -2.42243e+38
0.098333336 -0.47833335 1.7500001 -2.4091896e+38
0.10166667 -0.47833335 1.7500001 -2.4091894e+38
0.105 -0.47833335 1.7500001 -2.4092412e+38
0.10777619 -0.47587335 1.7410001 -2.4225332e+38
0.11166667 -0.47833335 1.7500001 -2.4224811e+38
0.11500001 -0.47833335 1.7500001 -2.4356174e+38
0.11833334 -0.47833335 1.7500001 -2.4489097e+38
0.12166668 -0.47833335 1.7500001 -2.4355657e+38
0.12500001 -0.47833335 1.7500001 -2.4089811e+38
0.12833335 -0.47833335 1.7500001 -2.4089294e+38
0.13166668 -0.47833335 1.7500001 -2.3955854e+38
0.13500001 -0.47833335 1.7500001 -2.3955854e+38
0.13904478 -0.48079336 1.7590001 -2.3822408e+38
0.14239524 -0.48079336 1.7590001 -2.3821364e+38
0.14574572 -0.48079336 1.7590001 -2.368896e+38
0.14909621 -0.48079336 1.7590001 -2.368896e+38
0.15322667 -0.48325336 1.7680001 -2.3555516e+38
0.15659429 -0.48325336 1.7680001 -2.3688437e+38
0.15996191 -0.48325336 1.7680001 -2.3821359e+38
0.16332954 -0.48325336 1.7680001 -2.3555514e+38
0.16584858 -0.48079336 1.7590001 -2.3289664e+38
0.16919906 -0.48079336 1.7590001 -2.3422585e+38
0.17254953 -0.48079336 1.7590001 -2.3554467e+38
0.17590001 -0.48079336 1.7590001 -2.3686352e+38
0.17925049 -0.48079336 1.7590001 -2.3686871e+38
0.18260096 -0.48079336 1.7590001 -2.3687909e+38
0.18595144 -0.48079336 1.7590001 -2.3554469e+38
0.19027048 -0.48325336 1.7680001 -2.3422068e+38
0.1936381 -0.48325336 1.7680001 -2.3156745e+38
0.19800858 -0.48571336 1.7770001 -2.3157786e+38
0.20139335 -0.48571336 1.7770001 -2.3157788e+38
0.20581526 -0.48817337 1.7860001 -2.3024865e+38
0.20921716 -0.48817337 1.7860001 -2.2760058e+38
0.21261907 -0.48817337 1.7860001 -2.2760577e+38
0.21710953 -0.49063337 1.7950001 -2.2762137e+38
0.22052859 -0.49063337 1.7950001 -2.3161946e+38
0.22507049 -0.49309337 1.8040001 -2.3427272e+38
0.22977334 -0.49582669 1.8140001 -2.3692599e+38
0.2345143 -0.49856004 1.8240001 -2.3958444e+38
0.23916288 -0.50102001 1.8330001 -2.4091365e+38
0.24265431 -0.50102001 1.8330001 -2.4223253e+38
0.24614573 -0.50102001 1.8330001 -2.4222736e+38
0.25099906 -0.50375336 1.8430001 -2.4222734e+38
0.25312859 -0.50102001 1.8330001 -2.408929e+38
0.25802001 -0.50375336 1.8430001 -2.3955848e+38
0.26153049 -0.50375336 1.8430001 -2.3955331e+38
0.26504096 -0.50375336 1.8430001 -2.3821887e+38
0.27146572 -0.50922 1.863 -2.3555001e+38
0.27501431 -0.50922 1.863 -2.3155707e+38
0.28005812 -0.51195335 1.8730001 -2.3421029e+38
0.28362572 -0.51195335 1.8730001 -2.3686873e+38
0.28719336 -0.51195335 1.8730001 -2.368739e+38
0.29076096 -0.51195335 1.8730001 -2.3554467e+38
0.2943286 -0.51195335 1.8730001 -2.3686354e+38
0.29789621 -0.51195335 1.8730001 -2.3687913e+38
0.30146384 -0.51195335 1.8730001 -2.3821357e+38
0.30503145 -0.51195335 1.8730001 -2.3821357e+38
0.30859905 -0.51195335 1.8730001 -2.3954799e+38
0.31216669 -0.51195335 1.8730001 -2.4088239e+38
0.31742004 -0.5146867 1.8830001 -2.4487527e+38
0.31930193 -0.51195335 1.8730001 -2.4753377e+38
0.32459337 -0.5146867 1.8830001 -2.462046e+38
0.32643718 -0.51195335 1.8730001 -2.4488578e+38
0.33176669 -0.5146867 1.8830001 -2.4489101e+38
0.33535334 -0.5146867 1.8830001 -2.4490142e+38
0.33894002 -0.5146867 1.8830001 -2.449118e+38
0.34252667 -0.5146867 1.8830001 -2.435878e+38
0.34611335 -0.5146867 1.8830001 -2.4625147e+38
0.34970003 -0.5146867 1.8830001 -2.4891001e+38
0.35328668 -0.5146867 1.8830001 -2.5289258e+38
0.35895813 -0.51769334 1.8940001 -2.5688037e+38
0.36256573 -0.51769334 1.8940001 -2.5155315e+38
0.36617336 -0.51769334 1.8940001 -2.4488101e+38
-0.14608 -0.54068577 1.9920001 nan
-0.14228572 -0.54068577 1.9920001 -3.2863613e+38
-0.13765715 -0.53742862 1.9800001 -1.7150761e+38
-0.13388573 -0.53742862 1.9800001 -2.2623e+38
-0.13011429 -0.53742862 1.9800001 -2.7948213e+38
-0.12564096 -0.5344429 1.9690001 -2.7281514e+38
-0.12189049 -0.5344429 1.9690001 -2.6616379e+38
-0.11814 -0.5344429 1.9690001 -2.6217089e+38
-0.11438953 -0.5344429 1.9690001 -2.5816763e+38
-0.11002096 -0.53145719 1.9580001 -2.5551954e+38
-0.10629144 -0.53145719 1.9580001 -2.5285589e+38
-0.10256191 -0.53145719 1.9580001 -2.5020782e+38
-0.098832384 -0.53145719 1.9580001 -2.4887853e+38
-0.095102862 -0.53145719 1.9580001 -2.4887328e+38
-0.091373339 -0.53145719 1.9580001 -2.4753882e+38
-0.087643817 -0.53145719 1.9580001 -2.4619916e+38
-0.083914295 -0.53145719 1.9580001 -2.4485955e+38
-0.080184765 -0.53145719 1.9580001 -2.4352511e+38
-0.076455243 -0.53145719 1.9580001 -2.4351994e+38
-0.071128577 -0.51978576 1.9150001 -2.4484398e+38
-0.06674096 -0.51408577 1.8940001 -2.4616803e+38
-0.062766671 -0.51110005 1.8830001 -2.4351998e+38
-0.059180003 -0.51110005 1.8830001 -2.4220639e+38
-0.055593338 -0.51110005 1.8830001 -2.4355643e+38
-0.052006669 -0.51110005 1.8830001 -2.44896e+38
-0.048162859 -0.50838578 1.8730001 -2.4621999e+38
-0.044357147 -0.50567144 1.863 -2.4754403e+38
-0.040808573 -0.50567144 1.863 -2.4753882e+38
-0.037260003 -0.50567144 1.863 -2.462044e+38
-0.033530477 -0.50295717 1.853 -2.4488555e+38
-0.02983905 -0.50024289 1.8430001 -2.4487521e+38
-0.026328573 -0.50024289 1.8430001 -2.43546e+38
-0.022694288 -0.49752861 1.8330001 -2.4353564e+38
-0.019202858 -0.49752861 1.8330001 -2.4354083e+38
-0.015548573 -0.49237147 1.8140001 -2.4354602e+38
-0.012026668 -0.48965716 1.8040001 -2.4487525e+38
-0.0085904766 -0.48965716 1.8040001 -2.4619931e+38
-0.0051285718 -0.48721433 1.7950001 -2.462045e+38
-0.001709524 -0.48721433 1.7950001 -2.4753373e+38
0.001709524 -0.48721433 1.7950001 -2.4619931e+38
0.0051028575 -0.48477146 1.7860001 -2.4619411e+38
0.0085047623 -0.48477146 1.7860001 -2.4619929e+38
0.011906668 -0.48477146 1.7860001 -2.4619407e+38
0.01523143 -0.48232859 1.7770001 -2.435356e+38
0.018616192 -0.48232859 1.7770001 -2.4086674e+38
0.022000954 -0.48232859 1.7770001 -2.3821345e+38
0.025257144 -0.47988576 1.7680001 -2.3687907e+38
0.028624764 -0.47988576 1.7680001 -2.3556025e+38
0.031992383 -0.47988576 1.7680001 -2.3556548e+38
0.035360001 -0.47988576 1.7680001 -2.3821359e+38
0.03853048 -0.47744289 1.7590001 -2.4219611e+38
0.041880954 -0.47744289 1.7590001 -2.408669e+38
