# .PCD v0.7 - Point Cloud Data file format
VERSION 0.7
FIELDS x y z rgb
SIZE 4 4 4 4
TYPE F F F F
COUNT 1 1 1 1
WIDTH 1153
HEIGHT 1
VIEWPOINT 0 0 0 1 0 0 0
POINTS 1153
DATA ascii
4.139822 -0.029184792 2.0868216 nan
4.1398039 -0.036712389 2.0868216 nan
4.1397853 -0.044239987 2.0868216 nan
4.1397667 -0.051767584 2.0868216 nan
4.1397481 -0.059295181 2.0868216 nan
4.1397295 -0.066822775 2.0868216 nan
4.1397114 -0.074350372 2.0868216 nan
4.1396928 -0.081877969 2.0868216 nan
4.1396742 -0.089405566 2.0868216 nan
4.1856551 -0.097265214 2.0966787 nan
4.1396375 -0.10446076 2.0868216 nan
4.1856174 -0.11249565 2.0966787 nan
4.1855989 -0.12011086 2.0966787 nan
4.1855803 -0.12772608 2.0966787 nan
4.2325592 -0.13612819 2.1067502 nan
4.2325406 -0.14383292 2.1067502 nan
4.2805195 -0.15252414 2.1170359 nan
4.2805004 -0.16032031 2.1170359 nan
4.2804813 -0.16811648 2.1170359 nan
4.2804623 -0.17591265 2.1170359 nan
4.2804432 -0.18370882 2.1170359 nan
4.2804241 -0.19150499 2.1170359 -2.8892155e+38
4.232408 -0.1977661 2.1067502 -2.0357582e+38
4.232389 -0.20547083 2.1067502 -2.3020715e+38
4.2803664 -0.21489349 2.1170359 -2.568695e+38
4.3293428 -0.22453669 2.1275361 -2.5555053e+38
4.4303136 -0.23642573 2.1491787 -2.5553491e+38
4.4832888 -0.24670732 2.1605361 -2.5550891e+38
4.4832687 -0.25489014 2.1605361 -2.5416928e+38
4.4832482 -0.26307297 2.1605361 -2.5282445e+38
4.5372224 -0.27380559 2.1721075 -2.5150044e+38
4.5372019 -0.28209129 2.1721075 -2.5150565e+38
4.5371814 -0.29037699 2.1721075 -2.5283997e+38
4.5371614 -0.29866266 2.1721075 -2.3949045e+38
4.5931334 -0.31001925 2.1841073 -2.2611011e+38
4.4845753 0.27699402 2.152353 nan
4.4845552 0.2688112 2.152353 nan
4.4315248 0.25656903 2.1410971 nan
4.4315047 0.24848717 2.1410971 nan
4.4314852 0.24040526 2.1410971 nan
4.4314651 0.23232338 2.1410971 nan
4.4314451 0.2242415 2.1410971 -2.9664701e+38
4.4314256 0.21615964 2.1410971 -2.0091169e+38
4.3803973 0.20475444 2.1302655 -2.3025879e+38
4.3303699 0.19360685 2.1196465 -2.5814137e+38
4.2813435 0.18271104 2.1092398 -2.5679133e+38
4.1863098 0.16926733 2.0890636 -2.5413811e+38
4.1862912 0.16165212 2.0890636 -2.5547776e+38
4.1862721 0.15403691 2.0890636 -2.5549338e+38
4.1402473 0.14394993 2.0792942 -2.5416938e+38
4.186235 0.13880646 2.0890636 -2.5152656e+38
4.1862164 0.13119125 2.0890636 -2.5286104e+38
4.1861973 0.12357604 2.0890636 -2.5286104e+38
4.2331839 0.1181282 2.0990455 -2.5153182e+38
4.2331648 0.11042345 2.0990455 -2.488316e+38
4.2331462 0.10271873 2.0990455 -2.1547606e+38
4.2331271 0.095013998 2.0990455 -1.8106776e+38
4.233108 0.087309249 2.0990455 -2.8520554e+38
4.1860852 0.077884741 2.0890636 nan
4.1860666 0.070269533 2.0890636 nan
4.186048 0.062654309 2.0890636 nan
4.186029 0.055039093 2.0890636 nan
4.1860104 0.047423869 2.0890636 nan
4.1859918 0.039808661 2.0890636 nan
4.1399703 0.031035975 2.0792942 nan
4.1399517 0.023508385 2.0792942 nan
4.1399145 0.0084531903 2.0792942 nan
4.1398959 0.00092559308 2.0792942 nan
4.1398592 -0.014129598 2.0792942 nan
4.1398406 -0.021657195 2.0792942 nan
4.139822 -0.029184792 2.0792942 nan
4.1398039 -0.036712389 2.0792942 nan
4.1397853 -0.044239987 2.0792942 nan
4.1397667 -0.051767584 2.0792942 nan
4.1397481 -0.059295181 2.0792942 nan
4.1397295 -0.066822775 2.0792942 nan
4.1857109 -0.074419565 2.0890636 nan
4.1856923 -0.082034782 2.0890636 nan
4.1856737 -0.089649998 2.0890636 nan
4.1856551 -0.097265214 2.0890636 nan
4.1396375 -0.10446076 2.0792942 nan
4.2326159 -0.11301396 2.0990455 nan
4.1855989 -0.12011086 2.0890636 nan
4.1855803 -0.12772608 2.0890636 nan
4.1855617 -0.13534129 2.0890636 nan
4.2325406 -0.14383292 2.0990455 nan
4.2325215 -0.15153766 2.0990455 nan
4.2805004 -0.16032031 2.1092398 nan
4.2804813 -0.16811648 2.1092398 nan
4.2804623 -0.17591265 2.1092398 nan
4.2804432 -0.18370882 2.1092398 nan
4.2804241 -0.19150499 2.1092398 -3.0212051e+38
4.232408 -0.1977661 2.0990455 -2.2485901e+38
4.232389 -0.20547083 2.0990455 -2.4082522e+38
4.2323699 -0.21317557 2.0990455 -2.5551944e+38
4.3293428 -0.22453669 2.1196465 -2.5423175e+38
4.4303136 -0.23642573 2.1410971 -2.5286613e+38
4.4302936 -0.24450758 2.1410971 -2.5284015e+38
4.4832687 -0.25489014 2.152353 -2.515005e+38
4.4832482 -0.26307297 2.152353 -2.514849e+38
4.5372224 -0.27380559 2.1638217 -2.5016606e+38
4.5372019 -0.28209129 2.1638217 -2.515005e+38
4.5371814 -0.29037699 2.1638217 -2.5150038e+38
4.5371614 -0.29866266 2.1638217 -2.3685281e+38
4.5931334 -0.31001925 2.175715 -2.2093872e+38
4.5931129 -0.31841162 2.175715 -3.0756731e+38
4.4845753 0.27699402 2.1441703 nan
4.4845552 0.2688112 2.1441703 nan
4.4845352 0.26062831 2.1441703 nan
4.4315047 0.24848717 2.1330152 nan
4.4314852 0.24040526 2.1330152 nan
4.4314651 0.23232338 2.1330152 -3.1311274e+38
4.4314451 0.2242415 2.1330152 -2.715007e+38
4.4314256 0.21615964 2.1330152 -2.3147355e+38
4.3803973 0.20475444 2.1222806 -2.4350434e+38
4.3303699 0.19360685 2.1117568 -2.5679139e+38
4.2813435 0.18271104 2.1014435 -2.541277e+38
4.1863098 0.16926733 2.0814483 -2.5279851e+38
4.1862912 0.16165212 2.0814483 -2.5281411e+38
4.1862721 0.15403691 2.0814483 -2.5415896e+38
4.1402473 0.14394993 2.0717664 -2.5284013e+38
4.186235 0.13880646 2.0814483 -2.5284539e+38
4.1862164 0.13119125 2.0814483 -2.515266e+38
4.1861973 0.12357604 2.0814483 -2.515266e+38
4.1861787 0.11596081 2.0814483 -2.515266e+38
4.2331648 0.11042345 2.0913408 -2.5018689e+38
4.2331462 0.10271873 2.0913408 -2.2615682e+38
4.2331271 0.095013998 2.0913408 -2.0215893e+38
4.233108 0.087309249 2.0913408 -2.8373081e+38
4.1860852 0.077884741 2.0814483 nan
4.1860666 0.070269533 2.0814483 nan
4.186048 0.062654309 2.0814483 nan
4.186029 0.055039093 2.0814483 nan
4.1860104 0.047423869 2.0814483 nan
4.1859918 0.039808661 2.0814483 nan
4.1859732 0.032193445 2.0814483 nan
4.1399517 0.023508385 2.0717664 nan
4.1859355 0.016963013 2.0814483 nan
4.1399145 0.0084531903 2.0717664 nan
4.1398959 0.00092559308 2.0717664 nan
4.1398592 -0.014129598 2.0717664 nan
4.1398406 -0.021657195 2.0717664 nan
4.139822 -0.029184792 2.0717664 nan
4.1398039 -0.036712389 2.0717664 nan
4.1397853 -0.044239987 2.0717664 nan
4.1397667 -0.051767584 2.0717664 nan
4.1397481 -0.059295181 2.0717664 nan
4.18573 -0.066804349 2.0814483 nan
4.1857109 -0.074419565 2.0814483 nan
4.1856923 -0.082034782 2.0814483 nan
4.1856737 -0.089649998 2.0814483 nan
4.1856551 -0.097265214 2.0814483 nan
4.1396375 -0.10446076 2.0717664 nan
4.1856174 -0.11249565 2.0814483 nan
4.1855989 -0.12011086 2.0814483 nan
4.1855803 -0.12772608 2.0814483 nan
4.1855617 -0.13534129 2.0814483 nan
4.2325406 -0.14383292 2.0913408 nan
4.2325215 -0.15153766 2.0913408 nan
4.2805004 -0.16032031 2.1014435 nan
4.2804813 -0.16811648 2.1014435 nan
4.2804623 -0.17591265 2.1014435 nan
4.2804432 -0.18370882 2.1014435 nan
4.2804241 -0.19150499 2.1014435 -2.9947775e+38
4.2804046 -0.19930115 2.1014435 -2.3267339e+38
4.232389 -0.20547083 2.0913408 -2.4479714e+38
4.2323699 -0.21317557 2.0913408 -2.568538e+38
4.2803473 -0.22268966 2.1014435 -2.5420066e+38
4.3293233 -0.2324262 2.1117568 -2.5152141e+38
4.4302936 -0.24450758 2.1330152 -2.515006e+38
4.4832687 -0.25489014 2.1441703 -2.5015578e+38
4.4832482 -0.26307297 2.1441703 -2.5015574e+38
4.5372224 -0.27380559 2.1555359 -2.5016093e+38
4.5372019 -0.28209129 2.1555359 -2.5150052e+38
4.5371814 -0.29037699 2.1555359 -2.5284522e+38
4.5371614 -0.29866266 2.1555359 -2.3818206e+38
4.5931334 -0.31001925 2.1673226 -2.2222136e+38
4.6501055 -0.32164592 2.1793199 -3.1021045e+38
4.5385861 0.28133562 2.1472502 nan
4.5385656 0.27304992 2.1472502 nan
4.4845352 0.26062831 2.1359873 nan
4.4315047 0.24848717 2.1249332 nan
4.4314852 0.24040526 2.1249332 nan
4.4314651 0.23232338 2.1249332 -2.3171278e+38
4.4314451 0.2242415 2.1249332 -2.4610526e+38
4.4314256 0.21615964 2.1249332 -2.6076849e+38
4.3803973 0.20475444 2.114296 -2.5814658e+38
4.3303699 0.19360685 2.1038675 -2.5413811e+38
4.2813435 0.18271104 2.0936475 -2.5279328e+38
4.1863098 0.16926733 2.073833 -2.5014523e+38
4.1862912 0.16165212 2.073833 -2.5147969e+38
4.1862721 0.15403691 2.073833 -2.5149531e+38
4.1402473 0.14394993 2.0642388 -2.5284015e+38
4.186235 0.13880646 2.073833 -2.5284539e+38
4.1862164 0.13119125 2.073833 -2.5152658e+38
4.1861973 0.12357604 2.073833 -2.5019216e+38
4.2331839 0.1181282 2.083636 -2.5152139e+38
4.2331648 0.11042345 2.083636 -2.5149012e+38
4.2331462 0.10271873 2.083636 -2.3812502e+38
4.2331271 0.095013998 2.083636 -2.2360827e+38
4.233108 0.087309249 2.083636 -2.8378793e+38
4.1860852 0.077884741 2.073833 nan
4.1860666 0.070269533 2.073833 nan
4.186048 0.062654309 2.073833 nan
4.186029 0.055039093 2.073833 nan
4.1860104 0.047423869 2.073833 nan
4.1399884 0.038563572 2.0642388 nan
4.1399703 0.031035975 2.0642388 nan
4.1399517 0.023508385 2.0642388 nan
4.1399331 0.015980788 2.0642388 nan
4.1399145 0.0084531903 2.0642388 nan
4.1398959 0.00092559308 2.0642388 nan
4.1398592 -0.014129598 2.0642388 nan
4.1398406 -0.021657195 2.0642388 nan
4.139822 -0.029184792 2.0642388 nan
4.1397853 -0.044239987 2.0642388 nan
4.1397667 -0.051767584 2.0642388 nan
4.1857486 -0.059189137 2.073833 nan
4.18573 -0.066804349 2.073833 nan
4.1857109 -0.074419565 2.073833 nan
4.1856923 -0.082034782 2.073833 nan
4.1856737 -0.089649998 2.073833 nan
4.1856551 -0.097265214 2.073833 nan
4.185636 -0.10488043 2.073833 nan
4.2326159 -0.11301396 2.083636 nan
4.2325974 -0.1207187 2.083636 nan
4.2325783 -0.12842344 2.083636 nan
4.2325592 -0.13612819 2.083636 nan
4.2325406 -0.14383292 2.083636 nan
4.2325215 -0.15153766 2.083636 nan
4.2805004 -0.16032031 2.0936475 nan
4.2804813 -0.16811648 2.0936475 nan
4.2804623 -0.17591265 2.0936475 nan
4.2804432 -0.18370882 2.0936475 nan
4.2804241 -0.19150499 2.0936475 -2.980812e+38
4.2804046 -0.19930115 2.0936475 -2.3950141e+38
4.232389 -0.20547083 2.083636 -2.4882647e+38
4.2323699 -0.21317557 2.083636 -2.5816747e+38
4.2803473 -0.22268966 2.0936475 -2.5419544e+38
4.3293233 -0.2324262 2.1038675 -2.5018695e+38
4.4302936 -0.24450758 2.1249332 -2.5015578e+38
4.4832687 -0.25489014 2.1359873 -2.4882653e+38
4.5372429 -0.26551992 2.1472502 -2.4882651e+38
4.5372224 -0.27380559 2.1472502 -2.488317e+38
4.5372019 -0.28209129 2.1472502 -2.5149014e+38
4.5371814 -0.29037699 2.1472502 -2.5414334e+38
4.5371614 -0.29866266 2.1472502 -2.3948542e+38
4.5931334 -0.31001925 2.1589303 -2.2360772e+38
4.5931129 -0.31841162 2.1589303 -3.1289481e+38
4.4845552 0.2688112 2.1278045 nan
4.4315248 0.25656903 2.1168513 nan
4.4315047 0.24848717 2.1168513 nan
4.4314852 0.24040526 2.1168513 nan
4.4314651 0.23232338 2.1168513 -2.0081829e+38
4.4314451 0.2242415 2.1168513 -2.3149419e+38
4.4314256 0.21615964 2.1168513 -2.6081524e+38
4.3803973 0.20475444 2.1063113 -2.5681212e+38
4.3803778 0.19676971 2.1063113 -2.5281405e+38
4.2813435 0.18271104 2.0858512 -2.5147963e+38
4.2813239 0.1749149 2.0858512 -2.5148484e+38
4.1862912 0.16165212 2.0662179 -2.5148486e+38
4.1862721 0.15403691 2.0662179 -2.5149531e+38
4.1862535 0.14642167 2.0662179 -2.5150573e+38
4.186235 0.13880646 2.0662179 -2.5284017e+38
4.1862164 0.13119125 2.0662179 -2.5151616e+38
4.2332029 0.12583295 2.0759311 -2.5018176e+38
4.2331839 0.1181282 2.0759311 -2.4885772e+38
4.2331648 0.11042345 2.0759311 -2.4752316e+38
4.2331462 0.10271873 2.0759311 -2.2486903e+38
4.2331271 0.095013998 2.0759311 -2.0358676e+38
4.233108 0.087309249 2.0759311 -2.58382e+38
4.2330894 0.079604514 2.0759311 -3.1312988e+38
4.1860666 0.070269533 2.0662179 -3.3976147e+38
4.186048 0.062654309 2.0662179 nan
4.186029 0.055039093 2.0662179 nan
4.1860104 0.047423869 2.0662179 nan
4.1399884 0.038563572 2.0567112 nan
4.1399703 0.031035975 2.0567112 nan
4.1399517 0.023508385 2.0567112 nan
4.1399331 0.015980788 2.0567112 nan
4.1399145 0.0084531903 2.0567112 nan
4.1398959 0.00092559308 2.0567112 nan
4.1398406 -0.021657195 2.0567112 nan
4.139822 -0.029184792 2.0567112 nan
4.1397667 -0.051767584 2.0567112 nan
4.1397481 -0.059295181 2.0567112 nan
4.18573 -0.066804349 2.0662179 nan
4.1857109 -0.074419565 2.0662179 nan
4.1856923 -0.082034782 2.0662179 nan
4.1856737 -0.089649998 2.0662179 nan
4.1856551 -0.097265214 2.0662179 nan
4.185636 -0.10488043 2.0662179 nan
4.2326159 -0.11301396 2.0759311 nan
4.2325974 -0.1207187 2.0759311 nan
4.2325783 -0.12842344 2.0759311 nan
4.1855617 -0.13534129 2.0662179 nan
4.1855426 -0.14295651 2.0662179 nan
4.2325215 -0.15153766 2.0759311 nan
4.2805004 -0.16032031 2.0858512 nan
4.2804813 -0.16811648 2.0858512 nan
4.2804623 -0.17591265 2.0858512 nan
4.2804432 -0.18370882 2.0858512 -3.2774068e+38
4.2804241 -0.19150499 2.0858512 -2.7956564e+38
4.2804046 -0.19930115 2.0858512 -2.3159885e+38
4.232389 -0.20547083 2.0759311 -2.4486483e+38
4.2323699 -0.21317557 2.0759311 -2.581779e+38
4.2803473 -0.22268966 2.0858512 -2.5551425e+38
4.4303136 -0.23642573 2.1168513 -2.5284019e+38
4.4302936 -0.24450758 2.1168513 -2.5150573e+38
4.4832687 -0.25489014 2.1278045 -2.5016093e+38
4.5372429 -0.26551992 2.1389647 -2.5016093e+38
4.5372224 -0.27380559 2.1389647 -2.5016612e+38
4.5372019 -0.28209129 2.1389647 -2.5281936e+38
4.5371814 -0.29037699 2.1389647 -2.5414859e+38
4.593154 -0.30162692 2.150538 -2.4083033e+38
4.5931334 -0.31001925 2.150538 -2.28826e+38
4.6501055 -0.32164592 2.1623178 -3.1151357e+38
4.4315047 0.24848717 2.1087694 nan
4.4314852 0.24040526 2.1087694 -3.2985187e+38
4.4314651 0.23232338 2.1087694 -1.7028209e+38
4.4314451 0.2242415 2.1087694 -2.1556916e+38
4.4314256 0.21615964 2.1087694 -2.6077873e+38
4.3803973 0.20475444 2.0983264 -2.5547766e+38
4.3803778 0.19676971 2.0983264 -2.5015555e+38
4.3803582 0.18878499 2.0983264 -2.514848e+38
4.2813239 0.1749149 2.0780549 -2.5147965e+38
4.2332973 0.16435662 2.0682263 -2.5148488e+38
4.1862721 0.15403691 2.0586026 -2.5016091e+38
4.1862535 0.14642167 2.0586026 -2.5150058e+38
4.186235 0.13880646 2.0586026 -2.5284019e+38
4.1862164 0.13119125 2.0586026 -2.5151099e+38
4.2332029 0.12583295 2.0682263 -2.5018693e+38
4.2331839 0.1181282 2.0682263 -2.4752847e+38
4.2331648 0.11042345 2.0682263 -2.4352509e+38
4.2331462 0.10271873 2.0682263 -2.1290602e+38
4.2331271 0.095013998 2.0682263 -1.8236036e+38
4.233108 0.087309249 2.0682263 -2.3301185e+38
4.2330894 0.079604514 2.0682263 -2.8239623e+38
4.2330704 0.071899764 2.0682263 -3.1441757e+38
4.186048 0.062654309 2.0586026 nan
4.186029 0.055039093 2.0586026 nan
4.1860104 0.047423869 2.0586026 -3.371031e+38
4.1859918 0.039808661 2.0586026 nan
4.1399703 0.031035975 2.0491836 nan
4.1399517 0.023508385 2.0491836 nan
4.1859355 0.016963013 2.0586026 nan
4.1399145 0.0084531903 2.0491836 nan
4.1398959 0.00092559308 2.0491836 nan
4.1398778 -0.0066020004 2.0491836 nan
4.1398592 -0.014129598 2.0491836 nan
4.1398406 -0.021657195 2.0491836 nan
4.1397667 -0.051767584 2.0491836 nan
4.1857486 -0.059189137 2.0586026 nan
4.18573 -0.066804349 2.0586026 nan
4.1857109 -0.074419565 2.0586026 nan
4.2326918 -0.082195006 2.0682263 nan
4.2326727 -0.089899741 2.0682263 nan
4.2326541 -0.097604483 2.0682263 nan
4.185636 -0.10488043 2.0586026 nan
4.2326159 -0.11301396 2.0682263 nan
4.2325974 -0.1207187 2.0682263 nan
4.2325783 -0.12842344 2.0682263 nan
4.2325592 -0.13612819 2.0682263 nan
4.2325406 -0.14383292 2.0682263 nan
4.2325215 -0.15153766 2.0682263 nan
4.2805004 -0.16032031 2.0780549 nan
4.2804813 -0.16811648 2.0780549 nan
4.2804623 -0.17591265 2.0780549 -3.3706152e+38
4.2804432 -0.18370882 2.0780549 -2.9967603e+38
4.2804241 -0.19150499 2.0780549 -2.6216071e+38
4.2804046 -0.19930115 2.0780549 -2.2361296e+38
4.232389 -0.20547083 2.0682263 -2.4085643e+38
4.2323699 -0.21317557 2.0682263 -2.5816234e+38
4.2323513 -0.2208803 2.0682263 -2.5683309e+38
4.3793187 -0.23440614 2.0983264 -2.5550901e+38
4.4302936 -0.24450758 2.1087694 -2.5418494e+38
4.4832687 -0.25489014 2.1196218 -2.5150573e+38
4.4832482 -0.26307297 2.1196218 -2.5149535e+38
4.5372224 -0.27380559 2.1306789 -2.5149016e+38
4.5931954 -0.28484219 2.1421456 -2.52809e+38
4.5931745 -0.29323453 2.1421456 -2.5415372e+38
4.593154 -0.30162692 2.1421456 -2.4352503e+38
4.5931334 -0.31001925 2.1421456 -2.3291226e+38
4.6501055 -0.32164592 2.1538169 -3.101895e+38
4.4315047 0.24848717 2.1006875 nan
4.4314852 0.24040526 2.1006875 nan
4.4314651 0.23232338 2.1006875 -2.1668013e+38
4.4314451 0.2242415 2.1006875 -2.3542943e+38
4.4314256 0.21615964 2.1006875 -2.5542533e+38
4.3803973 0.20475444 2.0903416 -2.5413279e+38
4.3803778 0.19676971 2.0903416 -2.5280358e+38
4.3303509 0.18571734 2.0801988 -2.528036e+38
4.2813239 0.1749149 2.0702589 -2.5279849e+38
4.2332973 0.16435662 2.0605216 -2.5147971e+38
4.1862721 0.15403691 2.0509875 -2.5015574e+38
4.1862535 0.14642167 2.0509875 -2.515006e+38
4.186235 0.13880646 2.0509875 -2.5284021e+38
4.233222 0.13353768 2.0605216 -2.5151099e+38
4.2332029 0.12583295 2.0605216 -2.5151616e+38
4.2331839 0.1181282 2.0605216 -2.4619921e+38
4.2331648 0.11042345 2.0605216 -2.4220625e+38
4.2331462 0.10271873 2.0605216 -2.169041e+38
4.2331271 0.095013998 2.0605216 -1.9159717e+38
4.233108 0.087309249 2.0605216 -2.3164568e+38
4.2330894 0.079604514 2.0605216 -2.7300811e+38
4.2330704 0.071899764 2.0605216 -3.010315e+38
4.2330513 0.064195029 2.0605216 -3.303838e+38
4.186029 0.055039093 2.0509875 nan
4.1860104 0.047423869 2.0509875 nan
4.1859918 0.039808661 2.0509875 nan
4.1859732 0.032193445 2.0509875 nan
4.1859541 0.024578229 2.0509875 nan
4.1859355 0.016963013 2.0509875 nan
4.1399145 0.0084531903 2.041656 nan
4.1398959 0.00092559308 2.041656 nan
4.1398778 -0.0066020004 2.041656 nan
4.1398592 -0.014129598 2.041656 nan
4.1398406 -0.021657195 2.041656 nan
4.139822 -0.029184792 2.041656 nan
4.1397853 -0.044239987 2.041656 nan
4.1397667 -0.051767584 2.041656 nan
4.1397481 -0.059295181 2.041656 nan
4.18573 -0.066804349 2.0509875 nan
4.1857109 -0.074419565 2.0509875 nan
4.1856923 -0.082034782 2.0509875 nan
4.1856737 -0.089649998 2.0509875 nan
4.1856551 -0.097265214 2.0509875 nan
4.185636 -0.10488043 2.0509875 nan
4.2326159 -0.11301396 2.0605216 nan
4.2325974 -0.1207187 2.0605216 nan
4.2325783 -0.12842344 2.0605216 nan
4.2325592 -0.13612819 2.0605216 nan
4.2325406 -0.14383292 2.0605216 nan
4.2325215 -0.15153766 2.0605216 nan
4.2805004 -0.16032031 2.0702589 nan
4.2804813 -0.16811648 2.0702589 nan
4.2804623 -0.17591265 2.0702589 -3.1707615e+38
4.2804432 -0.18370882 2.0702589 -2.823802e+38
4.2804241 -0.19150499 2.0702589 -2.6087787e+38
4.2804046 -0.19930115 2.0702589 -2.4090836e+38
4.232389 -0.20547083 2.0605216 -2.4886302e+38
4.2803664 -0.21489349 2.0702589 -2.5684352e+38
4.2803473 -0.22268966 2.0702589 -2.5551423e+38
4.3293233 -0.2324262 2.0801988 -2.5419534e+38
4.3293042 -0.24031568 2.0801988 -2.528453e+38
4.430274 -0.25258949 2.1006875 -2.5150052e+38
4.4832482 -0.26307297 2.1114388 -2.5149016e+38
4.5372224 -0.27380559 2.1223931 -2.5147977e+38
4.5372019 -0.28209129 2.1223931 -2.5281938e+38
4.5371814 -0.29037699 2.1223931 -2.5549849e+38
4.5371614 -0.29866266 2.1223931 -2.4350416e+38
4.5931334 -0.31001925 2.1337531 -2.3283951e+38
4.6501055 -0.32164592 2.1453159 -3.1012196e+38
4.4315047 0.24848717 2.0926056 nan
4.4314852 0.24040526 2.0926056 nan
4.4314651 0.23232338 2.0926056 -2.6347341e+38
4.4314451 0.2242415 2.0926056 -2.567074e+38
4.4314256 0.21615964 2.0926056 -2.4876878e+38
4.3803973 0.20475444 2.0823569 -2.5149513e+38
4.3803778 0.19676971 2.0823569 -2.5413802e+38
4.3303509 0.18571734 2.0723093 -2.5412764e+38
4.2813239 0.1749149 2.0624626 -2.5412766e+38
4.2332973 0.16435662 2.0528169 -2.5279847e+38
4.1862721 0.15403691 2.0433722 -2.5016085e+38
4.1862535 0.14642167 2.0433722 -2.5150573e+38
4.186235 0.13880646 2.0433722 -2.5284015e+38
4.233222 0.13353768 2.0528169 -2.5284017e+38
4.2332029 0.12583295 2.0528169 -2.5151093e+38
4.2331839 0.1181282 2.0528169 -2.4619399e+38
4.2331648 0.11042345 2.0528169 -2.4086668e+38
4.2331462 0.10271873 2.0528169 -2.2091266e+38
4.2331271 0.095013998 2.0528169 -2.0096398e+38
4.233108 0.087309249 2.0528169 -2.3161942e+38
4.2330894 0.079604514 2.0528169 -2.6228567e+38
4.2330704 0.071899764 2.0528169 -2.8896943e+38
4.186048 0.062654309 2.0433722 -3.1437579e+38
4.186029 0.055039093 2.0433722 nan
4.1860104 0.047423869 2.0433722 nan
4.1859918 0.039808661 2.0433722 nan
4.1859732 0.032193445 2.0433722 nan
4.1859541 0.024578229 2.0433722 nan
4.1859355 0.016963013 2.0433722 nan
4.1399145 0.0084531903 2.0341284 nan
4.1398959 0.00092559308 2.0341284 nan
4.1398778 -0.0066020004 2.0341284 nan
4.1398592 -0.014129598 2.0341284 nan
4.1398406 -0.021657195 2.0341284 nan
4.1397853 -0.044239987 2.0341284 nan
4.1397667 -0.051767584 2.0341284 nan
4.1397481 -0.059295181 2.0341284 nan
4.18573 -0.066804349 2.0433722 nan
4.1857109 -0.074419565 2.0433722 nan
4.1856923 -0.082034782 2.0433722 nan
4.1856737 -0.089649998 2.0433722 nan
4.1856551 -0.097265214 2.0433722 nan
4.185636 -0.10488043 2.0433722 nan
4.2326159 -0.11301396 2.0528169 nan
4.2325974 -0.1207187 2.0528169 nan
4.2325783 -0.12842344 2.0528169 nan
4.2325592 -0.13612819 2.0528169 nan
4.2325406 -0.14383292 2.0528169 nan
4.2325215 -0.15153766 2.0528169 nan
4.2805004 -0.16032031 2.0624626 nan
4.2324839 -0.16694713 2.0528169 -3.2909637e+38
4.2804623 -0.17591265 2.0624626 -2.9703885e+38
4.2324457 -0.18235663 2.0528169 -2.6366193e+38
4.2804241 -0.19150499 2.0624626 -2.6072228e+38
4.2804046 -0.19930115 2.0624626 -2.5815208e+38
4.232389 -0.20547083 2.0528169 -2.5683842e+38
4.2803664 -0.21489349 2.0624626 -2.5551431e+38
4.2803473 -0.22268966 2.0624626 -2.54185e+38
4.3293233 -0.2324262 2.0723093 -2.515265e+38
4.3293042 -0.24031568 2.0723093 -2.5150569e+38
4.3792796 -0.25037563 2.0823569 -2.5150052e+38
4.5372429 -0.26551992 2.1141074 -2.5149014e+38
4.5372224 -0.27380559 2.1141074 -2.5015052e+38
4.5372019 -0.28209129 2.1141074 -2.5280896e+38
4.5931745 -0.29323453 2.1253607 -2.5547249e+38
4.593154 -0.30162692 2.1253607 -2.4481777e+38
4.6501265 -0.31314498 2.1368151 -2.3288096e+38
4.4314651 0.23232338 2.0845237 -3.1801881e+38
4.4314451 0.2242415 2.0845237 -2.7668211e+38
4.4314256 0.21615964 2.0845237 -2.3542975e+38
4.3803973 0.20475444 2.0743723 -2.4348862e+38
4.3803778 0.19676971 2.0743723 -2.528036e+38
4.3303509 0.18571734 2.0644197 -2.528036e+38
4.2813239 0.1749149 2.0546665 -2.5146916e+38
4.1862912 0.16165212 2.0357571 -2.501503e+38
4.1862721 0.15403691 2.0357571 -2.4883154e+38
4.1862535 0.14642167 2.0357571 -2.5017642e+38
4.186235 0.13880646 2.0357571 -2.5151086e+38
4.1862164 0.13119125 2.0357571 -2.5151088e+38
4.2332029 0.12583295 2.0451121 -2.515005e+38
4.2331839 0.1181282 2.0451121 -2.4751799e+38
4.2331648 0.11042345 2.0451121 -2.4352515e+38
4.2331462 0.10271873 2.0451121 -2.2887772e+38
4.2331271 0.095013998 2.0451121 -2.1421462e+38
4.233108 0.087309249 2.0451121 -2.4886792e+38
4.2330894 0.079604514 2.0451121 -2.821199e+38
4.1860666 0.070269533 2.0357571 -3.0623343e+38
4.186048 0.062654309 2.0357571 -3.2893485e+38
4.186029 0.055039093 2.0357571 nan
4.1860104 0.047423869 2.0357571 nan
4.1859918 0.039808661 2.0357571 nan
4.1859732 0.032193445 2.0357571 nan
4.1859541 0.024578229 2.0357571 nan
4.1859355 0.016963013 2.0357571 nan
4.1399145 0.0084531903 2.0266008 nan
4.1398959 0.00092559308 2.0266008 nan
4.1398406 -0.021657195 2.0266008 nan
4.1397667 -0.051767584 2.0266008 nan
4.1397481 -0.059295181 2.0266008 nan
4.1397295 -0.066822775 2.0266008 nan
4.1857109 -0.074419565 2.0357571 nan
4.1856923 -0.082034782 2.0357571 nan
4.1856737 -0.089649998 2.0357571 nan
4.1856551 -0.097265214 2.0357571 nan
4.185636 -0.10488043 2.0357571 nan
4.2326159 -0.11301396 2.0451121 nan
4.2325974 -0.1207187 2.0451121 nan
4.2325783 -0.12842344 2.0451121 nan
4.2325592 -0.13612819 2.0451121 nan
4.2325406 -0.14383292 2.0451121 nan
4.2325215 -0.15153766 2.0451121 nan
4.2805004 -0.16032031 2.0546665 nan
4.2324839 -0.16694713 2.0451121 -3.3576829e+38
4.2804623 -0.17591265 2.0546665 -2.9569899e+38
4.2804432 -0.18370882 2.0546665 -2.5703135e+38
4.2804241 -0.19150499 2.0546665 -2.568438e+38
4.2804046 -0.19930115 2.0546665 -2.568593e+38
4.2803855 -0.20709732 2.0546665 -2.5285595e+38
4.2803664 -0.21489349 2.0546665 -2.5020778e+38
4.2803473 -0.22268966 2.0546665 -2.4886807e+38
4.3293233 -0.2324262 2.0644197 -2.4753882e+38
4.3293042 -0.24031568 2.0644197 -2.4752839e+38
4.3792796 -0.25037563 2.0743723 -2.4618878e+38
4.5372429 -0.26551992 2.1058216 -2.461732e+38
4.5372224 -0.27380559 2.1058216 -2.4748164e+38
4.5372019 -0.28209129 2.1058216 -2.5015046e+38
4.5371814 -0.29037699 2.1058216 -2.5414322e+38
4.4314451 0.2242415 2.0764418 -2.9656856e+38
4.3804169 0.21273917 2.0663874 -2.2081342e+38
4.3803973 0.20475444 2.0663874 -2.3688404e+38
4.3803778 0.19676971 2.0663874 -2.5148478e+38
4.2813435 0.18271104 2.0468702 -2.5014519e+38
4.2813239 0.1749149 2.0468702 -2.4882111e+38
4.2332973 0.16435662 2.0374074 -2.4750225e+38
4.1862721 0.15403691 2.0281417 -2.4618347e+38
4.1862535 0.14642167 2.0281417 -2.4885237e+38
4.186235 0.13880646 2.0281417 -2.5018162e+38
4.1862164 0.13119125 2.0281417 -2.5151604e+38
4.2332029 0.12583295 2.0374074 -2.5151084e+38
4.2331839 0.1181282 2.0374074 -2.4884722e+38
4.2331648 0.11042345 2.0374074 -2.4617836e+38
4.2331462 0.10271873 2.0374074 -2.3685297e+38
4.2331271 0.095013998 2.0374074 -2.2755888e+38
4.233108 0.087309249 2.0374074 -2.6486048e+38
4.2330894 0.079604514 2.0374074 -3.0217795e+38
4.1860666 0.070269533 2.0281417 -3.2358623e+38
4.186048 0.062654309 2.0281417 nan
4.186029 0.055039093 2.0281417 nan
4.1860104 0.047423869 2.0281417 nan
4.1859918 0.039808661 2.0281417 nan
4.1399703 0.031035975 2.019073 nan
4.1399517 0.023508385 2.019073 nan
4.1399331 0.015980788 2.019073 nan
4.1399145 0.0084531903 2.019073 nan
4.1397667 -0.051767584 2.019073 nan
4.1397481 -0.059295181 2.019073 nan
4.1397295 -0.066822775 2.019073 nan
4.1397114 -0.074350372 2.019073 nan
4.1856923 -0.082034782 2.0281417 nan
4.1856737 -0.089649998 2.0281417 nan
4.1856551 -0.097265214 2.0281417 nan
4.185636 -0.10488043 2.0281417 nan
4.2326159 -0.11301396 2.0374074 nan
4.2325974 -0.1207187 2.0374074 nan
4.2325783 -0.12842344 2.0374074 nan
4.2325592 -0.13612819 2.0374074 nan
4.2325406 -0.14383292 2.0374074 nan
4.2325215 -0.15153766 2.0374074 nan
4.2325025 -0.15924239 2.0374074 nan
4.2324839 -0.16694713 2.0374074 nan
4.2324648 -0.17465186 2.0374074 -2.9561549e+38
4.2324457 -0.18235663 2.0374074 -2.5028092e+38
4.2324266 -0.19006136 2.0374074 -2.5276223e+38
4.232408 -0.1977661 2.0374074 -2.5414346e+38
4.232389 -0.20547083 2.0374074 -2.5017145e+38
4.2803664 -0.21489349 2.0468702 -2.4487004e+38
4.2803473 -0.22268966 2.0468702 -2.4487517e+38
4.3293233 -0.2324262 2.0565302 -2.4355109e+38
4.3293042 -0.24031568 2.0565302 -2.4222185e+38
4.430274 -0.25258949 2.0764418 -2.4087183e+38
4.4832482 -0.26307297 2.0868902 -2.4218029e+38
4.4832282 -0.27125582 2.0868902 -2.4350953e+38
4.5372019 -0.28209129 2.0975361 -2.4883164e+38
4.5371814 -0.29037699 2.0975361 -2.5282961e+38
4.3804564 0.22870865 2.0584025 nan
4.3804169 0.21273917 2.0584025 -1.9545943e+38
4.3803973 0.20475444 2.0584025 -2.248639e+38
4.3803778 0.19676971 2.0584025 -2.5414847e+38
4.3803582 0.18878499 2.0584025 -2.5281405e+38
4.2813239 0.1749149 2.0390739 -2.5148478e+38
4.2332973 0.16435662 2.0297027 -2.501659e+38
4.2332788 0.15665191 2.0297027 -2.4884192e+38
4.2332597 0.14894718 2.0297027 -2.4884716e+38
4.186235 0.13880646 2.0205264 -2.5017638e+38
4.233222 0.13353768 2.0297027 -2.5018158e+38
4.2332029 0.12583295 2.0297027 -2.5151082e+38
4.2331839 0.1181282 2.0297027 -2.4751278e+38
4.2331648 0.11042345 2.0297027 -2.4484907e+38
4.2331462 0.10271873 2.0297027 -2.3418401e+38
4.2331271 0.095013998 2.0297027 -2.2486935e+38
4.233108 0.087309249 2.0297027 -2.6891074e+38
4.1860852 0.077884741 2.0205264 -3.1288988e+38
4.1860666 0.070269533 2.0205264 -3.302429e+38
4.186048 0.062654309 2.0205264 nan
4.186029 0.055039093 2.0205264 nan
4.1860104 0.047423869 2.0205264 nan
4.1859918 0.039808661 2.0205264 nan
4.1399703 0.031035975 2.0115454 nan
4.1399517 0.023508385 2.0115454 nan
4.1399331 0.015980788 2.0115454 nan
4.1399145 0.0084531903 2.0115454 nan
4.1397481 -0.059295181 2.0115454 nan
4.1397295 -0.066822775 2.0115454 nan
4.1397114 -0.074350372 2.0115454 nan
4.1856923 -0.082034782 2.0205264 nan
4.1856737 -0.089649998 2.0205264 nan
4.1856551 -0.097265214 2.0205264 nan
4.185636 -0.10488043 2.0205264 nan
4.2326159 -0.11301396 2.0297027 nan
4.2325974 -0.1207187 2.0297027 nan
4.2325783 -0.12842344 2.0297027 nan
4.2325592 -0.13612819 2.0297027 nan
4.2325406 -0.14383292 2.0297027 nan
4.2325215 -0.15153766 2.0297027 nan
4.2325025 -0.15924239 2.0297027 nan
4.2324839 -0.16694713 2.0297027 -3.3039909e+38
4.2324648 -0.17465186 2.0297027 -2.8362086e+38
4.2324457 -0.18235663 2.0297027 -2.3692071e+38
4.2324266 -0.19006136 2.0297027 -2.461468e+38
4.2804046 -0.19930115 2.0390739 -2.5545685e+38
4.2803855 -0.20709732 2.0390739 -2.514902e+38
4.2803664 -0.21489349 2.0390739 -2.4618884e+38
4.2803473 -0.22268966 2.0390739 -2.4486996e+38
4.3293233 -0.2324262 2.0486407 -2.4355107e+38
4.3293042 -0.24031568 2.0486407 -2.4354065e+38
4.3792796 -0.25037563 2.0584025 -2.4220104e+38
4.4832482 -0.26307297 2.0787075 -2.4351986e+38
4.4832282 -0.27125582 2.0787075 -2.4484393e+38
4.5372019 -0.28209129 2.0892503 -2.5149531e+38
4.5371814 -0.29037699 2.0892503 -2.5683291e+38
4.3804169 0.21273917 2.0504179 -1.7023517e+38
4.3803973 0.20475444 2.0504179 -2.1429214e+38
4.3303699 0.19360685 2.0407512 -2.567964e+38
4.3303509 0.18571734 2.0407512 -2.5548287e+38
4.2813239 0.1749149 2.0312779 -2.5281922e+38
4.2332973 0.16435662 2.0219979 -2.5150036e+38
4.2332788 0.15665191 2.0219979 -2.5017634e+38
4.1862535 0.14642167 2.0129113 -2.5018156e+38
4.186235 0.13880646 2.0129113 -2.4885233e+38
4.233222 0.13353768 2.0219979 -2.5018158e+38
4.2332029 0.12583295 2.0219979 -2.5017638e+38
4.2331839 0.1181282 2.0219979 -2.4617833e+38
4.2331648 0.11042345 2.0219979 -2.4217495e+38
4.2331462 0.10271873 2.0219979 -2.3148391e+38
4.2331271 0.095013998 2.0219979 -2.2094395e+38
4.233108 0.087309249 2.0219979 -2.7302312e+38
4.1860852 0.077884741 2.0129113 -3.2358605e+38
4.1860666 0.070269533 2.0129113 -3.3696696e+38
4.186048 0.062654309 2.0129113 nan
4.186029 0.055039093 2.0129113 nan
4.1860104 0.047423869 2.0129113 nan
4.1399884 0.038563572 2.0040178 nan
4.1399703 0.031035975 2.0040178 nan
4.1399517 0.023508385 2.0040178 nan
4.1397853 -0.044239987 2.0040178 nan
4.1397667 -0.051767584 2.0040178 nan
4.1397481 -0.059295181 2.0040178 nan
4.1397295 -0.066822775 2.0040178 nan
4.1397114 -0.074350372 2.0040178 nan
4.1856923 -0.082034782 2.0129113 nan
4.1856737 -0.089649998 2.0129113 nan
4.1856551 -0.097265214 2.0129113 nan
4.185636 -0.10488043 2.0129113 nan
4.2326159 -0.11301396 2.0219979 nan
4.2325974 -0.1207187 2.0219979 nan
4.2805772 -0.12913564 2.0312779 nan
4.2805581 -0.13693181 2.0312779 nan
4.2325406 -0.14383292 2.0219979 nan
4.2325215 -0.15153766 2.0219979 nan
4.2325025 -0.15924239 2.0219979 nan
4.2324839 -0.16694713 2.0219979 -3.1833733e+38
4.2324648 -0.17465186 2.0219979 -2.7021443e+38
4.2324457 -0.18235663 2.0219979 -2.2228369e+38
4.2324266 -0.19006136 2.0219979 -2.394436e+38
4.232408 -0.1977661 2.0219979 -2.5677571e+38
4.232389 -0.20547083 2.0219979 -2.5281419e+38
4.2803664 -0.21489349 2.0312779 -2.4751284e+38
4.2803473 -0.22268966 2.0312779 -2.4619919e+38
4.2803283 -0.23048583 2.0312779 -2.4354067e+38
4.2803092 -0.23828197 2.0312779 -2.4353024e+38
4.3292847 -0.24820518 2.0407512 -2.4352505e+38
4.430254 -0.26067135 2.0602779 -2.4484387e+38
4.4832282 -0.27125582 2.0705245 -2.4617836e+38
4.5372019 -0.28209129 2.0809646 -2.5414857e+38
4.5371814 -0.29037699 2.0809646 -2.6075816e+38
4.3303895 0.20149633 2.0328617 -2.3806221e+38
4.3303699 0.19360685 2.0328617 -2.3547149e+38
4.2813435 0.18271104 2.0234816 -2.4349903e+38
4.2813239 0.1749149 2.0234816 -2.5281403e+38
4.2332973 0.16435662 2.0142932 -2.515004e+38
4.2332788 0.15665191 2.0142932 -2.5150038e+38
4.1862535 0.14642167 2.005296 -2.4885229e+38
4.186235 0.13880646 2.005296 -2.4752308e+38
4.233222 0.13353768 2.0142932 -2.4885752e+38
4.2332029 0.12583295 2.0142932 -2.5018158e+38
4.2331839 0.1181282 2.0142932 -2.4751793e+38
4.2331648 0.11042345 2.0142932 -2.4617815e+38
4.2331462 0.10271873 2.0142932 -2.3414225e+38
4.2331271 0.095013998 2.0142932 -2.221797e+38
4.233108 0.087309249 2.0142932 -2.8762392e+38
4.1860852 0.077884741 2.005296 nan
4.1860666 0.070269533 2.005296 nan
4.186048 0.062654309 2.005296 -3.3303159e+38
4.186029 0.055039093 2.005296 nan
4.1860104 0.047423869 2.005296 nan
4.1399884 0.038563572 1.9964902 nan
4.1399703 0.031035975 1.9964902 nan
4.1399517 0.023508385 1.9964902 nan
4.1397667 -0.051767584 1.9964902 nan
4.1397481 -0.059295181 1.9964902 nan
4.1397295 -0.066822775 1.9964902 nan
4.1397114 -0.074350372 1.9964902 nan
4.1856923 -0.082034782 2.005296 nan
4.1856737 -0.089649998 2.005296 nan
4.1856551 -0.097265214 2.005296 nan
4.185636 -0.10488043 2.005296 nan
4.2326159 -0.11301396 2.0142932 nan
4.2805963 -0.12133947 2.0234816 nan
4.2805772 -0.12913564 2.0234816 nan
4.2805581 -0.13693181 2.0234816 nan
4.2325406 -0.14383292 2.0142932 nan
4.2325215 -0.15153766 2.0142932 nan
4.2325025 -0.15924239 2.0142932 nan
4.2324839 -0.16694713 2.0142932 -3.1970803e+38
4.2324648 -0.17465186 2.0142932 -2.8093658e+38
4.2324457 -0.18235663 2.0142932 -2.4224296e+38
4.2324266 -0.19006136 2.0142932 -2.5145344e+38
4.232408 -0.1977661 2.0142932 -2.6077897e+38
4.232389 -0.20547083 2.0142932 -2.5546741e+38
4.2803664 -0.21489349 2.0234816 -2.5016089e+38
4.2803473 -0.22268966 2.0234816 -2.4751801e+38
4.2803283 -0.23048583 2.0234816 -2.4353028e+38
4.2803092 -0.23828197 2.0234816 -2.4353022e+38
4.3292847 -0.24820518 2.0328617 -2.4352503e+38
4.3792596 -0.25836036 2.042433 -2.4352501e+38
4.4302344 -0.26875323 2.052196 -2.4485949e+38
4.4832082 -0.27943864 2.0623417 -2.4750762e+38
4.4831882 -0.28762147 2.0623417 -2.5148462e+38
4.2813816 0.1983034 2.0156856 -2.6187905e+38
4.2813625 0.19050723 2.0156856 -2.141414e+38
4.2813435 0.18271104 2.0156856 -2.3288593e+38
4.2813239 0.1749149 2.0156856 -2.5149515e+38
4.2332973 0.16435662 2.0065885 -2.5150557e+38
4.2332788 0.15665191 2.0065885 -2.5151076e+38
4.1862535 0.14642167 1.9976807 -2.4886269e+38
4.2332406 0.14124241 2.0065885 -2.4620943e+38
4.233222 0.13353768 2.0065885 -2.4754385e+38
4.2332029 0.12583295 2.0065885 -2.488575e+38
4.2331839 0.1181282 2.0065885 -2.5018156e+38
4.2331648 0.11042345 2.0065885 -2.5013454e+38
4.2331462 0.10271873 2.0065885 -2.3673296e+38
4.2331271 0.095013998 2.0065885 -2.2228373e+38
4.233108 0.087309249 2.0065885 -3.0378295e+38
4.1860852 0.077884741 1.9976807 nan
4.1860666 0.070269533 1.9976807 nan
4.186048 0.062654309 1.9976807 -3.1575173e+38
4.186029 0.055039093 1.9976807 nan
4.140007 0.046091169 1.9889627 nan
4.1399884 0.038563572 1.9889627 nan
4.1399703 0.031035975 1.9889627 nan
4.1399517 0.023508385 1.9889627 nan
4.1397853 -0.044239987 1.9889627 nan
4.1397667 -0.051767584 1.9889627 nan
4.1397481 -0.059295181 1.9889627 nan
4.1397295 -0.066822775 1.9889627 nan
4.1397114 -0.074350372 1.9889627 nan
4.1856923 -0.082034782 1.9976807 nan
4.1856737 -0.089649998 1.9976807 nan
4.1856551 -0.097265214 1.9976807 nan
4.232635 -0.10530922 2.0065885 nan
4.2806153 -0.1135433 2.0156856 nan
4.2805963 -0.12133947 2.0156856 nan
4.2805772 -0.12913564 2.0156856 nan
4.2805581 -0.13693181 2.0156856 nan
4.2325406 -0.14383292 2.0065885 nan
4.2805195 -0.15252414 2.0156856 nan
4.2325025 -0.15924239 2.0065885 nan
4.2324839 -0.16694713 2.0065885 -3.2096974e+38
4.2324648 -0.17465186 2.0065885 -2.9157562e+38
4.2324457 -0.18235663 2.0065885 -2.6084696e+38
4.2324266 -0.19006136 2.0065885 -2.620146e+38
4.232408 -0.1977661 2.0065885 -2.6341147e+38
4.232389 -0.20547083 2.0065885 -2.5812066e+38
4.2803664 -0.21489349 2.0156856 -2.5281932e+38
4.2803473 -0.22268966 2.0156856 -2.4884722e+38
4.2803283 -0.23048583 2.0156856 -2.4353026e+38
4.2803092 -0.23828197 2.0156856 -2.4353544e+38
4.3292847 -0.24820518 2.0249722 -2.4220617e+38
4.3792596 -0.25836036 2.0344484 -2.4220615e+38
4.4302344 -0.26875323 2.0441141 -2.4220621e+38
4.4302144 -0.27683511 2.0441141 -2.4219069e+38
4.2814007 0.20609957 2.0078893 nan
4.2813816 0.1983034 2.0078893 -2.9125163e+38
4.2813625 0.19050723 2.0078893 -1.9278015e+38
4.2813435 0.18271104 2.0078893 -2.2482743e+38
4.2333164 0.17206135 1.9988836 -2.5681721e+38
4.2332973 0.16435662 1.9988836 -2.5416918e+38
4.2332788 0.15665191 1.9988836 -2.5284516e+38
4.2332597 0.14894718 1.9988836 -2.5152634e+38
4.2332406 0.14124241 1.9988836 -2.4887308e+38
4.233222 0.13353768 1.9988836 -2.4886267e+38
4.2332029 0.12583295 1.9988836 -2.5018671e+38
4.2331839 0.1181282 1.9988836 -2.4751787e+38
4.2331648 0.11042345 1.9988836 -2.4483826e+38
4.2331462 0.10271873 1.9988836 -2.4741325e+38
4.2331271 0.095013998 1.9988836 -2.5006268e+38
4.233108 0.087309249 1.9988836 -3.2366485e+38
4.2330894 0.079604514 1.9988836 nan
4.1860666 0.070269533 1.9900656 nan
4.186048 0.062654309 1.9900656 -3.3827601e+38
4.186029 0.055039093 1.9900656 nan
4.140007 0.046091169 1.9814351 nan
4.1399884 0.038563572 1.9814351 nan
4.1399703 0.031035975 1.9814351 nan
4.1399517 0.023508385 1.9814351 nan
4.1397481 -0.059295181 1.9814351 nan
4.1397295 -0.066822775 1.9814351 nan
4.1397114 -0.074350372 1.9814351 nan
4.1856923 -0.082034782 1.9900656 nan
4.1856737 -0.089649998 1.9900656 nan
4.1856551 -0.097265214 1.9900656 nan
4.185636 -0.10488043 1.9900656 nan
4.2326159 -0.11301396 1.9988836 nan
4.2805963 -0.12133947 2.0078893 nan
4.2805772 -0.12913564 2.0078893 nan
4.2805581 -0.13693181 2.0078893 nan
4.280539 -0.14472798 2.0078893 nan
4.2805195 -0.15252414 2.0078893 nan
4.2805004 -0.16032031 2.0078893 -3.3698846e+38
4.2804813 -0.16811648 2.0078893 -3.0765667e+38
4.2324648 -0.17465186 1.9988836 -2.8360025e+38
4.2324457 -0.18235663 1.9988836 -2.5951775e+38
4.2324266 -0.19006136 1.9988836 -2.4479696e+38
4.232408 -0.1977661 1.9988836 -2.3153076e+38
4.232389 -0.20547083 1.9988836 -2.3951145e+38
4.2803664 -0.21489349 2.0078893 -2.4750239e+38
4.2803473 -0.22268966 2.0078893 -2.448543e+38
4.2803283 -0.23048583 2.0078893 -2.4353026e+38
4.2803092 -0.23828197 2.0078893 -2.4353544e+38
4.3292847 -0.24820518 2.0170827 -2.4486462e+38
4.3792596 -0.25836036 2.0264635 -2.4486975e+38
4.37924 -0.26634511 2.0264635 -2.4620424e+38
4.2333732 0.19517562 1.9911788 -3.2171508e+38
4.2333541 0.18747088 1.9911788 -1.7020925e+38
4.2333355 0.17976612 1.9911788 -2.1550186e+38
4.2813239 0.1749149 2.000093 -2.6077887e+38
4.2332973 0.16435662 1.9911788 -2.5816733e+38
4.2332788 0.15665191 1.9911788 -2.5418486e+38
4.2332597 0.14894718 1.9911788 -2.5285565e+38
4.2332406 0.14124241 1.9911788 -2.5152123e+38
4.233222 0.13353768 1.9911788 -2.5151086e+38
4.2332029 0.12583295 1.9911788 -2.5018164e+38
4.2331839 0.1181282 1.9911788 -2.4486474e+38
4.2331648 0.11042345 1.9911788 -2.3817151e+38
4.2331462 0.10271873 1.9911788 -2.5801612e+38
4.2331271 0.095013998 1.9911788 -2.7689673e+38
4.233108 0.087309249 1.9911788 nan
4.2330894 0.079604514 1.9911788 nan
4.1860666 0.070269533 1.9824502 nan
4.186048 0.062654309 1.9824502 nan
4.186029 0.055039093 1.9824502 nan
4.140007 0.046091169 1.9739075 nan
4.1399884 0.038563572 1.9739075 nan
4.1399703 0.031035975 1.9739075 nan
4.1399517 0.023508385 1.9739075 nan
4.1397481 -0.059295181 1.9739075 nan
4.1397114 -0.074350372 1.9739075 nan
4.1396928 -0.081877969 1.9739075 nan
4.1856737 -0.089649998 1.9824502 nan
4.1856551 -0.097265214 1.9824502 nan
4.185636 -0.10488043 1.9824502 nan
4.2326159 -0.11301396 1.9911788 nan
4.2805963 -0.12133947 2.000093 nan
4.2805772 -0.12913564 2.000093 nan
4.2805581 -0.13693181 2.000093 nan
4.280539 -0.14472798 2.000093 nan
4.2805195 -0.15252414 2.000093 nan
4.2805004 -0.16032031 2.000093 -3.2759026e+38
4.2804813 -0.16811648 2.000093 -2.9299362e+38
4.2804623 -0.17591265 2.000093 -2.7564062e+38
4.2804432 -0.18370882 2.000093 -2.5823527e+38
4.2804241 -0.19150499 2.000093 -2.2878382e+38
4.2804046 -0.19930115 2.000093 -1.9826366e+38
4.2803855 -0.20709732 2.000093 -2.2089706e+38
4.2803664 -0.21489349 2.000093 -2.4218548e+38
4.2803473 -0.22268966 2.000093 -2.4220108e+38
4.2803283 -0.23048583 2.000093 -2.4220625e+38
4.2803092 -0.23828197 2.000093 -2.448699e+38
4.2802896 -0.24607816 2.000093 -2.4620428e+38
4.3292651 -0.25609469 2.0091932 -2.4886269e+38
4.329246 -0.26398417 2.0091932 -2.5018133e+38
4.2333541 0.18747088 1.983474 -2.8581057e+38
4.2333355 0.17976612 1.983474 -2.5267331e+38
4.2813239 0.1749149 1.9922969 -2.1957274e+38
4.2332973 0.16435662 1.983474 -2.3822897e+38
4.2332788 0.15665191 1.983474 -2.5684859e+38
4.2332597 0.14894718 1.983474 -2.5418496e+38
4.2812476 0.14373022 1.9922969 -2.5284537e+38
4.2812285 0.13593405 1.9922969 -2.5151616e+38
4.281209 0.12813789 1.9922969 -2.5151101e+38
4.2811899 0.12034171 1.9922969 -2.4219605e+38
4.2331648 0.11042345 1.983474 -2.3420478e+38
4.2811518 0.10474939 1.9922969 -2.6079938e+38
4.2331271 0.095013998 1.983474 -2.8756715e+38
4.233108 0.087309249 1.983474 nan
4.2330894 0.079604514 1.983474 nan
4.1860666 0.070269533 1.974835 nan
4.186048 0.062654309 1.974835 nan
4.186029 0.055039093 1.974835 nan
4.140007 0.046091169 1.9663798 nan
4.1399884 0.038563572 1.9663798 nan
4.1399703 0.031035975 1.9663798 nan
4.1399517 0.023508385 1.9663798 nan
4.1398592 -0.014129598 1.9663798 nan
4.1397481 -0.059295181 1.9663798 nan
4.1397114 -0.074350372 1.9663798 nan
4.1396928 -0.081877969 1.9663798 nan
4.1856737 -0.089649998 1.974835 nan
4.1856551 -0.097265214 1.974835 nan
4.185636 -0.10488043 1.974835 nan
4.2326159 -0.11301396 1.983474 nan
4.2805963 -0.12133947 1.9922969 nan
4.2805772 -0.12913564 1.9922969 nan
4.2805581 -0.13693181 1.9922969 nan
4.280539 -0.14472798 1.9922969 nan
4.2805195 -0.15252414 1.9922969 nan
4.2805004 -0.16032031 1.9922969 -3.2364396e+38
4.2804813 -0.16811648 1.9922969 -2.9164884e+38
4.2804623 -0.17591265 1.9922969 -2.8099924e+38
4.2804432 -0.18370882 1.9922969 -2.7165221e+38
4.2804241 -0.19150499 1.9922969 -2.3153042e+38
4.2804046 -0.19930115 1.9922969 -1.9158632e+38
4.2803855 -0.20709732 1.9922969 -2.1690419e+38
4.2803664 -0.21489349 1.9922969 -2.4086146e+38
4.2803473 -0.22268966 1.9922969 -2.422011e+38
4.2803283 -0.23048583 1.9922969 -2.4486994e+38
4.2803092 -0.23828197 1.9922969 -2.4620436e+38
4.2802896 -0.24607816 1.9922969 -2.4753876e+38
4.3292651 -0.25609469 2.0013037 -2.4488545e+38
4.329246 -0.26398417 2.0013037 -2.4355057e+38
4.2333541 0.18747088 1.9757693 nan
4.2333355 0.17976612 1.9757693 -2.8979813e+38
4.2333164 0.17206135 1.9757693 -1.7694386e+38
4.2332973 0.16435662 1.9757693 -2.1831639e+38
4.2332788 0.15665191 1.9757693 -2.5817775e+38
4.2332597 0.14894718 1.9757693 -2.5684863e+38
4.2812476 0.14373022 1.9845006 -2.5417981e+38
4.2812285 0.13593405 1.9845006 -2.5284541e+38
4.281209 0.12813789 1.9845006 -2.5151099e+38
4.2811899 0.12034171 1.9845006 -2.4086161e+38
4.2811708 0.11254554 1.9845006 -2.2888275e+38
4.2331462 0.10271873 1.9757693 -2.6341652e+38
4.2331271 0.095013998 1.9757693 -2.9693419e+38
4.233108 0.087309249 1.9757693 nan
4.2330894 0.079604514 1.9757693 nan
4.1860666 0.070269533 1.9672198 nan
4.186048 0.062654309 1.9672198 nan
4.186029 0.055039093 1.9672198 nan
4.140007 0.046091169 1.9588522 nan
4.1399884 0.038563572 1.9588522 nan
4.1399703 0.031035975 1.9588522 nan
4.1399517 0.023508385 1.9588522 nan
4.1398778 -0.0066020004 1.9588522 nan
4.1398592 -0.014129598 1.9588522 nan
4.1397667 -0.051767584 1.9588522 nan
4.1397114 -0.074350372 1.9588522 nan
4.1396928 -0.081877969 1.9588522 nan
4.1856737 -0.089649998 1.9672198 nan
4.1856551 -0.097265214 1.9672198 nan
4.185636 -0.10488043 1.9672198 nan
4.2806153 -0.1135433 1.9845006 nan
4.2805963 -0.12133947 1.9845006 nan
4.2805772 -0.12913564 1.9845006 nan
4.2805581 -0.13693181 1.9845006 nan
4.280539 -0.14472798 1.9845006 nan
4.2805195 -0.15252414 1.9845006 nan
4.2805004 -0.16032031 1.9845006 -3.1963031e+38
4.2804813 -0.16811648 1.9845006 -2.89032e+38
4.2804623 -0.17591265 1.9845006 -2.8637345e+38
4.2804432 -0.18370882 1.9845006 -2.8356869e+38
4.2804241 -0.19150499 1.9845006 -2.3410077e+38
4.2804046 -0.19930115 1.9845006 -1.8495067e+38
4.2803855 -0.20709732 1.9845006 -2.1293735e+38
4.2803664 -0.21489349 1.9845006 -2.395323e+38
4.2803473 -0.22268966 1.9845006 -2.4353036e+38
4.2803283 -0.23048583 1.9845006 -2.4620442e+38
4.2803092 -0.23828197 1.9845006 -2.4753367e+38
4.2802896 -0.24607816 1.9845006 -2.4887843e+38
4.3292651 -0.25609469 1.993414 -2.4225304e+38
4.329246 -0.26398417 1.993414 -2.3549241e+38
4.2333541 0.18747088 1.9680645 nan
4.2333355 0.17976612 1.9680645 nan
4.2333164 0.17206135 1.9680645 -2.4991111e+38
4.2332973 0.16435662 1.9680645 -2.4742428e+38
4.2332788 0.15665191 1.9680645 -2.4485945e+38
4.2332597 0.14894718 1.9680645 -2.501921e+38
4.2332406 0.14124241 1.9680645 -2.5417983e+38
4.233222 0.13353768 1.9680645 -2.5284543e+38
4.2332029 0.12583295 1.9680645 -2.5151099e+38
4.2811899 0.12034171 1.9767046 -2.3952195e+38
4.2331648 0.11042345 1.9680645 -2.2755882e+38
4.2331462 0.10271873 1.9680645 -2.6884788e+38
4.2331271 0.095013998 1.9680645 -3.1013833e+38
4.1861038 0.085499965 1.9596045 nan
4.1860852 0.077884741 1.9596045 nan
4.1860666 0.070269533 1.9596045 nan
4.186048 0.062654309 1.9596045 nan
4.186029 0.055039093 1.9596045 nan
4.140007 0.046091169 1.9513245 nan
4.1399884 0.038563572 1.9513245 nan
4.1399703 0.031035975 1.9513245 nan
4.1399517 0.023508385 1.9513245 nan
4.1399331 0.015980788 1.9513245 nan
4.1399145 0.0084531903 1.9513245 nan
4.1398959 0.00092559308 1.9513245 nan
4.1398778 -0.0066020004 1.9513245 nan
4.1398592 -0.014129598 1.9513245 nan
4.1396928 -0.081877969 1.9513245 nan
4.1396742 -0.089405566 1.9513245 nan
4.1856551 -0.097265214 1.9596045 nan
4.185636 -0.10488043 1.9596045 nan
4.2326159 -0.11301396 1.9680645 nan
4.2805963 -0.12133947 1.9767046 nan
4.2805772 -0.12913564 1.9767046 nan
4.2805581 -0.13693181 1.9767046 nan
4.280539 -0.14472798 1.9767046 nan
4.2805195 -0.15252414 1.9767046 nan
4.2805004 -0.16032031 1.9767046 -3.3430891e+38
4.2804813 -0.16811648 1.9767046 -3.1961471e+38
4.2804623 -0.17591265 1.9767046 -3.1033089e+38
4.2804432 -0.18370882 1.9767046 -3.0094749e+38
4.2804241 -0.19150499 1.9767046 -2.55488e+38
4.2804046 -0.19930115 1.9767046 -2.1150939e+38
4.3293815 -0.20875767 1.9855245 -2.2754854e+38
4.3293624 -0.21664718 1.9855245 -2.4352521e+38
4.3293428 -0.22453669 1.9855245 -2.4619923e+38
4.3293233 -0.2324262 1.9855245 -2.488733e+38
4.3293042 -0.24031568 1.9855245 -2.515266e+38
4.3292847 -0.24820518 1.9855245 -2.5420062e+38
4.3292651 -0.25609469 1.9855245 -2.4884215e+38
4.329246 -0.26398417 1.9855245 -2.4347327e+38
4.2813625 0.19050723 1.9689083 nan
4.2333355 0.17976612 1.9603598 nan
4.2333164 0.17206135 1.9603598 -3.2332518e+38
4.2332973 0.16435662 1.9603598 -2.7793901e+38
4.2332788 0.15665191 1.9603598 -2.3150468e+38
4.2332597 0.14894718 1.9603598 -2.4355639e+38
4.2332406 0.14124241 1.9603598 -2.5417985e+38
4.233222 0.13353768 1.9603598 -2.5284543e+38
4.2332029 0.12583295 1.9603598 -2.515005e+38
4.2811899 0.12034171 1.9689083 -2.3949058e+38
4.2331648 0.11042345 1.9603598 -2.2625044e+38
4.2331462 0.10271873 1.9603598 -2.7560343e+38
4.2331271 0.095013998 1.9603598 -3.2361775e+38
4.1861038 0.085499965 1.9519893 nan
4.1860852 0.077884741 1.9519893 nan
4.1860666 0.070269533 1.9519893 nan
4.1400442 0.061146371 1.9437969 nan
4.186029 0.055039093 1.9519893 nan
4.140007 0.046091169 1.9437969 nan
4.1399884 0.038563572 1.9437969 nan
4.1399703 0.031035975 1.9437969 nan
4.1399517 0.023508385 1.9437969 nan
4.1399331 0.015980788 1.9437969 nan
4.1399145 0.0084531903 1.9437969 nan
4.1398959 0.00092559308 1.9437969 nan
4.1398778 -0.0066020004 1.9437969 nan
4.1398592 -0.014129598 1.9437969 nan
4.1396928 -0.081877969 1.9437969 nan
4.1396742 -0.089405566 1.9437969 nan
4.1396556 -0.096933164 1.9437969 nan
4.185636 -0.10488043 1.9519893 nan
4.2326159 -0.11301396 1.9603598 nan
4.2805963 -0.12133947 1.9689083 nan
4.2805772 -0.12913564 1.9689083 nan
4.2805581 -0.13693181 1.9689083 nan
4.280539 -0.14472798 1.9689083 nan
4.2325215 -0.15153766 1.9603598 nan
4.2805004 -0.16032031 1.9689083 nan
4.2804813 -0.16811648 1.9689083 nan
4.2804623 -0.17591265 1.9689083 -3.3304737e+38
4.2804432 -0.18370882 1.9689083 -3.1689833e+38
4.2804241 -0.19150499 1.9689083 -2.7804855e+38
4.329401 -0.20086819 1.977635 -2.3815106e+38
4.3293815 -0.20875767 1.977635 -2.4354079e+38
4.3293624 -0.21664718 1.977635 -2.4751809e+38
4.3293428 -0.22453669 1.977635 -2.5018695e+38
4.3293233 -0.2324262 1.977635 -2.5151103e+38
4.3293042 -0.24031568 1.977635 -2.5548839e+38
4.3292847 -0.24820518 1.977635 -2.5948122e+38
