# .PCD v0.7 - Point Cloud Data file format
VERSION 0.7
FIELDS x y z rgb
SIZE 4 4 4 4
TYPE F F F F
COUNT 1 1 1 1
WIDTH 1081
HEIGHT 1
VIEWPOINT 0 0 0 1 0 0 0
POINTS 1081
DATA ascii
5.9083681 0.62032157 1.5504246 -2.6615856e+38
5.9083424 0.60942823 1.5504246 -2.5549885e+38
6.0051041 0.9309448 1.5445597 nan
6.0050778 0.91986859 1.5445597 nan
6.0050516 0.9087925 1.5445597 -3.2328877e+38
5.908987 0.8817609 1.5395312 -2.3813007e+38
5.9089613 0.87086755 1.5395312 -2.4613674e+38
5.9089355 0.85997427 1.5395312 -2.541121e+38
5.9089098 0.84908092 1.5395312 -2.5279324e+38
5.908884 0.83818769 1.5395312 -2.5013474e+38
5.9088583 0.82729435 1.5395312 -2.4880547e+38
5.9088326 0.81640106 1.5395312 -2.4615221e+38
5.9088068 0.80550772 1.5395312 -2.4349376e+38
6.0048156 0.80910707 1.5445597 -2.408353e+38
6.0047894 0.79803091 1.5445597 -2.4215933e+38
6.0047631 0.78695476 1.5445597 -2.4348856e+38
5.9087033 0.76193452 1.5395312 -2.4348856e+38
5.9086776 0.75104123 1.5395312 -2.4216453e+38
5.9086518 0.74014789 1.5395312 -2.4216972e+38
5.9086261 0.7292546 1.5395312 -2.4218012e+38
5.9086003 0.71836132 1.5395312 -2.4351976e+38
5.9085746 0.70746803 1.5395312 -2.4484901e+38
5.9085488 0.69657469 1.5395312 -2.4883671e+38
5.9085226 0.6856814 1.5395312 -2.515004e+38
5.9084969 0.67478806 1.5395312 -2.5283486e+38
5.9084711 0.66389483 1.5395312 -2.5416932e+38
5.9084454 0.65300149 1.5395312 -2.5682782e+38
5.9084196 0.6421082 1.5395312 -2.5816745e+38
5.9083939 0.63121486 1.5395312 -2.6216556e+38
5.9083681 0.62032157 1.5395312 -2.661428e+38
5.8153162 0.59840006 1.5346597 -2.5813623e+38
6.0051041 0.9309448 1.5334835 nan
6.0050778 0.91986859 1.5334835 nan
5.9090128 0.89265418 1.5286379 -3.2188642e+38
5.908987 0.8817609 1.5286379 -2.3928256e+38
5.9089613 0.87086755 1.5286379 -2.4610043e+38
5.9089355 0.85997427 1.5286379 -2.541173e+38
5.9089098 0.84908092 1.5286379 -2.5146399e+38
5.908884 0.83818769 1.5286379 -2.4880552e+38
5.9088583 0.82729435 1.5286379 -2.4615221e+38
5.9088326 0.81640106 1.5286379 -2.4349895e+38
5.9088068 0.80550772 1.5286379 -2.4216451e+38
6.0048156 0.80910707 1.5334835 -2.408353e+38
6.0047894 0.79803091 1.5334835 -2.4215933e+38
6.0047631 0.78695476 1.5334835 -2.4348337e+38
6.0047369 0.77587861 1.5334835 -2.4215931e+38
6.0047107 0.7648024 1.5334835 -2.4216451e+38
6.0046844 0.7537263 1.5334835 -2.421697e+38
6.0046582 0.74265009 1.5334835 -2.421801e+38
5.9086003 0.71836132 1.5286379 -2.4484377e+38
5.9085746 0.70746803 1.5286379 -2.4617304e+38
5.9085488 0.69657469 1.5286379 -2.4883152e+38
5.9085226 0.6856814 1.5286379 -2.5282443e+38
6.0045266 0.68726933 1.5334835 -2.5282967e+38
6.0045004 0.67619312 1.5334835 -2.5416413e+38
5.9084454 0.65300149 1.5286379 -2.5682782e+38
5.9084196 0.6421082 1.5286379 -2.5949668e+38
5.9083939 0.63121486 1.5286379 -2.6348436e+38
5.9083681 0.62032157 1.5286379 -2.6746667e+38
5.8153162 0.59840006 1.5239435 -2.5545671e+38
5.9090648 0.91444075 1.5177445 nan
6.0050778 0.91986859 1.5224073 nan
5.9090128 0.89265418 1.5177445 -3.2052635e+38
5.908987 0.8817609 1.5177445 -2.3943847e+38
5.9089613 0.87086755 1.5177445 -2.4618351e+38
5.9089355 0.85997427 1.5177445 -2.5280882e+38
5.9089098 0.84908092 1.5177445 -2.5014509e+38
5.908884 0.83818769 1.5177445 -2.4615736e+38
5.9088583 0.82729435 1.5177445 -2.4349889e+38
5.9088326 0.81640106 1.5177445 -2.4083524e+38
6.0048418 0.82018328 1.5224073 -2.4083005e+38
6.0048156 0.80910707 1.5224073 -2.3950084e+38
6.0047894 0.79803091 1.5224073 -2.4082491e+38
6.0047631 0.78695476 1.5224073 -2.4215931e+38
6.0047369 0.77587861 1.5224073 -2.4215931e+38
6.0047107 0.7648024 1.5224073 -2.4216451e+38
6.0046844 0.7537263 1.5224073 -2.421697e+38
6.0046582 0.74265009 1.5224073 -2.421801e+38
5.9086003 0.71836132 1.5177445 -2.4484377e+38
5.9085746 0.70746803 1.5177445 -2.4750227e+38
5.9085488 0.69657469 1.5177445 -2.5015555e+38
5.9085226 0.6856814 1.5177445 -2.5282443e+38
5.9084969 0.67478806 1.5177445 -2.541589e+38
5.9084711 0.66389483 1.5177445 -2.5416413e+38
6.0044742 0.66511703 1.5224073 -2.5815704e+38
5.9084196 0.6421082 1.5177445 -2.6082589e+38
5.9083939 0.63121486 1.5177445 -2.648084e+38
5.9083681 0.62032157 1.5177445 -2.6745627e+38
5.8153162 0.59840006 1.5132273 -2.5411707e+38
5.9090648 0.91444075 1.5068512 nan
5.909039 0.90354753 1.5068512 nan
5.9090128 0.89265418 1.5068512 -3.1261357e+38
5.908987 0.8817609 1.5068512 -2.3018077e+38
5.9089613 0.87086755 1.5068512 -2.3952179e+38
5.9089355 0.85997427 1.5068512 -2.501607e+38
5.9089098 0.84908092 1.5068512 -2.4749696e+38
5.908884 0.83818769 1.5068512 -2.461573e+38
5.9088583 0.82729435 1.5068512 -2.4482803e+38
5.9088326 0.81640106 1.5068512 -2.4348844e+38
6.0048418 0.82018328 1.5113312 -2.4082999e+38
6.0048156 0.80910707 1.5113312 -2.3817159e+38
6.0047894 0.79803091 1.5113312 -2.3950088e+38
6.0047631 0.78695476 1.5113312 -2.4215931e+38
5.9087033 0.76193452 1.5068512 -2.4215929e+38
6.0047107 0.7648024 1.5113312 -2.4349373e+38
5.9086518 0.74014789 1.5068512 -2.4349893e+38
5.9086261 0.7292546 1.5068512 -2.4350414e+38
5.9086003 0.71836132 1.5068512 -2.4616781e+38
5.9085746 0.70746803 1.5068512 -2.488315e+38
5.9085488 0.69657469 1.5068512 -2.5015555e+38
6.0045528 0.69834542 1.5113312 -2.5281924e+38
6.0045266 0.68726933 1.5113312 -2.5282967e+38
6.0045004 0.67619312 1.5113312 -2.5416413e+38
6.0044742 0.66511703 1.5113312 -2.5683299e+38
6.0044479 0.65404081 1.5113312 -2.5950185e+38
5.9083939 0.63121486 1.5068512 -2.6481876e+38
5.9083681 0.62032157 1.5068512 -2.701303e+38
5.9083424 0.60942823 1.5068512 -2.6078396e+38
5.9090648 0.91444075 1.4959579 nan
5.909039 0.90354753 1.4959579 nan
5.9090128 0.89265418 1.4959579 -3.0587407e+38
5.908987 0.8817609 1.4959579 -2.2085544e+38
5.9089613 0.87086755 1.4959579 -2.3421007e+38
5.9089355 0.85997427 1.4959579 -2.4617304e+38
5.9089098 0.84908092 1.4959579 -2.4617294e+38
5.908884 0.83818769 1.4959579 -2.4616251e+38
5.9088583 0.82729435 1.4959579 -2.4616247e+38
5.9088326 0.81640106 1.4959579 -2.4482288e+38
6.0048418 0.82018328 1.500255 -2.4083522e+38
6.0048156 0.80910707 1.500255 -2.3684757e+38
6.0047894 0.79803091 1.500255 -2.3951126e+38
5.9087291 0.77282786 1.4959579 -2.408353e+38
6.0047369 0.77587861 1.500255 -2.4215933e+38
6.0047107 0.7648024 1.500255 -2.4348856e+38
5.9086518 0.74014789 1.4959579 -2.4481781e+38
6.0046582 0.74265009 1.500255 -2.4482822e+38
5.9086003 0.71836132 1.4959579 -2.4749188e+38
5.9085746 0.70746803 1.4959579 -2.5015036e+38
5.9085488 0.69657469 1.4959579 -2.5147444e+38
6.0045528 0.69834542 1.500255 -2.5149003e+38
6.0045266 0.68726933 1.500255 -2.5282447e+38
6.0045004 0.67619312 1.500255 -2.5416413e+38
6.0044742 0.66511703 1.500255 -2.568278e+38
6.0044479 0.65404081 1.500255 -2.5817264e+38
6.0044217 0.64296466 1.500255 -2.6482399e+38
5.9083681 0.62032157 1.4959579 -2.7145448e+38
5.9083424 0.60942823 1.4959579 -2.6874921e+38
5.816052 0.90916872 1.4810787 nan
5.9090648 0.91444075 1.4850645 nan
5.909039 0.90354753 1.4850645 nan
5.9090128 0.89265418 1.4850645 -3.1257741e+38
5.908987 0.8817609 1.4850645 -2.4076275e+38
5.9089613 0.87086755 1.4850645 -2.4481793e+38
5.9089355 0.85997427 1.4850645 -2.4749708e+38
5.9089098 0.84908092 1.4850645 -2.4616777e+38
5.908884 0.83818769 1.4850645 -2.4349889e+38
5.9088583 0.82729435 1.4850645 -2.4349365e+38
5.9088326 0.81640106 1.4850645 -2.4348848e+38
6.0048418 0.82018328 1.4891788 -2.4083524e+38
6.0048156 0.80910707 1.4891788 -2.3685279e+38
6.0047894 0.79803091 1.4891788 -2.3818204e+38
5.9087291 0.77282786 1.4850645 -2.3951128e+38
5.9087033 0.76193452 1.4850645 -2.4083013e+38
6.0047107 0.7648024 1.4891788 -2.4214899e+38
6.0046844 0.7537263 1.4891788 -2.421594e+38
5.9086261 0.7292546 1.4850645 -2.421698e+38
5.9086003 0.71836132 1.4850645 -2.4482828e+38
5.9085746 0.70746803 1.4850645 -2.4748675e+38
5.9085488 0.69657469 1.4850645 -2.4882119e+38
5.9085226 0.6856814 1.4850645 -2.5016083e+38
6.0045266 0.68726933 1.4891788 -2.5282967e+38
6.0045004 0.67619312 1.4891788 -2.5417451e+38
6.0044742 0.66511703 1.4891788 -2.5550376e+38
6.0044479 0.65404081 1.4891788 -2.5684343e+38
6.0044217 0.64296466 1.4891788 -2.6084154e+38
5.9083681 0.62032157 1.4850645 -2.6616369e+38
5.9083424 0.60942823 1.4850645 -2.5810007e+38
5.6380029 0.88860554 1.463073 nan
5.816052 0.90916872 1.4703625 nan
5.9090648 0.91444075 1.4741712 nan
5.909039 0.90354753 1.4741712 nan
5.9090128 0.89265418 1.4741712 -3.2045931e+38
5.908987 0.8817609 1.4741712 -2.6069598e+38
5.9089613 0.87086755 1.4741712 -2.5546735e+38
5.9089355 0.85997427 1.4741712 -2.4882115e+38
5.9089098 0.84908092 1.4741712 -2.4483341e+38
5.908884 0.83818769 1.4741712 -2.408353e+38
5.9088583 0.82729435 1.4741712 -2.4215929e+38
5.9088326 0.81640106 1.4741712 -2.4215929e+38
5.9088068 0.80550772 1.4741712 -2.3950603e+38
6.0048156 0.80910707 1.4781026 -2.3684759e+38
5.9087548 0.78372115 1.4741712 -2.3817165e+38
5.9087291 0.77282786 1.4741712 -2.3817163e+38
6.0047369 0.77587861 1.4781026 -2.3949047e+38
6.0047107 0.7648024 1.4781026 -2.3949569e+38
6.0046844 0.7537263 1.4781026 -2.395009e+38
6.0046582 0.74265009 1.4781026 -2.3950613e+38
6.004632 0.73157394 1.4781026 -2.4216982e+38
6.0046058 0.72049779 1.4781026 -2.4483347e+38
5.9085488 0.69657469 1.4741712 -2.4749714e+38
5.9085226 0.6856814 1.4741712 -2.4883158e+38
6.0045266 0.68726933 1.4781026 -2.5149007e+38
6.0045004 0.67619312 1.4781026 -2.5416411e+38
6.0044742 0.66511703 1.4781026 -2.5550374e+38
6.0044479 0.65404081 1.4781026 -2.5551934e+38
6.0044217 0.64296466 1.4781026 -2.5819341e+38
6.0043955 0.63188851 1.4781026 -2.594966e+38
5.725039 0.90389377 1.4560931 nan
5.816052 0.90916872 1.4596465 nan
5.9090648 0.91444075 1.4632778 nan
5.909039 0.90354753 1.4632778 nan
5.9090128 0.89265418 1.4632778 -3.0859489e+38
5.908987 0.8817609 1.4632778 -2.3805756e+38
5.9089613 0.87086755 1.4632778 -2.4213873e+38
5.9089355 0.85997427 1.4632778 -2.4615233e+38
5.9089098 0.84908092 1.4632778 -2.4482306e+38
5.908884 0.83818769 1.4632778 -2.434886e+38
5.9088583 0.82729435 1.4632778 -2.4215933e+38
5.9088326 0.81640106 1.4632778 -2.4215412e+38
5.9088068 0.80550772 1.4632778 -2.4083007e+38
6.0048156 0.80910707 1.4670264 -2.3816644e+38
5.9087548 0.78372115 1.4632778 -2.3816644e+38
5.9087291 0.77282786 1.4632778 -2.3816642e+38
6.0047369 0.77587861 1.4670264 -2.3949563e+38
6.0047107 0.7648024 1.4670264 -2.4083007e+38
6.0046844 0.7537263 1.4670264 -2.4082487e+38
5.9086261 0.7292546 1.4632778 -2.4082493e+38
5.9086003 0.71836132 1.4632778 -2.4216461e+38
5.9085746 0.70746803 1.4632778 -2.4483345e+38
5.9085488 0.69657469 1.4632778 -2.474971e+38
5.9085226 0.6856814 1.4632778 -2.5016081e+38
5.9084969 0.67478806 1.4632778 -2.528245e+38
5.9084711 0.66389483 1.4632778 -2.5548814e+38
6.0044742 0.66511703 1.4670264 -2.5683293e+38
6.0044479 0.65404081 1.4670264 -2.5817775e+38
6.0044217 0.64296466 1.4670264 -2.5951737e+38
6.0043955 0.63188851 1.4670264 -2.6217564e+38
5.725039 0.90389377 1.4455502 nan
5.9090905 0.9253341 1.4523845 nan
5.9090648 0.91444075 1.4523845 nan
6.0050778 0.91986859 1.4559503 nan
5.9090128 0.89265418 1.4523845 -2.9792998e+38
5.908987 0.8817609 1.4523845 -2.1551782e+38
5.9089613 0.87086755 1.4523845 -2.288776e+38
5.9089355 0.85997427 1.4523845 -2.4216465e+38
6.0049467 0.86448783 1.4559503 -2.4349384e+38
5.908884 0.83818769 1.4523845 -2.4481785e+38
5.9088583 0.82729435 1.4523845 -2.4348858e+38
5.9088326 0.81640106 1.4523845 -2.4215414e+38
5.9088068 0.80550772 1.4523845 -2.4082491e+38
5.9087811 0.79461443 1.4523845 -2.3949567e+38
5.9087548 0.78372115 1.4523845 -2.3949045e+38
5.9087291 0.77282786 1.4523845 -2.3816119e+38
6.0047369 0.77587861 1.4559503 -2.394852e+38
6.0047107 0.7648024 1.4559503 -2.4081962e+38
6.0046844 0.7537263 1.4559503 -2.4214887e+38
6.0046582 0.74265009 1.4559503 -2.421541e+38
5.9086003 0.71836132 1.4523845 -2.4349378e+38
5.9085746 0.70746803 1.4523845 -2.434938e+38
5.9085488 0.69657469 1.4523845 -2.4748669e+38
5.9085226 0.6856814 1.4523845 -2.5148478e+38
5.9084969 0.67478806 1.4523845 -2.5415366e+38
5.9084711 0.66389483 1.4523845 -2.5549327e+38
6.0044742 0.66511703 1.4559503 -2.5815694e+38
6.0044479 0.65404081 1.4559503 -2.5950175e+38
6.0044217 0.64296466 1.4559503 -2.6217061e+38
6.0043955 0.63188851 1.4559503 -2.6481854e+38
5.9091163 0.93622744 1.4414911 nan
5.9090905 0.9253341 1.4414911 nan
5.9090648 0.91444075 1.4414911 nan
6.0050778 0.91986859 1.444874 nan
5.9090128 0.89265418 1.4414911 -2.9399426e+38
6.0050254 0.89771634 1.444874 -2.2347246e+38
6.0049992 0.88664019 1.444874 -2.3416855e+38
6.0049729 0.87556404 1.444874 -2.4481791e+38
5.9089098 0.84908092 1.4414911 -2.4348864e+38
5.908884 0.83818769 1.4414911 -2.4348343e+38
5.9088583 0.82729435 1.4414911 -2.4215418e+38
5.9088326 0.81640106 1.4414911 -2.4081457e+38
5.9088068 0.80550772 1.4414911 -2.3949051e+38
6.0048156 0.80910707 1.444874 -2.3949047e+38
5.9087548 0.78372115 1.4414911 -2.3949041e+38
5.9087291 0.77282786 1.4414911 -2.3949037e+38
5.9087033 0.76193452 1.4414911 -2.421436e+38
5.9086776 0.75104123 1.4414911 -2.4347284e+38
6.0046844 0.7537263 1.444874 -2.4480726e+38
5.9086261 0.7292546 1.4414911 -2.4614173e+38
5.9086003 0.71836132 1.4414911 -2.4747099e+38
5.9085746 0.70746803 1.4414911 -2.4880026e+38
5.9085488 0.69657469 1.4414911 -2.5013992e+38
5.9085226 0.6856814 1.4414911 -2.5281397e+38
5.9084969 0.67478806 1.4414911 -2.5414839e+38
5.9084711 0.66389483 1.4414911 -2.5682246e+38
5.9084454 0.65300149 1.4414911 -2.581569e+38
6.0044479 0.65404081 1.444874 -2.5950173e+38
6.0044217 0.64296466 1.444874 -2.6084136e+38
6.0043955 0.63188851 1.444874 -2.6351008e+38
6.0043693 0.62081236 1.444874 -2.5145864e+38
5.9091163 0.93622744 1.4305978 nan
5.9090905 0.9253341 1.4305978 nan
5.9090648 0.91444075 1.4305978 nan
6.0050778 0.91986859 1.4337978 nan
6.0050516 0.9087925 1.4337978 -2.8997021e+38
6.0050254 0.89771634 1.4337978 -2.301601e+38
5.9089613 0.87086755 1.4305978 -2.3817699e+38
6.0049729 0.87556404 1.4337978 -2.4614712e+38
6.0049467 0.86448783 1.4337978 -2.4481266e+38
6.0049205 0.85341173 1.4337978 -2.4215418e+38
5.9088583 0.82729435 1.4305978 -2.4082493e+38
5.9088326 0.81640106 1.4305978 -2.3816129e+38
5.9088068 0.80550772 1.4305978 -2.3949051e+38
5.9087811 0.79461443 1.4305978 -2.3949045e+38
5.9087548 0.78372115 1.4305978 -2.4081964e+38
5.9087291 0.77282786 1.4305978 -2.4081443e+38
5.9087033 0.76193452 1.4305978 -2.4346765e+38
5.9086776 0.75104123 1.4305978 -2.4613132e+38
6.0046844 0.7537263 1.4337978 -2.4878978e+38
5.9086261 0.7292546 1.4305978 -2.5012422e+38
5.9086003 0.71836132 1.4305978 -2.5278269e+38
5.9085746 0.70746803 1.4305978 -2.5411196e+38
6.0045791 0.70942163 1.4337978 -2.5412239e+38
5.9085226 0.6856814 1.4305978 -2.5280876e+38
5.9084969 0.67478806 1.4305978 -2.5546721e+38
5.9084711 0.66389483 1.4305978 -2.5681725e+38
5.9084454 0.65300149 1.4305978 -2.5815171e+38
6.0044479 0.65404081 1.4337978 -2.581725e+38
6.0044217 0.64296466 1.4337978 -2.6083619e+38
6.0043955 0.63188851 1.4337978 -2.6216532e+38
5.9091163 0.93622744 1.4197044 nan
5.9090905 0.9253341 1.4197044 nan
5.9090648 0.91444075 1.4197044 nan
6.0050778 0.91986859 1.4227216 nan
5.9090128 0.89265418 1.4197044 -2.9000132e+38
6.0050254 0.89771634 1.4227216 -2.3945948e+38
6.0049992 0.88664019 1.4227216 -2.4214905e+38
6.0049729 0.87556404 1.4227216 -2.461471e+38
6.0049467 0.86448783 1.4227216 -2.434886e+38
6.0049205 0.85341173 1.4227216 -2.4215936e+38
5.9088583 0.82729435 1.4197044 -2.3949569e+38
5.9088326 0.81640106 1.4197044 -2.3815607e+38
5.9088068 0.80550772 1.4197044 -2.3816127e+38
5.9087811 0.79461443 1.4197044 -2.3816123e+38
5.9087548 0.78372115 1.4197044 -2.4081964e+38
5.9087291 0.77282786 1.4197044 -2.4480211e+38
5.9087033 0.76193452 1.4197044 -2.4878458e+38
5.9086776 0.75104123 1.4197044 -2.5277229e+38
6.0046844 0.7537263 1.4227216 -2.6610091e+38
5.9086261 0.7292546 1.4197044 -2.7937242e+38
5.9086003 0.71836132 1.4197044 -2.6740418e+38
5.9085746 0.70746803 1.4197044 -2.5676001e+38
5.9085488 0.69657469 1.4197044 -2.5412756e+38
5.9085226 0.6856814 1.4197044 -2.5147951e+38
5.9084969 0.67478806 1.4197044 -2.5281393e+38
5.9084711 0.66389483 1.4197044 -2.55488e+38
5.9084454 0.65300149 1.4197044 -2.5549843e+38
5.9084196 0.6421082 1.4197044 -2.5684846e+38
5.9083939 0.63121486 1.4197044 -2.6084138e+38
5.9083681 0.62032157 1.4197044 -2.6352055e+38
5.8160777 0.9198848 1.4060655 nan
5.9090905 0.9253341 1.4088112 nan
6.0051041 0.9309448 1.4116454 nan
5.909039 0.90354753 1.4088112 -3.3527286e+38
6.0050516 0.9087925 1.4116454 -2.9127858e+38
6.0050254 0.89771634 1.4116454 -2.4744e+38
6.0049992 0.88664019 1.4116454 -2.4747635e+38
5.9089355 0.85997427 1.4088112 -2.4615225e+38
6.0049467 0.86448783 1.4116454 -2.4349895e+38
6.0049205 0.85341173 1.4116454 -2.4083528e+38
5.9088583 0.82729435 1.4088112 -2.3950603e+38
5.9088326 0.81640106 1.4088112 -2.3816644e+38
5.9088068 0.80550772 1.4088112 -2.3816125e+38
5.9087811 0.79461443 1.4088112 -2.3682681e+38
5.9087548 0.78372115 1.4088112 -2.4214372e+38
5.9087291 0.77282786 1.4088112 -2.4745542e+38
5.9087033 0.76193452 1.4088112 -2.5276192e+38
5.9086776 0.75104123 1.4088112 -2.5813078e+38
6.0046844 0.7537263 1.4116454 -2.8346919e+38
5.9086261 0.7292546 1.4088112 -3.0737971e+38
5.9086003 0.71836132 1.4088112 -2.8336013e+38
6.0046058 0.72049779 1.4116454 -2.5809963e+38
6.0045791 0.70942163 1.4116454 -2.5413792e+38
5.9085226 0.6856814 1.4088112 -2.4882103e+38
6.0045266 0.68726933 1.4116454 -2.5148472e+38
5.9084711 0.66389483 1.4088112 -2.5282435e+38
5.9084454 0.65300149 1.4088112 -2.5415881e+38
5.9084196 0.6421082 1.4088112 -2.5551406e+38
5.9083939 0.63121486 1.4088112 -2.6083621e+38
5.9083681 0.62032157 1.4088112 -2.6483426e+38
5.9091163 0.93622744 1.3979179 nan
5.9090905 0.9253341 1.3979179 nan
6.0051041 0.9309448 1.4005692 nan
6.0050778 0.91986859 1.4005692 -3.0872987e+38
6.0050516 0.9087925 1.4005692 -2.7935184e+38
6.0050254 0.89771634 1.4005692 -2.5009844e+38
6.0049992 0.88664019 1.4005692 -2.4880036e+38
5.9089355 0.85997427 1.3979179 -2.4748146e+38
6.0049467 0.86448783 1.4005692 -2.4482811e+38
6.0049205 0.85341173 1.4005692 -2.4349369e+38
6.0048943 0.84233558 1.4005692 -2.4216445e+38
5.9088326 0.81640106 1.3979179 -2.4082485e+38
5.9088068 0.80550772 1.3979179 -2.4081968e+38
5.9087811 0.79461443 1.3979179 -2.4080932e+38
5.9087548 0.78372115 1.3979179 -2.4480219e+38
5.9087291 0.77282786 1.3979179 -2.5011391e+38
5.9087033 0.76193452 1.3979179 -2.5809965e+38
5.9086776 0.75104123 1.3979179 -2.6611657e+38
6.0046844 0.7537263 1.4005692 -2.9416017e+38
5.9086261 0.7292546 1.3979179 -3.221622e+38
5.9086003 0.71836132 1.3979179 -2.8475169e+38
5.9085746 0.70746803 1.3979179 -2.4745022e+38
5.9085488 0.69657469 1.3979179 -2.4748138e+38
5.9085226 0.6856814 1.3979179 -2.4882103e+38
6.0045266 0.68726933 1.4005692 -2.4882626e+38
5.9084711 0.66389483 1.3979179 -2.5015553e+38
5.9084454 0.65300149 1.3979179 -2.5150036e+38
5.9084196 0.6421082 1.3979179 -2.5419003e+38
5.8153667 0.61983234 1.3953493 -2.59507e+38
5.8153415 0.60911626 1.3953493 -2.6616876e+38
5.9091163 0.93622744 1.3870245 nan
5.9090905 0.9253341 1.3870245 nan
6.0051041 0.9309448 1.3894931 nan
6.0050778 0.91986859 1.3894931 -2.8074859e+38
6.0050516 0.9087925 1.3894931 -2.6596608e+38
6.0050254 0.89771634 1.3894931 -2.5141209e+38
6.0049992 0.88664019 1.3894931 -2.5014002e+38
5.9089355 0.85997427 1.3870245 -2.488159e+38
5.9089098 0.84908092 1.3870245 -2.4749178e+38
6.0049205 0.85341173 1.3894931 -2.4482811e+38
6.0048943 0.84233558 1.3894931 -2.448229e+38
5.9088326 0.81640106 1.3870245 -2.434885e+38
5.9088068 0.80550772 1.3870245 -2.4348333e+38
5.9087811 0.79461443 1.3870245 -2.4347816e+38
5.9087548 0.78372115 1.3870245 -2.4746067e+38
5.9087291 0.77282786 1.3870245 -2.5144835e+38
5.9087033 0.76193452 1.3870245 -2.6207699e+38
5.9086776 0.75104123 1.3870245 -2.7279914e+38
6.0046844 0.7537263 1.3894931 -3.0489798e+38
5.9086261 0.7292546 1.3870245 -3.3672668e+38
6.004632 0.73157394 1.3894931 -2.860342e+38
6.0046058 0.72049779 1.3894931 -2.3550796e+38
5.9085488 0.69657469 1.3870245 -2.4217489e+38
5.9085226 0.6856814 1.3870245 -2.474918e+38
6.0045266 0.68726933 1.3894931 -2.474918e+38
6.0045004 0.67619312 1.3894931 -2.4616779e+38
6.0044742 0.66511703 1.3894931 -2.501607e+38
5.9084196 0.6421082 1.3870245 -2.5283999e+38
5.9083939 0.63121486 1.3870245 -2.5948102e+38
5.8153415 0.60911626 1.3846331 -2.6614272e+38
5.8153162 0.59840006 1.3846331 -2.6613752e+38
5.9091163 0.93622744 1.3761312 nan
5.9090905 0.9253341 1.3761312 nan
6.0051041 0.9309448 1.3784169 nan
5.909039 0.90354753 1.3761312 nan
5.9090128 0.89265418 1.3761312 -2.9400963e+38
5.908987 0.8817609 1.3761312 -2.4609518e+38
5.9089613 0.87086755 1.3761312 -2.5014523e+38
5.9089355 0.85997427 1.3761312 -2.528036e+38
5.9089098 0.84908092 1.3761312 -2.5014507e+38
5.908884 0.83818769 1.3761312 -2.4748138e+38
5.9088583 0.82729435 1.3761312 -2.4615211e+38
5.9088326 0.81640106 1.3761312 -2.4614177e+38
5.9088068 0.80550772 1.3761312 -2.4614698e+38
5.9087811 0.79461443 1.3761312 -2.46147e+38
5.9087548 0.78372115 1.3761312 -2.4880028e+38
5.9087291 0.77282786 1.3761312 -2.5145876e+38
5.9087033 0.76193452 1.3761312 -2.527776e+38
5.9086776 0.75104123 1.3761312 -2.5412253e+38
5.9086518 0.74014789 1.3761312 -2.9552081e+38
5.9086261 0.7292546 1.3761312 -3.3677349e+38
6.004632 0.73157394 1.3784169 -2.8475173e+38
6.0046058 0.72049779 1.3784169 -2.3282878e+38
6.0045791 0.70942163 1.3784169 -2.3951126e+38
6.0045528 0.69834542 1.3784169 -2.4749698e+38
6.0045266 0.68726933 1.3784169 -2.4749693e+38
6.0045004 0.67619312 1.3784169 -2.4750217e+38
6.0044742 0.66511703 1.3784169 -2.5016586e+38
6.0044479 0.65404081 1.3784169 -2.5283997e+38
5.9083939 0.63121486 1.3761312 -2.5815694e+38
5.9083681 0.62032157 1.3761312 -2.6481343e+38
5.8153162 0.59840006 1.3739169 -2.5814127e+38
6.0051565 0.95309722 1.3673407 nan
5.9090905 0.9253341 1.3652378 nan
6.0051041 0.9309448 1.3673407 nan
5.909039 0.90354753 1.3652378 nan
5.9090128 0.89265418 1.3652378 -3.2199617e+38
5.908987 0.8817609 1.3652378 -2.4085619e+38
5.9089613 0.87086755 1.3652378 -2.4887833e+38
5.9089355 0.85997427 1.3652378 -2.568121e+38
5.9089098 0.84908092 1.3652378 -2.5280358e+38
5.908884 0.83818769 1.3652378 -2.4881065e+38
5.9088583 0.82729435 1.3652378 -2.4881061e+38
5.9088326 0.81640106 1.3652378 -2.4747619e+38
5.9088068 0.80550772 1.3652378 -2.4747621e+38
5.9087811 0.79461443 1.3652378 -2.4747623e+38
6.0047894 0.79803091 1.3673407 -2.4880549e+38
6.0047631 0.78695476 1.3673407 -2.5011915e+38
6.0047369 0.77587861 1.3673407 -2.4344187e+38
6.0047107 0.7648024 1.3673407 -2.3555473e+38
6.0046844 0.7537263 1.3673407 -2.8628345e+38
5.9086261 0.7292546 1.3652378 -3.3538702e+38
6.004632 0.73157394 1.3673407 -2.8336025e+38
6.0046058 0.72049779 1.3673407 -2.301963e+38
6.0045791 0.70942163 1.3673407 -2.3819763e+38
5.9085226 0.6856814 1.3652378 -2.4617298e+38
6.0045266 0.68726933 1.3673407 -2.4750219e+38
6.0045004 0.67619312 1.3673407 -2.4883663e+38
6.0044742 0.66511703 1.3673407 -2.514951e+38
6.0044479 0.65404081 1.3673407 -2.5282957e+38
5.9083939 0.63121486 1.3652378 -2.5814135e+38
5.9083681 0.62032157 1.3652378 -2.6212895e+38
5.8153162 0.59840006 1.3632007 -2.5012947e+38
5.8152909 0.58768392 1.3632007 -2.3824998e+38
5.909142 0.94712067 1.3543445 nan
5.9091163 0.93622744 1.3543445 nan
6.0051303 0.94202101 1.3562645 nan
6.0051041 0.9309448 1.3562645 nan
5.909039 0.90354753 1.3543445 nan
5.9090128 0.89265418 1.3543445 -3.2607219e+38
5.908987 0.8817609 1.3543445 -2.4216469e+38
5.9089613 0.87086755 1.3543445 -2.4883162e+38
5.9089355 0.85997427 1.3543445 -2.5680695e+38
5.9089098 0.84908092 1.3543445 -2.5280882e+38
5.908884 0.83818769 1.3543445 -2.5013992e+38
5.9088583 0.82729435 1.3543445 -2.4881063e+38
5.9088326 0.81640106 1.3543445 -2.474814e+38
5.9088068 0.80550772 1.3543445 -2.4880543e+38
5.9087811 0.79461443 1.3543445 -2.5012951e+38
6.0047894 0.79803091 1.3562645 -2.488003e+38
5.9087291 0.77282786 1.3543445 -2.4746071e+38
6.0047369 0.77587861 1.3562645 -2.354821e+38
6.0047107 0.7648024 1.3562645 -2.2483771e+38
6.0046844 0.7537263 1.3562645 -2.7818838e+38
5.9086261 0.7292546 1.3543445 -3.3144078e+38
6.004632 0.73157394 1.3562645 -2.8342262e+38
6.0046058 0.72049779 1.3562645 -2.3683729e+38
6.0045791 0.70942163 1.3562645 -2.4218012e+38
5.9085226 0.6856814 1.3543445 -2.4750225e+38
6.0045266 0.68726933 1.3562645 -2.4750744e+38
6.0045004 0.67619312 1.3562645 -2.4883667e+38
6.0044742 0.66511703 1.3562645 -2.5150032e+38
6.0044479 0.65404081 1.3562645 -2.541536e+38
5.9083939 0.63121486 1.3543445 -2.581465e+38
5.9083681 0.62032157 1.3543445 -2.6347369e+38
5.9083424 0.60942823 1.3543445 -2.5015016e+38
5.8152909 0.58768392 1.3524845 -2.3818246e+38
6.0051827 0.96417332 1.3451883 nan
6.0051565 0.95309722 1.3451883 nan
6.0051303 0.94202101 1.3451883 nan
5.9090648 0.91444075 1.3434511 nan
5.909039 0.90354753 1.3434511 nan
5.9090128 0.89265418 1.3434511 -3.3134231e+38
5.908987 0.8817609 1.3434511 -2.4218025e+38
5.9089613 0.87086755 1.3434511 -2.4881087e+38
5.9089355 0.85997427 1.3434511 -2.5547253e+38
5.9089098 0.84908092 1.3434511 -2.5413804e+38
5.908884 0.83818769 1.3434511 -2.5147434e+38
5.9088583 0.82729435 1.3434511 -2.4881584e+38
6.004868 0.83125937 1.3451883 -2.4615217e+38
5.9088068 0.80550772 1.3434511 -2.4881063e+38
5.9087811 0.79461443 1.3434511 -2.5146389e+38
6.0047894 0.79803091 1.3451883 -2.4747621e+38
6.0047631 0.78695476 1.3451883 -2.4348333e+38
6.0047369 0.77587861 1.3451883 -2.2885144e+38
6.0047107 0.7648024 1.3451883 -2.14261e+38
5.9086518 0.74014789 1.3434511 -2.7019753e+38
5.9086261 0.7292546 1.3434511 -3.2605117e+38
6.004632 0.73157394 1.3451883 -2.8469984e+38
6.0046058 0.72049779 1.3451883 -2.4215938e+38
6.0045791 0.70942163 1.3451883 -2.4484381e+38
6.0045528 0.69834542 1.3451883 -2.4750229e+38
6.0045266 0.68726933 1.3451883 -2.4883673e+38
6.0045004 0.67619312 1.3451883 -2.4884192e+38
6.0044742 0.66511703 1.3451883 -2.5150557e+38
6.0044479 0.65404081 1.3451883 -2.5415883e+38
5.9083939 0.63121486 1.3434511 -2.5947575e+38
5.9083681 0.62032157 1.3434511 -2.6346331e+38
5.9083424 0.60942823 1.3434511 -2.5013977e+38
5.9083166 0.598535 1.3434511 -2.3688418e+38
6.0051565 0.95309722 1.3341122 nan
6.0051303 0.94202101 1.3341122 nan
5.9090648 0.91444075 1.3325578 nan
5.909039 0.90354753 1.3325578 nan
5.9090128 0.89265418 1.3325578 -3.1137267e+38
5.908987 0.8817609 1.3325578 -2.168522e+38
5.9089613 0.87086755 1.3325578 -2.3418419e+38
5.9089355 0.85997427 1.3325578 -2.5282447e+38
5.9089098 0.84908092 1.3325578 -2.5280882e+38
5.908884 0.83818769 1.3325578 -2.5279839e+38
5.9088583 0.82729435 1.3325578 -2.5013987e+38
6.004868 0.83125937 1.3341122 -2.4880543e+38
5.9088068 0.80550772 1.3325578 -2.4881061e+38
5.9087811 0.79461443 1.3325578 -2.4881059e+38
6.0047894 0.79803091 1.3341122 -2.4615211e+38
6.0047631 0.78695476 1.3341122 -2.4348844e+38
6.0047369 0.77587861 1.3341122 -2.288617e+38
6.0047107 0.7648024 1.3341122 -2.1422983e+38
6.0046844 0.7537263 1.3341122 -2.7815221e+38
5.9086261 0.7292546 1.3325578 nan
6.004632 0.73157394 1.3341122 -2.9807512e+38
6.0046058 0.72049779 1.3341122 -2.5410164e+38
6.0045791 0.70942163 1.3341122 -2.5280884e+38
6.0045528 0.69834542 1.3341122 -2.5148482e+38
6.0045266 0.68726933 1.3341122 -2.50166e+38
6.0045004 0.67619312 1.3341122 -2.501764e+38
6.0044742 0.66511703 1.3341122 -2.5282967e+38
6.0044479 0.65404081 1.3341122 -2.554881e+38
6.0044217 0.64296466 1.3341122 -2.5948615e+38
5.9083681 0.62032157 1.3325578 -2.6480294e+38
5.9083424 0.60942823 1.3325578 -2.5679109e+38
5.9083166 0.598535 1.3325578 -2.5008799e+38
6.0051303 0.94202101 1.323036 nan
5.9090648 0.91444075 1.3216645 nan
6.0050778 0.91986859 1.323036 nan
5.9090128 0.89265418 1.3216645 -2.9118983e+38
6.0050254 0.89771634 1.323036 -1.9022586e+38
6.0049992 0.88664019 1.323036 -2.1958335e+38
5.9089355 0.85997427 1.3216645 -2.4882633e+38
5.9089098 0.84908092 1.3216645 -2.5146916e+38
5.908884 0.83818769 1.3216645 -2.5279835e+38
5.9088583 0.82729435 1.3216645 -2.5279314e+38
6.004868 0.83125937 1.323036 -2.5146391e+38
5.9088068 0.80550772 1.3216645 -2.4881584e+38
6.0048156 0.80910707 1.323036 -2.4615217e+38
6.0047894 0.79803091 1.323036 -2.4482813e+38
6.0047631 0.78695476 1.323036 -2.4216449e+38
6.0047369 0.77587861 1.323036 -2.2753777e+38
6.0047107 0.7648024 1.323036 -2.1292662e+38
6.0046844 0.7537263 1.323036 -2.8475686e+38
6.0046582 0.74265009 1.323036 nan
6.004632 0.73157394 1.323036 -3.1139874e+38
6.0046058 0.72049779 1.323036 -2.6477193e+38
6.0045791 0.70942163 1.323036 -2.5948098e+38
6.0045528 0.69834542 1.323036 -2.5414849e+38
6.0045266 0.68726933 1.323036 -2.5282445e+38
6.0045004 0.67619312 1.323036 -2.5017121e+38
6.0044742 0.66511703 1.323036 -2.528245e+38
6.1044779 0.66647059 1.3244644 -2.5549853e+38
6.0044217 0.64296466 1.323036 -2.6082584e+38
6.0043955 0.63188851 1.323036 -2.6480828e+38
5.9083424 0.60942823 1.3216645 -2.6479264e+38
5.9083166 0.598535 1.3216645 -2.6347396e+38
5.9091163 0.93622744 1.3107711 nan
6.0051303 0.94202101 1.3119597 nan
5.9090648 0.91444075 1.3107711 nan
6.0050778 0.91986859 1.3119597 nan
6.0050516 0.9087925 1.3119597 -2.9934652e+38
6.0050254 0.89771634 1.3119597 -1.9810231e+38
6.0049992 0.88664019 1.3119597 -2.2352418e+38
6.0049729 0.87556404 1.3119597 -2.4882105e+38
6.0049467 0.86448783 1.3119597 -2.5014507e+38
6.0049205 0.85341173 1.3119597 -2.5013468e+38
6.0048943 0.84233558 1.3119597 -2.5146389e+38
6.004868 0.83125937 1.3119597 -2.5278275e+38
6.0048418 0.82018328 1.3119597 -2.4880547e+38
6.0048156 0.80910707 1.3119597 -2.4614704e+38
6.0047894 0.79803091 1.3119597 -2.4615223e+38
6.0047631 0.78695476 1.3119597 -2.4482302e+38
6.0047369 0.77587861 1.3119597 -2.3817688e+38
6.0047107 0.7648024 1.3119597 -2.3019109e+38
6.0046844 0.7537263 1.3119597 -2.927634e+38
5.9086261 0.7292546 1.3107711 nan
6.004632 0.73157394 1.3119597 -3.0205278e+38
6.0046058 0.72049779 1.3119597 -2.4873303e+38
6.0045791 0.70942163 1.3119597 -2.5014008e+38
6.0045528 0.69834542 1.3119597 -2.528089e+38
6.0045266 0.68726933 1.3119597 -2.5282445e+38
6.1045313 0.68900388 1.3131979 -2.5282969e+38
6.1045046 0.67773724 1.3131979 -2.5416932e+38
6.0044479 0.65404081 1.3119597 -2.5550897e+38
6.0044217 0.64296466 1.3119597 -2.5950187e+38
6.0043955 0.63188851 1.3119597 -2.6349996e+38
5.9083424 0.60942823 1.3107711 -2.5948631e+38
5.9091163 0.93622744 1.2998779 nan
5.9090905 0.9253341 1.2998779 nan
6.0051041 0.9309448 1.3008835 nan
6.0050778 0.91986859 1.3008835 nan
6.0050516 0.9087925 1.3008835 -3.0732207e+38
6.0050254 0.89771634 1.3008835 -2.0623874e+38
6.0049992 0.88664019 1.3008835 -2.275846e+38
6.0049729 0.87556404 1.3008835 -2.4882626e+38
6.0049467 0.86448783 1.3008835 -2.4882107e+38
6.0049205 0.85341173 1.3008835 -2.474918e+38
6.0048943 0.84233558 1.3008835 -2.5014505e+38
6.004868 0.83125937 1.3008835 -2.5279829e+38
6.0048418 0.82018328 1.3008835 -2.5013983e+38
6.0048156 0.80910707 1.3008835 -2.4615219e+38
6.0047894 0.79803091 1.3008835 -2.4748146e+38
6.0047631 0.78695476 1.3008835 -2.4748667e+38
6.0047369 0.77587861 1.3008835 -2.474971e+38
6.0047107 0.7648024 1.3008835 -2.4749706e+38
6.0046844 0.7537263 1.3008835 -3.0071804e+38
5.9086261 0.7292546 1.2998779 nan
6.004632 0.73157394 1.3008835 -2.9269095e+38
6.0046058 0.72049779 1.3008835 -2.3151012e+38
6.0045791 0.70942163 1.3008835 -2.4085623e+38
6.0045528 0.69834542 1.3008835 -2.5016083e+38
6.0045266 0.68726933 1.3008835 -2.5282965e+38
6.0045004 0.67619312 1.3008835 -2.5416409e+38
6.0044742 0.66511703 1.3008835 -2.5550372e+38
6.0044479 0.65404081 1.3008835 -2.5550374e+38
6.0044217 0.64296466 1.3008835 -2.5949144e+38
6.0043955 0.63188851 1.3008835 -2.6215511e+38
6.0043693 0.62081236 1.3008835 -2.5548824e+38
5.9091163 0.93622744 1.2889845 nan
6.0051303 0.94202101 1.2898073 nan
6.0051041 0.9309448 1.2898073 nan
6.0050778 0.91986859 1.2898073 nan
6.0050516 0.9087925 1.2898073 -3.2475277e+38
6.0050254 0.89771634 1.2898073 -2.5411701e+38
6.1050382 0.90306997 1.2906644 -2.528036e+38
6.0049729 0.87556404 1.2898073 -2.528036e+38
6.0049467 0.86448783 1.2898073 -2.5148993e+38
6.0049205 0.85341173 1.2898073 -2.5016066e+38
6.0048943 0.84233558 1.2898073 -2.5015541e+38
6.004868 0.83125937 1.2898073 -2.5014501e+38
6.0048418 0.82018328 1.2898073 -2.4881574e+38
6.0048156 0.80910707 1.2898073 -2.4748138e+38
6.0047894 0.79803091 1.2898073 -2.4615221e+38
6.0047631 0.78695476 1.2898073 -2.4615746e+38
6.0047369 0.77587861 1.2898073 -2.4216465e+38
6.0047107 0.7648024 1.2898073 -2.3816135e+38
6.0046844 0.7537263 1.2898073 -2.794712e+38
6.0046582 0.74265009 1.2898073 -3.2215709e+38
6.004632 0.73157394 1.2898073 -2.8344335e+38
6.0046058 0.72049779 1.2898073 -2.4611597e+38
6.0045791 0.70942163 1.2898073 -2.5015561e+38
6.0045528 0.69834542 1.2898073 -2.5415368e+38
6.0045266 0.68726933 1.2898073 -2.5415368e+38
6.0045004 0.67619312 1.2898073 -2.5548291e+38
6.0044742 0.66511703 1.2898073 -2.5682252e+38
6.0044479 0.65404081 1.2898073 -2.5682774e+38
6.0044217 0.64296466 1.2898073 -2.5949138e+38
6.0043955 0.63188851 1.2898073 -2.6083625e+38
6.0051041 0.9309448 1.2787311 nan
6.1051183 0.93686986 1.2793978 nan
6.1050916 0.92560315 1.2793978 nan
6.1050649 0.91433656 1.2793978 -3.020939e+38
6.1050382 0.90306997 1.2793978 -2.7936693e+38
6.0049729 0.87556404 1.2787311 -2.5543586e+38
6.0049467 0.86448783 1.2787311 -2.5416399e+38
6.0049205 0.85341173 1.2787311 -2.5150032e+38
6.0048943 0.84233558 1.2787311 -2.501607e+38
6.004868 0.83125937 1.2787311 -2.4749182e+38
6.0048418 0.82018328 1.2787311 -2.4881582e+38
6.0048156 0.80910707 1.2787311 -2.4881067e+38
6.0047894 0.79803091 1.2787311 -2.4614704e+38
6.0047631 0.78695476 1.2787311 -2.4349384e+38
6.0047369 0.77587861 1.2787311 -2.3551851e+38
5.9086776 0.75104123 1.2780912 -2.2754835e+38
6.0046844 0.7537263 1.2787311 -2.5949658e+38
5.9086261 0.7292546 1.2780912 -2.9016743e+38
5.9086003 0.71836132 1.2780912 -2.7546281e+38
5.9085746 0.70746803 1.2780912 -2.5948611e+38
6.0045791 0.70942163 1.2787311 -2.581569e+38
6.0045528 0.69834542 1.2787311 -2.5681729e+38
6.0045266 0.68726933 1.2787311 -2.568121e+38
6.0045004 0.67619312 1.2787311 -2.568121e+38
6.0044742 0.66511703 1.2787311 -2.5814652e+38
6.1044779 0.66647059 1.2793978 -2.5815171e+38
6.1044512 0.65520394 1.2793978 -2.5948096e+38
6.1044245 0.64393735 1.2793978 -2.5949134e+38
6.1043978 0.63267064 1.2793978 -2.4484909e+38
6.105145 0.94813657 1.2681311 nan
6.1051183 0.93686986 1.2681311 nan
6.1050916 0.92560315 1.2681311 nan
6.1050649 0.91433656 1.2681311 nan
6.1050382 0.90306997 1.2681311 -2.9264834e+38
6.1050119 0.89180332 1.2681311 -2.3407452e+38
6.0049467 0.86448783 1.267655 -2.435042e+38
6.0049205 0.85341173 1.267655 -2.528348e+38
6.0048943 0.84233558 1.267655 -2.5016598e+38
6.004868 0.83125937 1.267655 -2.4882113e+38
6.0048418 0.82018328 1.267655 -2.4748667e+38
6.0048156 0.80910707 1.267655 -2.4748148e+38
6.0047894 0.79803091 1.267655 -2.4481783e+38
6.0047631 0.78695476 1.267655 -2.4348345e+38
6.0047369 0.77587861 1.267655 -2.4083023e+38
6.0047107 0.7648024 1.267655 -2.3816147e+38
6.0046844 0.7537263 1.267655 -2.5685382e+38
5.9086261 0.7292546 1.2671978 -2.7564464e+38
6.004632 0.73157394 1.267655 -2.6621533e+38
5.9085746 0.70746803 1.2671978 -2.5687439e+38
5.9085488 0.69657469 1.2671978 -2.5684321e+38
6.0045528 0.69834542 1.267655 -2.5681206e+38
6.0045266 0.68726933 1.267655 -2.5681206e+38
6.0045004 0.67619312 1.267655 -2.5681206e+38
6.0044742 0.66511703 1.267655 -2.5681204e+38
6.0044479 0.65404081 1.267655 -2.5814129e+38
6.1044512 0.65520394 1.2681311 -2.6081013e+38
6.0043955 0.63188851 1.267655 -2.6348933e+38
6.0043693 0.62081236 1.267655 -2.5148991e+38
6.0050778 0.91986859 1.2565788 nan
6.0050516 0.9087925 1.2565788 nan
6.0050254 0.89771634 1.2565788 nan
6.0049992 0.88664019 1.2565788 -3.07073e+38
6.0049729 0.87556404 1.2565788 -2.1280189e+38
6.0049467 0.86448783 1.2565788 -2.3427226e+38
6.0049205 0.85341173 1.2565788 -2.5416918e+38
6.0048943 0.84233558 1.2565788 -2.5150559e+38
6.004868 0.83125937 1.2565788 -2.4882113e+38
6.0048418 0.82018328 1.2565788 -2.4748146e+38
6.0048156 0.80910707 1.2565788 -2.44823e+38
6.0047894 0.79803091 1.2565788 -2.4481781e+38
6.0047631 0.78695476 1.2565788 -2.4348862e+38
6.0047369 0.77587861 1.2565788 -2.4614712e+38
6.0047107 0.7648024 1.2565788 -2.4747124e+38
6.0046844 0.7537263 1.2565788 -2.5411744e+38
6.0046582 0.74265009 1.2565788 -2.5953813e+38
6.004632 0.73157394 1.2565788 -2.5687445e+38
6.0046058 0.72049779 1.2565788 -2.5288151e+38
6.0045791 0.70942163 1.2565788 -2.5418993e+38
6.0045528 0.69834542 1.2565788 -2.5549319e+38
6.0045266 0.68726933 1.2565788 -2.5548281e+38
6.0045004 0.67619312 1.2565788 -2.5548283e+38
6.0044742 0.66511703 1.2565788 -2.5681208e+38
6.0044479 0.65404081 1.2565788 -2.5814133e+38
6.1044512 0.65520394 1.2568644 -2.6212903e+38
6.0043955 0.63188851 1.2565788 -2.6613219e+38
6.0043693 0.62081236 1.2565788 -2.5812037e+38
6.0050778 0.91986859 1.2455026 nan
6.0050516 0.9087925 1.2455026 nan
6.0050254 0.89771634 1.2455026 nan
6.0049992 0.88664019 1.2455026 -3.1937921e+38
6.0049729 0.87556404 1.2455026 -2.1401709e+38
6.0049467 0.86448783 1.2455026 -2.341372e+38
6.0049205 0.85341173 1.2455026 -2.5546723e+38
6.0048943 0.84233558 1.2455026 -2.5281405e+38
6.004868 0.83125937 1.2455026 -2.4881073e+38
6.0048418 0.82018328 1.2455026 -2.4748144e+38
6.0048156 0.80910707 1.2455026 -2.4481779e+38
6.0047894 0.79803091 1.2455026 -2.4349373e+38
6.0047631 0.78695476 1.2455026 -2.434938e+38
6.0047369 0.77587861 1.2455026 -2.4482306e+38
6.0047107 0.7648024 1.2455026 -2.4747639e+38
6.0046844 0.7537263 1.2455026 -2.5015048e+38
6.0046582 0.74265009 1.2455026 -2.541797e+38
6.004632 0.73157394 1.2455026 -2.528868e+38
6.0046058 0.72049779 1.2455026 -2.5156788e+38
6.0045791 0.70942163 1.2455026 -2.5286066e+38
6.0045528 0.69834542 1.2455026 -2.5416395e+38
6.0045266 0.68726933 1.2455026 -2.5282433e+38
6.0045004 0.67619312 1.2455026 -2.5282439e+38
6.0044742 0.66511703 1.2455026 -2.5415366e+38
6.0044479 0.65404081 1.2455026 -2.5548812e+38
6.1044512 0.65520394 1.2455978 -2.5816218e+38
6.0043955 0.63188851 1.2455026 -2.6217045e+38
6.0050516 0.9087925 1.2344264 nan
6.0050254 0.89771634 1.2344264 nan
6.0049992 0.88664019 1.2344264 -3.314466e+38
6.0049729 0.87556404 1.2344264 -2.1424579e+38
6.0049467 0.86448783 1.2344264 -2.3544565e+38
6.0049205 0.85341173 1.2344264 -2.567705e+38
6.0048943 0.84233558 1.2344264 -2.5280886e+38
5.9088326 0.81640106 1.2345178 -2.4881073e+38
6.0048418 0.82018328 1.2344264 -2.4748144e+38
6.0048156 0.80910707 1.2344264 -2.4482296e+38
6.0047894 0.79803091 1.2344264 -2.4349371e+38
6.0047631 0.78695476 1.2344264 -2.4216451e+38
6.0047369 0.77587861 1.2344264 -2.44823e+38
6.0047107 0.7648024 1.2344264 -2.4615227e+38
6.0046844 0.7537263 1.2344264 -2.4747637e+38
6.0046582 0.74265009 1.2344264 -2.4886271e+38
6.004632 0.73157394 1.2344264 -2.5024386e+38
6.0046058 0.72049779 1.2344264 -2.5021784e+38
6.0045791 0.70942163 1.2344264 -2.5152624e+38
6.0045528 0.69834542 1.2344264 -2.5150549e+38
6.0045266 0.68726933 1.2344264 -2.5148993e+38
6.0045004 0.67619312 1.2344264 -2.5016594e+38
6.0044742 0.66511703 1.2344264 -2.5149521e+38
6.1044779 0.66647059 1.2343311 -2.5151602e+38
6.1044512 0.65520394 1.2343311 -2.541849e+38
6.1044245 0.64393735 1.2343311 -2.5681721e+38
5.9090128 0.89265418 1.2236245 nan
6.0050254 0.89771634 1.2233502 nan
6.0049992 0.88664019 1.2233502 nan
6.0049729 0.87556404 1.2233502 -2.7145995e+38
6.0049467 0.86448783 1.2233502 -2.5808407e+38
6.0049205 0.85341173 1.2233502 -2.4613148e+38
6.0048943 0.84233558 1.2233502 -2.4881598e+38
5.9088326 0.81640106 1.2236245 -2.5146399e+38
5.9088068 0.80550772 1.2236245 -2.4881067e+38
5.9087811 0.79461443 1.2236245 -2.4615217e+38
6.0047894 0.79803091 1.2233502 -2.4482809e+38
6.0047631 0.78695476 1.2233502 -2.4349889e+38
6.0047369 0.77587861 1.2233502 -2.4482813e+38
6.0047107 0.7648024 1.2233502 -2.461626e+38
6.0046844 0.7537263 1.2233502 -2.4616781e+38
6.0046582 0.74265009 1.2233502 -2.475334e+38
6.004632 0.73157394 1.2233502 -2.4886263e+38
6.0046058 0.72049779 1.2233502 -2.5151587e+38
6.0045791 0.70942163 1.2233502 -2.5150028e+38
6.0045528 0.69834542 1.2233502 -2.5148991e+38
6.0045266 0.68726933 1.2233502 -2.501607e+38
6.0045004 0.67619312 1.2233502 -2.5016594e+38
6.0044742 0.66511703 1.2233502 -2.5151596e+38
6.1044779 0.66647059 1.2230645 -2.5153679e+38
6.1044512 0.65520394 1.2230645 -2.555297e+38
5.9090128 0.89265418 1.2127311 nan
5.908987 0.8817609 1.2127311 nan
5.9089613 0.87086755 1.2127311 nan
5.9089355 0.85997427 1.2127311 -3.274851e+38
6.0049467 0.86448783 1.212274 -2.8195799e+38
6.0049205 0.85341173 1.212274 -2.3547675e+38
5.9088583 0.82729435 1.2127311 -2.4485426e+38
5.9088326 0.81640106 1.2127311 -2.528088e+38
5.9088068 0.80550772 1.2127311 -2.5014511e+38
5.9087811 0.79461443 1.2127311 -2.4615738e+38
6.0047894 0.79803091 1.212274 -2.4482811e+38
6.0047631 0.78695476 1.212274 -2.4349891e+38
6.0047369 0.77587861 1.212274 -2.4482813e+38
6.0047107 0.7648024 1.212274 -2.4483335e+38
6.0046844 0.7537263 1.212274 -2.4615742e+38
6.0046582 0.74265009 1.212274 -2.4616783e+38
6.004632 0.73157394 1.212274 -2.4882111e+38
6.0046058 0.72049779 1.212274 -2.5148474e+38
6.0045791 0.70942163 1.212274 -2.5146395e+38
6.0045528 0.69834542 1.212274 -2.5015032e+38
6.0045266 0.68726933 1.212274 -2.5015551e+38
6.0045004 0.67619312 1.212274 -2.501763e+38
6.0044742 0.66511703 1.212274 -2.5152632e+38
6.1044779 0.66647059 1.2117978 -2.5153155e+38
5.9090128 0.89265418 1.2018378 nan
6.0050254 0.89771634 1.2011979 nan
6.0049992 0.88664019 1.2011979 nan
5.9089355 0.85997427 1.2018378 nan
6.0049467 0.86448783 1.2011979 -2.9668827e+38
6.0049205 0.85341173 1.2011979 -2.3410067e+38
5.9088583 0.82729435 1.2018378 -2.4349386e+38
5.9088326 0.81640106 1.2018378 -2.5148476e+38
5.9088068 0.80550772 1.2018378 -2.4882626e+38
5.9087811 0.79461443 1.2018378 -2.461626e+38
6.0047894 0.79803091 1.2011979 -2.4616256e+38
6.0047631 0.78695476 1.2011979 -2.4482294e+38
6.0047369 0.77587861 1.2011979 -2.4349891e+38
6.0047107 0.7648024 1.2011979 -2.4217489e+38
6.0046844 0.7537263 1.2011979 -2.4349895e+38
6.0046582 0.74265009 1.2011979 -2.4615225e+38
6.004632 0.73157394 1.2011979 -2.4748669e+38
6.0046058 0.72049779 1.2011979 -2.4881073e+38
6.0045791 0.70942163 1.2011979 -2.5014513e+38
6.0045528 0.69834542 1.2011979 -2.5015551e+38
6.0045266 0.68726933 1.2011979 -2.501607e+38
6.0045004 0.67619312 1.2011979 -2.5018149e+38
6.0044742 0.66511703 1.2011979 -2.5151072e+38
6.0044479 0.65404081 1.2011979 -2.5417441e+38
5.9090128 0.89265418 1.1909444 nan
5.908987 0.8817609 1.1909444 nan
5.9089613 0.87086755 1.1909444 nan
5.9089355 0.85997427 1.1909444 nan
5.9089098 0.84908092 1.1909444 -3.1106036e+38
5.908884 0.83818769 1.1909444 -2.3277132e+38
5.9088583 0.82729435 1.1909444 -2.4220615e+38
5.9088326 0.81640106 1.1909444 -2.5017111e+38
5.9088068 0.80550772 1.1909444 -2.4884186e+38
5.9087811 0.79461443 1.1909444 -2.4617298e+38
6.0047894 0.79803091 1.1901217 -2.4616777e+38
6.0047631 0.78695476 1.1901217 -2.4616256e+38
6.0047369 0.77587861 1.1901217 -2.4349889e+38
6.0047107 0.7648024 1.1901217 -2.395112e+38
6.0046844 0.7537263 1.1901217 -2.4215927e+38
6.0046582 0.74265009 1.1901217 -2.4482296e+38
6.004632 0.73157394 1.1901217 -2.461574e+38
6.0046058 0.72049779 1.1901217 -2.4615742e+38
6.0045791 0.70942163 1.1901217 -2.4882111e+38
6.0045528 0.69834542 1.1901217 -2.5015553e+38
6.0045266 0.68726933 1.1901217 -2.5015555e+38
6.0045004 0.67619312 1.1901217 -2.5016592e+38
6.0044742 0.66511703 1.1901217 -2.5282437e+38
6.0044479 0.65404081 1.1901217 -2.5549845e+38
6.0050516 0.9087925 1.1790454 nan
5.908987 0.8817609 1.1800511 nan
6.0049992 0.88664019 1.1790454 nan
5.9089355 0.85997427 1.1800511 nan
6.0049467 0.86448783 1.1790454 -3.0463731e+38
6.0049205 0.85341173 1.1790454 -2.2480104e+38
5.9088583 0.82729435 1.1800511 -2.3819246e+38
5.9088326 0.81640106 1.1800511 -2.515107e+38
5.9088068 0.80550772 1.1800511 -2.501659e+38
5.9087811 0.79461443 1.1800511 -2.4882626e+38
6.0047894 0.79803091 1.1790454 -2.4882624e+38
6.0047631 0.78695476 1.1790454 -2.4749178e+38
6.0047369 0.77587861 1.1790454 -2.4483329e+38
6.0047107 0.7648024 1.1790454 -2.4349365e+38
6.0046844 0.7537263 1.1790454 -2.4482286e+38
6.0046582 0.74265009 1.1790454 -2.4615732e+38
6.004632 0.73157394 1.1790454 -2.4615734e+38
6.0046058 0.72049779 1.1790454 -2.461574e+38
6.0045791 0.70942163 1.1790454 -2.4749708e+38
5.9085226 0.6856814 1.1800511 -2.4883152e+38
6.0045266 0.68726933 1.1790454 -2.5016077e+38
6.0045004 0.67619312 1.1790454 -2.5148997e+38
6.0044742 0.66511703 1.1790454 -2.5415879e+38
6.0044479 0.65404081 1.1790454 -2.5682765e+38
6.0044217 0.64296466 1.1790454 -2.6082055e+38
5.908987 0.8817609 1.1691579 nan
5.9089613 0.87086755 1.1691579 nan
5.9089355 0.85997427 1.1691579 nan
6.0049467 0.86448783 1.1679692 -2.9786183e+38
6.0049205 0.85341173 1.1679692 -2.1681557e+38
6.0048943 0.84233558 1.1679692 -2.3557045e+38
5.9088326 0.81640106 1.1691579 -2.528348e+38
5.9088068 0.80550772 1.1691579 -2.528192e+38
6.0048156 0.80910707 1.1679692 -2.5148993e+38
6.0047894 0.79803091 1.1679692 -2.5015547e+38
6.0047631 0.78695476 1.1679692 -2.4882622e+38
6.0047369 0.77587861 1.1679692 -2.4749698e+38
6.0047107 0.7648024 1.1679692 -2.4615732e+38
6.0046844 0.7537263 1.1679692 -2.461573e+38
6.0046582 0.74265009 1.1679692 -2.4615732e+38
6.004632 0.73157394 1.1679692 -2.4615215e+38
6.0046058 0.72049779 1.1679692 -2.4616258e+38
5.9085488 0.69657469 1.1691579 -2.46173e+38
5.9085226 0.6856814 1.1691579 -2.4617304e+38
6.0045266 0.68726933 1.1679692 -2.4882637e+38
6.0045004 0.67619312 1.1679692 -2.5148999e+38
6.0044742 0.66511703 1.1679692 -2.5415883e+38
6.0044479 0.65404081 1.1679692 -2.568225e+38
5.908987 0.8817609 1.1582645 nan
5.9089613 0.87086755 1.1582645 nan
5.9089355 0.85997427 1.1582645 nan
6.0049467 0.86448783 1.156893 -3.020369e+38
6.0049205 0.85341173 1.156893 -2.007405e+38
6.0048943 0.84233558 1.156893 -2.2883093e+38
5.9088326 0.81640106 1.1582645 -2.5680697e+38
5.9088068 0.80550772 1.1582645 -2.5414845e+38
6.0048156 0.80910707 1.156893 -2.5282437e+38
6.0047894 0.79803091 1.156893 -2.5148989e+38
6.0047631 0.78695476 1.156893 -2.5015547e+38
6.0047369 0.77587861 1.156893 -2.4882622e+38
6.0047107 0.7648024 1.156893 -2.4748659e+38
6.0046844 0.7537263 1.156893 -2.4748655e+38
6.0046582 0.74265009 1.156893 -2.4749176e+38
6.004632 0.73157394 1.156893 -2.4749176e+38
6.0046058 0.72049779 1.156893 -2.4882101e+38
5.9085488 0.69657469 1.1582645 -2.4882622e+38
5.9085226 0.6856814 1.1582645 -2.488263e+38
5.9084969 0.67478806 1.1582645 -2.5016079e+38
5.9084711 0.66389483 1.1582645 -2.5149003e+38
5.9084454 0.65300149 1.1582645 -2.5415887e+38
5.9084196 0.6421082 1.1582645 -2.5815694e+38
5.908987 0.8817609 1.1473712 nan
5.9089613 0.87086755 1.1473712 nan
5.9089355 0.85997427 1.1473712 nan
5.9089098 0.84908092 1.1473712 -3.0727084e+38
5.908884 0.83818769 1.1473712 -1.8488834e+38
6.0048943 0.84233558 1.1458168 -2.2220013e+38
5.9088326 0.81640106 1.1473712 -2.594497e+38
5.9088068 0.80550772 1.1473712 -2.5680167e+38
6.0048156 0.80910707 1.1458168 -2.5414837e+38
6.0047894 0.79803091 1.1458168 -2.5281912e+38
6.0047631 0.78695476 1.1458168 -2.5015547e+38
6.0047369 0.77587861 1.1458168 -2.4882624e+38
6.0047107 0.7648024 1.1458168 -2.474918e+38
5.9086518 0.74014789 1.1473712 -2.4748661e+38
5.9086261 0.7292546 1.1473712 -2.474918e+38
6.004632 0.73157394 1.1458168 -2.5015026e+38
5.9085746 0.70746803 1.1473712 -2.5147949e+38
5.9085488 0.69657469 1.1473712 -2.514847e+38
5.9085226 0.6856814 1.1473712 -2.5015551e+38
5.9084969 0.67478806 1.1473712 -2.5016075e+38
6.0045004 0.67619312 1.1458168 -2.5016079e+38
6.0044742 0.66511703 1.1458168 -2.5548293e+38
5.9084196 0.6421082 1.1473712 -2.5947581e+38
5.9083939 0.63121486 1.1473712 -2.6613233e+38
5.9089613 0.87086755 1.1364778 nan
5.9089355 0.85997427 1.1364778 nan
5.9089098 0.84908092 1.1364778 -3.1545398e+38
6.0049205 0.85341173 1.1347407 -1.8877729e+38
6.0048943 0.84233558 1.1347407 -2.2481161e+38
5.9088326 0.81640106 1.1364778 -2.6211321e+38
5.9088068 0.80550772 1.1364778 -2.5680161e+38
6.0048156 0.80910707 1.1347407 -2.5281912e+38
6.0047894 0.79803091 1.1347407 -2.5148989e+38
6.0047631 0.78695476 1.1347407 -2.5015547e+38
6.0047369 0.77587861 1.1347407 -2.4882624e+38
6.0047107 0.7648024 1.1347407 -2.4616262e+38
5.9086518 0.74014789 1.1364778 -2.4616262e+38
5.9086261 0.7292546 1.1364778 -2.4615742e+38
5.9086003 0.71836132 1.1364778 -2.4882105e+38
5.9085746 0.70746803 1.1364778 -2.501503e+38
5.9085488 0.69657469 1.1364778 -2.5015549e+38
