# .PCD v0.7 - Point Cloud Data file format
VERSION 0.7
FIELDS x y z rgb
SIZE 4 4 4 4
TYPE F F F F
COUNT 1 1 1 1
WIDTH 1020
HEIGHT 1
VIEWPOINT 0 0 0 1 0 0 0
POINTS 1020
DATA ascii
0.083725721 -0.7625829 2.3760002 -2.409089e+38
0.088251434 -0.7625829 2.3760002 -2.422433e+38
0.092113338 -0.75712669 2.3590002 -2.4093482e+38
0.096606672 -0.75712669 2.3590002 -2.4096083e+38
0.10110001 -0.75712669 2.3590002 -2.4228488e+38
0.10559334 -0.75712669 2.3590002 -2.4361934e+38
0.11008667 -0.75712669 2.3590002 -2.43609e+38
0.11458001 -0.75712669 2.3590002 -2.4226943e+38
0.11907334 -0.75712669 2.3590002 -2.4227466e+38
0.12356667 -0.75712669 2.3590002 -2.4227472e+38
0.12719144 -0.75199145 2.3430002 -2.4492803e+38
0.13165429 -0.75199145 2.3430002 -2.4759693e+38
0.13611715 -0.75199145 2.3430002 -2.5026064e+38
0.14058001 -0.75199145 2.3430002 -2.5293986e+38
0.14504287 -0.75199145 2.3430002 -2.5560349e+38
0.14950572 -0.75199145 2.3430002 -2.5961208e+38
0.15396859 -0.75199145 2.3430002 -2.59633e+38
0.15843144 -0.75199145 2.3430002 -2.6098305e+38
0.16289429 -0.75199145 2.3430002 -2.5567139e+38
0.16735715 -0.75199145 2.3430002 -2.5169906e+38
0.17182001 -0.75199145 2.3430002 -2.4767481e+38
0.17628287 -0.75199145 2.3430002 -2.4228565e+38
0.18074572 -0.75199145 2.3430002 -2.4116454e+38
0.18781716 -0.7625829 2.3760002 -2.3996084e+38
0.19234286 -0.7625829 2.3760002 -3.2399389e+38
0.1981943 -0.76771814 2.3920002 nan
0.20275049 -0.76771814 2.3920002 nan
0.20730668 -0.76771814 2.3920002 nan
0.21336858 -0.77317435 2.4090002 nan
-0.078799054 -0.85153812 2.6690001 nan
-0.07371524 -0.85153812 2.6690001 nan
-0.068631433 -0.85153812 2.6690001 nan
-0.063547626 -0.85153812 2.6690001 nan
-0.058025718 -0.84515721 2.6490002 nan
-0.052580003 -0.83877623 2.6290002 nan
-0.047210481 -0.83239532 2.6090002 nan
-0.041917145 -0.82601434 2.5890002 nan
-0.036714289 -0.81995243 2.5700002 nan
-0.031583812 -0.81389052 2.5510001 nan
-0.026525715 -0.80782861 2.5320001 nan
-0.021702858 -0.80782861 2.5320001 nan
-0.016760001 -0.80208576 2.5140002 nan
-0.0118 -0.79060006 2.4780002 -3.1839982e+38
-0.0070800004 -0.79060006 2.4780002 -2.6622164e+38
-0.00236 -0.79060006 2.4780002 -2.142724e+38
0.0023771431 -0.79634291 2.4960001 -2.4496898e+38
0.0071314289 -0.79634291 2.4960001 -2.7422244e+38
0.0118 -0.79060006 2.4780002 -2.3025413e+38
0.016520001 -0.79060006 2.4780002 -1.8503423e+38
0.021240002 -0.79060006 2.4780002 -2.1149917e+38
0.025960002 -0.79060006 2.4780002 -2.3682196e+38
0.030457145 -0.78485721 2.46 -2.3818747e+38
0.035142861 -0.78485721 2.46 -2.3819266e+38
0.039553337 -0.77943337 2.4430001 -2.3819786e+38
0.044206671 -0.77943337 2.4430001 -2.3687384e+38
0.048860002 -0.77943337 2.4430001 -2.3555502e+38
0.053513337 -0.77943337 2.4430001 -2.3423104e+38
0.057761908 -0.77400959 2.4260001 -2.3291747e+38
0.061945718 -0.76858574 2.4090002 -2.3158826e+38
0.066534288 -0.76858574 2.4090002 -2.355708e+38
0.070620954 -0.76316196 2.3920002 -2.3822933e+38
0.075177148 -0.76316196 2.3920002 -2.3821903e+38
0.079733342 -0.76316196 2.3920002 -2.3823467e+38
0.083725721 -0.75805718 2.3760002 -2.3956915e+38
0.087620005 -0.75263339 2.3590002 -2.3958475e+38
0.092113338 -0.75263339 2.3590002 -2.4093478e+38
0.096606672 -0.75263339 2.3590002 -2.4093998e+38
0.10110001 -0.75263339 2.3590002 -2.4094e+38
0.10559334 -0.75263339 2.3590002 -2.4094006e+38
0.11008667 -0.75263339 2.3590002 -2.3960568e+38
0.11458001 -0.75263339 2.3590002 -2.382713e+38
0.11907334 -0.75263339 2.3590002 -2.3827132e+38
0.12356667 -0.75263339 2.3590002 -2.3693692e+38
0.12719144 -0.74752861 2.3430002 -2.3957982e+38
0.13165429 -0.74752861 2.3430002 -2.4226428e+38
0.13611715 -0.74752861 2.3430002 -2.4625719e+38
0.14058001 -0.74752861 2.3430002 -2.4892607e+38
0.14504287 -0.74752861 2.3430002 -2.529138e+38
0.14950572 -0.74752861 2.3430002 -2.5560355e+38
0.15291715 -0.74242383 2.3270001 -2.5826734e+38
0.15734953 -0.74242383 2.3270001 -2.5963817e+38
0.16178192 -0.74242383 2.3270001 -2.6631552e+38
0.16735715 -0.74752861 2.3430002 -2.7165312e+38
0.17182001 -0.74752861 2.3430002 -2.7832516e+38
0.17628287 -0.74752861 2.3430002 -2.8358001e+38
0.18074572 -0.74752861 2.3430002 -2.4236901e+38
0.18647334 -0.75263339 2.3590002 -2.0129841e+38
0.19096668 -0.75263339 2.3590002 -2.5858547e+38
0.19686858 -0.75805718 2.3760002 -3.1468361e+38
0.20275049 -0.76316196 2.3920002 nan
0.20878002 -0.76858574 2.4090002 nan
0.21336858 -0.76858574 2.4090002 nan
0.21795715 -0.76858574 2.4090002 nan
0.22254573 -0.76858574 2.4090002 nan
-0.078799054 -0.84645432 2.6690001 nan
-0.07371524 -0.84645432 2.6690001 nan
-0.068117149 -0.84011149 2.6490002 nan
-0.06307143 -0.84011149 2.6490002 nan
-0.058025718 -0.84011149 2.6490002 nan
-0.052180003 -0.82742578 2.6090002 nan
-0.046848573 -0.82108289 2.5890002 nan
-0.041917145 -0.82108289 2.5890002 -3.2671895e+38
-0.036714289 -0.81505722 2.5700002 -3.3315701e+38
-0.031348575 -0.80300575 2.5320001 -3.3973561e+38
-0.026525715 -0.80300575 2.5320001 -3.3173942e+38
-0.021548573 -0.79729718 2.5140002 -3.2502537e+38
-0.016760001 -0.79729718 2.5140002 -3.2766784e+38
-0.0118 -0.78588003 2.4780002 -3.3160845e+38
-0.0070800004 -0.78588003 2.4780002 -2.8223454e+38
-0.00236 -0.78588003 2.4780002 -2.3290729e+38
0.0023771431 -0.7915886 2.4960001 -2.5020758e+38
0.0071314289 -0.7915886 2.4960001 -2.6745643e+38
0.0118 -0.78588003 2.4780002 -2.4087191e+38
0.016520001 -0.78588003 2.4780002 -2.1423551e+38
0.021240002 -0.78588003 2.4780002 -2.2755381e+38
0.025960002 -0.78588003 2.4780002 -2.408772e+38
0.030457145 -0.78017145 2.46 -2.3954793e+38
0.035142861 -0.78017145 2.46 -2.3821355e+38
0.039553337 -0.77478004 2.4430001 -2.3687915e+38
0.044206671 -0.77478004 2.4430001 -2.3556033e+38
0.048860002 -0.77478004 2.4430001 -2.342311e+38
0.053513337 -0.77478004 2.4430001 -2.3290711e+38
0.057761908 -0.76938862 2.4260001 -2.3157792e+38
0.061945718 -0.7639972 2.4090002 -2.3157786e+38
0.066534288 -0.7639972 2.4090002 -2.3423106e+38
0.071122862 -0.7639972 2.4090002 -2.36874e+38
0.075177148 -0.75860578 2.3920002 -2.3821885e+38
0.079733342 -0.75860578 2.3920002 -2.3955335e+38
0.083725721 -0.75353146 2.3760002 -2.3956899e+38
0.087620005 -0.74814004 2.3590002 -2.4090868e+38
0.092113338 -0.74814004 2.3590002 -2.4091915e+38
0.096606672 -0.74814004 2.3590002 -2.4092434e+38
0.10110001 -0.74814004 2.3590002 -2.4093472e+38
0.10559334 -0.74814004 2.3590002 -2.4092959e+38
0.11008667 -0.74814004 2.3590002 -2.3959004e+38
0.11458001 -0.74814004 2.3590002 -2.3957448e+38
0.11907334 -0.74814004 2.3590002 -2.3692124e+38
0.12356667 -0.74814004 2.3590002 -2.355972e+38
0.12719144 -0.74306577 2.3430002 -2.3825564e+38
0.13165429 -0.74306577 2.3430002 -2.4093489e+38
0.13611715 -0.74306577 2.3430002 -2.4359334e+38
0.14058001 -0.74306577 2.3430002 -2.4758632e+38
0.14504287 -0.74306577 2.3430002 -2.5025526e+38
0.14950572 -0.74306577 2.3430002 -2.5293982e+38
0.15291715 -0.73799145 2.3270001 -2.556088e+38
0.15734953 -0.73799145 2.3270001 -2.5830367e+38
0.16178192 -0.73799145 2.3270001 -2.6231737e+38
0.1662143 -0.73799145 2.3270001 -2.6767071e+38
0.17182001 -0.74306577 2.3430002 -2.7430653e+38
0.17628287 -0.74306577 2.3430002 -2.8094236e+38
0.18074572 -0.74306577 2.3430002 -2.5568192e+38
0.18520859 -0.74306577 2.3430002 -2.3176101e+38
0.19096668 -0.74814004 2.3590002 -2.4514156e+38
0.19686858 -0.75353146 2.3760002 -2.5986801e+38
0.20275049 -0.75860578 2.3920002 nan
0.20730668 -0.75860578 2.3920002 nan
0.21336858 -0.7639972 2.4090002 nan
0.21795715 -0.7639972 2.4090002 nan
0.22254573 -0.7639972 2.4090002 nan
-0.084542863 -0.84799051 2.6900001 nan
-0.078799054 -0.84137052 2.6690001 nan
-0.07371524 -0.84137052 2.6690001 nan
-0.068117149 -0.83506578 2.6490002 nan
-0.06307143 -0.83506578 2.6490002 nan
-0.057587624 -0.82876098 2.6290002 nan
-0.052180003 -0.82245624 2.6090002 nan
-0.046848573 -0.8161515 2.5890002 -3.194027e+38
-0.041609526 -0.81016195 2.5700002 -1.9867646e+38
-0.036442861 -0.80417246 2.5510001 -2.5453505e+38
-0.031348575 -0.7981829 2.5320001 -3.1040936e+38
-0.026525715 -0.7981829 2.5320001 -2.9567362e+38
-0.021548573 -0.7925086 2.5140002 -2.8109341e+38
-0.016520001 -0.78116006 2.4780002 -3.1304658e+38
-0.0118 -0.78116006 2.4780002 nan
-0.0070800004 -0.78116006 2.4780002 -2.9819574e+38
-0.00236 -0.78116006 2.4780002 -2.5158408e+38
0.0023771431 -0.78683436 2.4960001 -2.5550388e+38
0.0070800004 -0.78116006 2.4780002 -2.5950201e+38
0.0118 -0.78116006 2.4780002 -2.515319e+38
0.016520001 -0.78116006 2.4780002 -2.4222732e+38
0.021240002 -0.78116006 2.4780002 -2.4359292e+38
0.025960002 -0.78116006 2.4780002 -2.4357211e+38
0.030457145 -0.77548575 2.46 -2.4091361e+38
0.035142861 -0.77548575 2.46 -2.3689475e+38
0.039553337 -0.7701267 2.4430001 -2.3554475e+38
0.044206671 -0.7701267 2.4430001 -2.3289668e+38
0.048860002 -0.7701267 2.4430001 -2.3156226e+38
0.053140957 -0.76476765 2.4260001 -2.3023823e+38
0.057761908 -0.76476765 2.4260001 -2.3156743e+38
0.061945718 -0.75940859 2.4090002 -2.3157263e+38
0.066534288 -0.75940859 2.4090002 -2.3422589e+38
0.071122862 -0.75940859 2.4090002 -2.3556035e+38
0.075177148 -0.7540496 2.3920002 -2.3822925e+38
0.079733342 -0.7540496 2.3920002 -2.3955856e+38
0.083725721 -0.74900573 2.3760002 -2.4089306e+38
0.088251434 -0.74900573 2.3760002 -2.4090868e+38
0.092113338 -0.74364674 2.3590002 -2.4091393e+38
0.096606672 -0.74364674 2.3590002 -2.3960548e+38
0.10110001 -0.74364674 2.3590002 -2.4094511e+38
0.10559334 -0.74364674 2.3590002 -2.4091919e+38
0.10934 -0.73860288 2.3430002 -2.4090363e+38
0.11458001 -0.74364674 2.3590002 -2.3956402e+38
0.11907334 -0.74364674 2.3590002 -2.3690556e+38
0.12356667 -0.74364674 2.3590002 -2.3425751e+38
0.12719144 -0.73860288 2.3430002 -2.3691599e+38
0.13165429 -0.73860288 2.3430002 -2.382556e+38
0.13611715 -0.73860288 2.3430002 -2.422433e+38
0.14058001 -0.73860288 2.3430002 -2.4491744e+38
0.14504287 -0.73860288 2.3430002 -2.4758119e+38
0.14950572 -0.73860288 2.3430002 -2.4893131e+38
0.15291715 -0.73355907 2.3270001 -2.529243e+38
0.15734953 -0.73355907 2.3270001 -2.5561919e+38
0.16178192 -0.73355907 2.3270001 -2.5962774e+38
0.1662143 -0.73355907 2.3270001 -2.6364145e+38
0.17182001 -0.73860288 2.3430002 -2.7029286e+38
0.17628287 -0.73860288 2.3430002 -2.76965e+38
0.18074572 -0.73860288 2.3430002 -2.6898968e+38
0.18520859 -0.73860288 2.3430002 -2.6099879e+38
0.19096668 -0.74364674 2.3590002 -2.3301759e+38
0.19686858 -0.74900573 2.3760002 -2.0404031e+38
0.20275049 -0.7540496 2.3920002 -3.2942483e+38
0.20730668 -0.7540496 2.3920002 nan
0.21186288 -0.7540496 2.3920002 nan
0.21795715 -0.75940859 2.4090002 nan
0.22254573 -0.75940859 2.4090002 nan
-0.089666672 -0.84286672 2.6900001 nan
-0.084542863 -0.84286672 2.6900001 nan
-0.078799054 -0.83628672 2.6690001 nan
-0.07371524 -0.83628672 2.6690001 nan
-0.068117149 -0.83002007 2.6490002 nan
-0.062595241 -0.82375342 2.6290002 nan
-0.057587624 -0.82375342 2.6290002 nan
-0.051780004 -0.81122005 2.5890002 -3.1597599e+38
-0.046848573 -0.81122005 2.5890002 -2.7567768e+38
-0.041609526 -0.80526674 2.5700002 -2.3565556e+38
-0.036442861 -0.79931337 2.5510001 -2.6913557e+38
-0.031348575 -0.79336005 2.5320001 -3.0251691e+38
-0.026337145 -0.78772002 2.5140002 -2.916962e+38
-0.021548573 -0.78772002 2.5140002 -2.8233445e+38
-0.016640002 -0.78208005 2.4960001 -3.1304682e+38
-0.0118 -0.77644002 2.4780002 nan
-0.0070800004 -0.77644002 2.4780002 -2.9166908e+38
-0.00236 -0.77644002 2.4780002 -2.3966788e+38
0.0023771431 -0.78208005 2.4960001 -2.4755983e+38
0.0071314289 -0.78208005 2.4960001 -2.5421644e+38
0.0118 -0.77644002 2.4780002 -2.4889961e+38
0.016520001 -0.77644002 2.4780002 -2.4226383e+38
0.021240002 -0.77644002 2.4780002 -2.4226379e+38
0.025960002 -0.77644002 2.4780002 -2.4226375e+38
0.030457145 -0.77080005 2.46 -2.3957927e+38
0.035142861 -0.77080005 2.46 -2.3822923e+38
0.039553337 -0.76547337 2.4430001 -2.3556035e+38
0.044206671 -0.76547337 2.4430001 -2.3423112e+38
0.048520003 -0.76014674 2.4260001 -2.3422591e+38
0.053140957 -0.76014674 2.4260001 -2.3422585e+38
0.057761908 -0.76014674 2.4260001 -2.3423098e+38
0.061945718 -0.75482005 2.4090002 -2.3556546e+38
0.066534288 -0.75482005 2.4090002 -2.3557072e+38
0.070620954 -0.74949336 2.3920002 -2.3690518e+38
0.075177148 -0.74949336 2.3920002 -2.3823445e+38
0.079733342 -0.74949336 2.3920002 -2.40893e+38
0.083725721 -0.74448007 2.3760002 -2.3956905e+38
0.088251434 -0.74448007 2.3760002 -2.3958465e+38
0.092113338 -0.73915339 2.3590002 -2.3826582e+38
0.096606672 -0.73915339 2.3590002 -2.369574e+38
0.10110001 -0.73915339 2.3590002 -2.382555e+38
0.10559334 -0.73915339 2.3590002 -2.3956396e+38
0.10934 -0.73414004 2.3430002 -2.3822434e+38
0.11380287 -0.73414004 2.3430002 -2.368899e+38
0.11907334 -0.73915339 2.3590002 -2.3557104e+38
0.12272858 -0.73414004 2.3430002 -2.3425224e+38
0.12719144 -0.73414004 2.3430002 -2.3558151e+38
0.13165429 -0.73414004 2.3430002 -2.3692114e+38
0.13611715 -0.73414004 2.3430002 -2.3958479e+38
0.14058001 -0.73414004 2.3430002 -2.4225892e+38
0.14504287 -0.73414004 2.3430002 -2.4358825e+38
0.14950572 -0.73414004 2.3430002 -2.4626241e+38
0.15396859 -0.73414004 2.3430002 -2.4893135e+38
0.15734953 -0.72912669 2.3270001 -2.5293992e+38
0.16178192 -0.72912669 2.3270001 -2.5560886e+38
0.1662143 -0.72912669 2.3270001 -2.5962259e+38
0.17182001 -0.73414004 2.3430002 -2.6498629e+38
0.17628287 -0.73414004 2.3430002 -2.7167919e+38
0.18074572 -0.73414004 2.3430002 -2.70324e+38
0.18520859 -0.73414004 2.3430002 -2.6901049e+38
0.18967144 -0.73414004 2.3430002 -2.5037026e+38
0.19546001 -0.73915339 2.3590002 -2.304534e+38
0.2013943 -0.74448007 2.3760002 -3.0390962e+38
0.20592001 -0.74448007 2.3760002 nan
0.21186288 -0.74949336 2.3920002 nan
0.21641906 -0.74949336 2.3920002 nan
0.22254573 -0.75482005 2.4090002 nan
-0.089666672 -0.83774292 2.6900001 nan
-0.084542863 -0.83774292 2.6900001 nan
-0.078799054 -0.83120292 2.6690001 nan
-0.073162861 -0.82497436 2.6490002 nan
-0.068117149 -0.82497436 2.6490002 nan
-0.062595241 -0.81874579 2.6290002 nan
-0.057149526 -0.81251723 2.6090002 -3.2226378e+38
-0.051780004 -0.8062886 2.5890002 -1.9196266e+38
-0.046504766 -0.80037147 2.5700002 -2.3167812e+38
-0.041301906 -0.79445434 2.5510001 -2.7168486e+38
-0.036171433 -0.7885372 2.5320001 -2.8383492e+38
-0.031348575 -0.7885372 2.5320001 -2.9441668e+38
-0.026337145 -0.78293151 2.5140002 -2.8892307e+38
-0.021548573 -0.78293151 2.5140002 -2.8234976e+38
-0.016640002 -0.77732575 2.4960001 -3.1306236e+38
-0.0118 -0.77172005 2.4780002 nan
-0.0070800004 -0.77172005 2.4780002 -2.863834e+38
-0.00236 -0.77172005 2.4780002 -2.276841e+38
0.0023771431 -0.77732575 2.4960001 -2.3819295e+38
0.0070800004 -0.77172005 2.4780002 -2.4888395e+38
0.0118 -0.77172005 2.4780002 -2.4625151e+38
0.016520001 -0.77172005 2.4780002 -2.422586e+38
0.021240002 -0.77172005 2.4780002 -2.4093454e+38
0.02577143 -0.76611435 2.46 -2.3957931e+38
0.030457145 -0.76611435 2.46 -2.3955852e+38
0.034900002 -0.76082003 2.4430001 -2.3822923e+38
0.039278097 -0.75552577 2.4260001 -2.3689996e+38
0.043899052 -0.75552577 2.4260001 -2.3556554e+38
0.048520003 -0.75552577 2.4260001 -2.3688958e+38
0.053140957 -0.75552577 2.4260001 -2.3688954e+38
0.057357147 -0.7502315 2.4090002 -2.3822913e+38
0.061945718 -0.7502315 2.4090002 -2.382344e+38
0.066534288 -0.7502315 2.4090002 -2.3823449e+38
0.070620954 -0.74493718 2.3920002 -2.369053e+38
0.075177148 -0.74493718 2.3920002 -2.3956379e+38
0.079733342 -0.74493718 2.3920002 -2.4089826e+38
0.083725721 -0.73995435 2.3760002 -2.3956905e+38
0.088251434 -0.73995435 2.3760002 -2.36921e+38
0.092113338 -0.73466003 2.3590002 -2.3559696e+38
0.096606672 -0.73466003 2.3590002 -2.3292814e+38
0.10110001 -0.73466003 2.3590002 -2.3556068e+38
0.10559334 -0.73466003 2.3590002 -2.3687948e+38
0.10934 -0.7296772 2.3430002 -2.3552946e+38
0.11380287 -0.7296772 2.3430002 -2.3289175e+38
0.11826573 -0.7296772 2.3430002 -2.3290212e+38
0.12272858 -0.7296772 2.3430002 -2.3290735e+38
0.12719144 -0.7296772 2.3430002 -2.3424181e+38
0.13165429 -0.7296772 2.3430002 -2.3558149e+38
0.13611715 -0.7296772 2.3430002 -2.3823998e+38
0.14058001 -0.7296772 2.3430002 -2.3958485e+38
0.14504287 -0.7296772 2.3430002 -2.4091414e+38
0.14950572 -0.7296772 2.3430002 -2.42259e+38
0.15396859 -0.7296772 2.3430002 -2.4624677e+38
0.15734953 -0.72469431 2.3270001 -2.502553e+38
0.16178192 -0.72469431 2.3270001 -2.5290347e+38
0.1662143 -0.72469431 2.3270001 -2.5428477e+38
0.17182001 -0.7296772 2.3430002 -2.596849e+38
0.17507906 -0.72469431 2.3270001 -2.6498627e+38
0.17951144 -0.72469431 2.3270001 -2.7162207e+38
0.18520859 -0.7296772 2.3430002 -2.7697527e+38
0.18967144 -0.7296772 2.3430002 -2.6766023e+38
0.19546001 -0.73466003 2.3590002 -2.5704257e+38
0.19995335 -0.73466003 2.3590002 -2.7976465e+38
0.20592001 -0.73995435 2.3760002 -3.0136006e+38
0.21044573 -0.73995435 2.3760002 nan
0.21641906 -0.74493718 2.3920002 nan
0.22097525 -0.74493718 2.3920002 nan
0.2271343 -0.7502315 2.4090002 nan
0.23172288 -0.7502315 2.4090002 nan
0.23631145 -0.7502315 2.4090002 nan
0.24090001 -0.7502315 2.4090002 nan
-0.089666672 -0.83261913 2.6900001 nan
-0.083882861 -0.82611912 2.6690001 nan
-0.078799054 -0.82611912 2.6690001 nan
-0.073162861 -0.81992865 2.6490002 nan
-0.068117149 -0.81992865 2.6490002 nan
-0.062595241 -0.81373817 2.6290002 nan
-0.057149526 -0.80754769 2.6090002 -2.8637367e+38
-0.051780004 -0.80135721 2.5890002 -2.0497407e+38
-0.046504766 -0.79547626 2.5700002 -2.4238459e+38
-0.041301906 -0.78959531 2.5510001 -2.810673e+38
-0.036171433 -0.78371435 2.5320001 -2.9043429e+38
-0.031348575 -0.78371435 2.5320001 -2.9839374e+38
-0.026337145 -0.77814293 2.5140002 -2.9962394e+38
-0.021548573 -0.77814293 2.5140002 -3.0223082e+38
-0.016520001 -0.76700008 2.4780002 -2.9701291e+38
-0.0118 -0.76700008 2.4780002 -2.9180982e+38
-0.0070285718 -0.76142859 2.46 -2.5566584e+38
-0.00236 -0.76700008 2.4780002 -2.1959974e+38
0.00236 -0.76700008 2.4780002 -2.3159354e+38
0.0070800004 -0.76700008 2.4780002 -2.4491701e+38
0.0118 -0.76700008 2.4780002 -2.422534e+38
0.016520001 -0.76700008 2.4780002 -2.3958974e+38
0.021085715 -0.76142859 2.46 -2.3957931e+38
0.02577143 -0.76142859 2.46 -2.3822412e+38
0.030246669 -0.7561667 2.4430001 -2.3822929e+38
0.034900002 -0.7561667 2.4430001 -2.3822406e+38
0.039278097 -0.7509048 2.4260001 -2.38224e+38
0.043899052 -0.7509048 2.4260001 -2.3688958e+38
0.048520003 -0.7509048 2.4260001 -2.3821881e+38
0.053140957 -0.7509048 2.4260001 -2.3954806e+38
0.057357147 -0.7456429 2.4090002 -2.4088767e+38
0.061945718 -0.7456429 2.4090002 -2.4355661e+38
0.066534288 -0.7456429 2.4090002 -2.4089304e+38
0.070620954 -0.740381 2.3920002 -2.3956388e+38
0.075177148 -0.740381 2.3920002 -2.3956911e+38
0.079733342 -0.740381 2.3920002 -2.3956909e+38
0.083725721 -0.73542863 2.3760002 -2.3558656e+38
0.087620005 -0.73016673 2.3590002 -2.3293329e+38
0.092113338 -0.73016673 2.3590002 -2.2892484e+38
0.096606672 -0.73016673 2.3590002 -2.2625602e+38
0.10110001 -0.73016673 2.3590002 -2.2756969e+38
0.10559334 -0.73016673 2.3590002 -2.3021253e+38
0.10934 -0.72521436 2.3430002 -2.3155208e+38
0.11380287 -0.72521436 2.3430002 -2.3288129e+38
0.11826573 -0.72521436 2.3430002 -2.315624e+38
0.12272858 -0.72521436 2.3430002 -2.3023843e+38
0.12719144 -0.72521436 2.3430002 -2.3025405e+38
0.13165429 -0.72521436 2.3430002 -2.3159376e+38
0.13611715 -0.72521436 2.3430002 -2.342523e+38
0.14058001 -0.72521436 2.3430002 -2.3691597e+38
0.14504287 -0.72521436 2.3430002 -2.3957962e+38
0.14950572 -0.72521436 2.3430002 -2.4092446e+38
0.15396859 -0.72521436 2.3430002 -2.4359332e+38
0.15734953 -0.72026193 2.3270001 -2.4626744e+38
0.16178192 -0.72026193 2.3270001 -2.4758636e+38
0.1662143 -0.72026193 2.3270001 -2.5024502e+38
0.17182001 -0.72521436 2.3430002 -2.5694848e+38
0.17628287 -0.72521436 2.3430002 -2.649395e+38
0.18074572 -0.72521436 2.3430002 -2.7031878e+38
0.18520859 -0.72521436 2.3430002 -2.7700103e+38
0.18967144 -0.72521436 2.3430002 -2.7163712e+38
0.19413429 -0.72521436 2.3430002 -2.6624792e+38
0.19995335 -0.73016673 2.3590002 -2.6243197e+38
0.20444667 -0.73016673 2.3590002 -2.5862705e+38
0.21044573 -0.73542863 2.3760002 nan
0.21641906 -0.740381 2.3920002 nan
0.22097525 -0.740381 2.3920002 nan
0.2271343 -0.7456429 2.4090002 nan
0.23172288 -0.7456429 2.4090002 nan
0.23631145 -0.7456429 2.4090002 nan
-0.089666672 -0.82749528 2.6900001 nan
-0.083882861 -0.82103527 2.6690001 nan
-0.078208573 -0.81488293 2.6490002 nan
-0.073162861 -0.81488293 2.6490002 nan
-0.067602858 -0.80873054 2.6290002 nan
-0.062119052 -0.80257815 2.6090002 -2.8517476e+38
-0.057149526 -0.80257815 2.6090002 -2.5157455e+38
-0.051400002 -0.79058099 2.5700002 -2.1709788e+38
-0.046504766 -0.79058099 2.5700002 -2.5447222e+38
-0.041301906 -0.78473622 2.5510001 -2.9041336e+38
-0.036171433 -0.7788915 2.5320001 -2.9710631e+38
-0.031125717 -0.77335435 2.5140002 -3.0235552e+38
-0.026337145 -0.77335435 2.5140002 -3.116028e+38
-0.021394286 -0.7678172 2.4960001 -3.208709e+38
-0.016520001 -0.76228005 2.4780002 -2.7962316e+38
-0.011714286 -0.75674289 2.46 -2.383493e+38
-0.0070285718 -0.75674289 2.46 -2.2485943e+38
-0.0023428572 -0.75674289 2.46 -2.102949e+38
0.00236 -0.76228005 2.4780002 -2.2498378e+38
0.0070800004 -0.76228005 2.4780002 -2.395897e+38
0.0118 -0.76228005 2.4780002 -2.3826047e+38
0.016520001 -0.76228005 2.4780002 -2.3692081e+38
0.021085715 -0.75674289 2.46 -2.3691041e+38
0.02577143 -0.75674289 2.46 -2.3690522e+38
0.030246669 -0.75151336 2.4430001 -2.3823445e+38
0.034657147 -0.74628383 2.4260001 -2.3822923e+38
0.039278097 -0.74628383 2.4260001 -2.3822923e+38
0.043899052 -0.74628383 2.4260001 -2.3822923e+38
0.048180003 -0.74105436 2.4090002 -2.408825e+38
0.052768573 -0.74105436 2.4090002 -2.4221692e+38
0.057357147 -0.74105436 2.4090002 -2.4488059e+38
0.061945718 -0.74105436 2.4090002 -2.4753912e+38
0.066534288 -0.74105436 2.4090002 -2.4488075e+38
0.070620954 -0.73582482 2.3920002 -2.4222231e+38
0.075177148 -0.73582482 2.3920002 -2.408983e+38
0.079733342 -0.73582482 2.3920002 -2.3824499e+38
0.083725721 -0.73090291 2.3760002 -2.3293325e+38
0.088251434 -0.73090291 2.3760002 -2.2759555e+38
0.092113338 -0.72567338 2.3590002 -2.2357671e+38
0.096606672 -0.72567338 2.3590002 -2.1826503e+38
0.10110001 -0.72567338 2.3590002 -2.2091315e+38
0.10559334 -0.72567338 2.3590002 -2.2358197e+38
0.10934 -0.72075146 2.3430002 -2.2757482e+38
0.11380287 -0.72075146 2.3430002 -2.3156247e+38
0.11826573 -0.72075146 2.3430002 -2.3023322e+38
0.12272858 -0.72075146 2.3430002 -2.2758517e+38
0.12719144 -0.72075146 2.3430002 -2.2760078e+38
0.13165429 -0.72075146 2.3430002 -2.2626638e+38
0.13611715 -0.72075146 2.3430002 -2.3025411e+38
0.14058001 -0.72075146 2.3430002 -2.3424177e+38
0.14504287 -0.72075146 2.3430002 -2.3690542e+38
0.14950572 -0.72075146 2.3430002 -2.3957951e+38
0.15396859 -0.72075146 2.3430002 -2.409244e+38
0.15843144 -0.72075146 2.3430002 -2.4093487e+38
0.16178192 -0.71582955 2.3270001 -2.4358823e+38
0.1662143 -0.71582955 2.3270001 -2.4492803e+38
0.17182001 -0.72075146 2.3430002 -2.5424319e+38
0.17628287 -0.72075146 2.3430002 -2.6361539e+38
0.18074572 -0.72075146 2.3430002 -2.7037067e+38
0.18520859 -0.72075146 2.3430002 -2.7566673e+38
0.18967144 -0.72075146 2.3430002 -2.756407e+38
0.19413429 -0.72075146 2.3430002 -2.7431176e+38
0.19995335 -0.72567338 2.3590002 -2.4508463e+38
0.20444667 -0.72567338 2.3590002 -2.1605531e+38
0.21044573 -0.73090291 2.3760002 nan
0.21641906 -0.73582482 2.3920002 nan
0.22097525 -0.73582482 2.3920002 nan
0.2271343 -0.74105436 2.4090002 nan
0.23172288 -0.74105436 2.4090002 nan
0.23631145 -0.74105436 2.4090002 nan
-0.089666672 -0.82237148 2.6900001 nan
-0.083882861 -0.81595147 2.6690001 nan
-0.078208573 -0.80983722 2.6490002 nan
-0.072610483 -0.80372292 2.6290002 nan
-0.067602858 -0.80372292 2.6290002 -3.3440848e+38
-0.062119052 -0.79760861 2.6090002 -2.3704176e+38
-0.057149526 -0.79760861 2.6090002 -2.4236307e+38
-0.051400002 -0.78568578 2.5700002 -2.4775302e+38
-0.046160955 -0.77987719 2.5510001 -2.7176772e+38
-0.04099429 -0.77406859 2.5320001 -2.9711136e+38
-0.035914287 -0.76856577 2.5140002 -3.0106274e+38
-0.030902859 -0.76306289 2.4960001 -3.0631211e+38
-0.026148573 -0.76306289 2.4960001 -2.9563669e+38
-0.021240002 -0.75756007 2.4780002 -2.85023e+38
-0.016400002 -0.75205719 2.46 -2.6223858e+38
-0.011714286 -0.75205719 2.46 -2.3950654e+38
-0.0070285718 -0.75205719 2.46 -2.315362e+38
-0.0023428572 -0.75205719 2.46 -2.2223694e+38
0.00236 -0.75756007 2.4780002 -2.3025918e+38
0.0070800004 -0.75756007 2.4780002 -2.3956893e+38
0.011714286 -0.75205719 2.46 -2.3957925e+38
0.016400002 -0.75205719 2.46 -2.3957402e+38
0.021085715 -0.75205719 2.46 -2.3956878e+38
0.025593335 -0.74686003 2.4430001 -2.4090322e+38
0.030036192 -0.74166292 2.4260001 -2.395688e+38
0.034657147 -0.74166292 2.4260001 -2.3955846e+38
0.039278097 -0.74166292 2.4260001 -2.3956367e+38
0.043591432 -0.73646575 2.4090002 -2.3956367e+38
0.048180003 -0.73646575 2.4090002 -2.3956887e+38
0.052768573 -0.73646575 2.4090002 -2.4089811e+38
0.057357147 -0.73646575 2.4090002 -2.4222734e+38
0.061945718 -0.73646575 2.4090002 -2.4488069e+38
0.066064768 -0.73126864 2.3920002 -2.4355152e+38
0.070620954 -0.73126864 2.3920002 -2.4222229e+38
0.075177148 -0.73126864 2.3920002 -2.4089824e+38
0.079733342 -0.73126864 2.3920002 -2.3956899e+38
0.083725721 -0.72637719 2.3760002 -2.3557607e+38
0.088251434 -0.72637719 2.3760002 -2.3023318e+38
0.092113338 -0.72118002 2.3590002 -2.2491105e+38
0.096606672 -0.72118002 2.3590002 -2.1826497e+38
0.10110001 -0.72118002 2.3590002 -2.2225272e+38
0.10559334 -0.72118002 2.3590002 -2.2492677e+38
0.10934 -0.71628863 2.3430002 -2.2891967e+38
0.11380287 -0.71628863 2.3430002 -2.3157808e+38
0.11826573 -0.71628863 2.3430002 -2.3024362e+38
0.12272858 -0.71628863 2.3430002 -2.3024364e+38
0.12719144 -0.71628863 2.3430002 -2.2891441e+38
0.13165429 -0.71628863 2.3430002 -2.2757478e+38
0.13611715 -0.71628863 2.3430002 -2.3023839e+38
0.14058001 -0.71628863 2.3430002 -2.3289682e+38
0.14504287 -0.71628863 2.3430002 -2.3556565e+38
0.14950572 -0.71628863 2.3430002 -2.3823978e+38
0.15396859 -0.71628863 2.3430002 -2.3958469e+38
0.15843144 -0.71628863 2.3430002 -2.4225882e+38
0.16178192 -0.71139717 2.3270001 -2.4358815e+38
0.1662143 -0.71139717 2.3270001 -2.4492273e+38
0.17182001 -0.71628863 2.3430002 -2.5291384e+38
0.17628287 -0.71628863 2.3430002 -2.5958089e+38
0.18074572 -0.71628863 2.3430002 -2.6631023e+38
0.18520859 -0.71628863 2.3430002 -2.7299803e+38
0.18967144 -0.71628863 2.3430002 -2.7699622e+38
0.19413429 -0.71628863 2.3430002 -2.8236004e+38
0.19995335 -0.72118002 2.3590002 -2.5308086e+38
0.20444667 -0.72118002 2.3590002 -2.2381769e+38
0.21044573 -0.72637719 2.3760002 -3.1988617e+38
0.21641906 -0.73126864 2.3920002 nan
0.22097525 -0.73126864 2.3920002 nan
0.2271343 -0.73646575 2.4090002 nan
0.23172288 -0.73646575 2.4090002 nan
0.23631145 -0.73646575 2.4090002 nan
-0.089666672 -0.81724769 2.6900001 nan
-0.083882861 -0.81086767 2.6690001 nan
-0.078208573 -0.80479151 2.6490002 nan
-0.072610483 -0.79871529 2.6290002 nan
-0.067602858 -0.79871529 2.6290002 -2.82246e+38
-0.062119052 -0.79263908 2.6090002 -1.8916856e+38
-0.056711432 -0.78656292 2.5890002 -2.3440352e+38
-0.051020004 -0.77501816 2.5510001 -2.7834092e+38
-0.045817144 -0.76924574 2.5320001 -2.9038204e+38
-0.04099429 -0.76924574 2.5320001 -3.0238677e+38
-0.035914287 -0.7637772 2.5140002 -3.0636943e+38
-0.030902859 -0.75830865 2.4960001 -3.0897572e+38
-0.026148573 -0.75830865 2.4960001 -2.7827864e+38
-0.021240002 -0.75284004 2.4780002 -2.4761226e+38
-0.016400002 -0.74737149 2.46 -2.4480775e+38
-0.011714286 -0.74737149 2.46 -2.4084607e+38
-0.0070285718 -0.74737149 2.46 -2.382084e+38
-0.0023428572 -0.74737149 2.46 -2.3422599e+38
0.0023428572 -0.74737149 2.46 -2.3690532e+38
0.0070285718 -0.74737149 2.46 -2.382397e+38
0.011714286 -0.74737149 2.46 -2.395741e+38
0.016400002 -0.74737149 2.46 -2.4089811e+38
0.021085715 -0.74737149 2.46 -2.4222211e+38
0.02541524 -0.73704195 2.4260001 -2.4356174e+38
0.030036192 -0.73704195 2.4260001 -2.4223255e+38
0.034414288 -0.73187721 2.4090002 -2.395741e+38
0.039002858 -0.73187721 2.4090002 -2.3957931e+38
0.043591432 -0.73187721 2.4090002 -2.3957931e+38
0.048180003 -0.73187721 2.4090002 -2.3957933e+38
0.052768573 -0.73187721 2.4090002 -2.3824491e+38
0.057357147 -0.73187721 2.4090002 -2.4089817e+38
0.061508577 -0.72671241 2.3920002 -2.4222742e+38
0.066064768 -0.72671241 2.3920002 -2.4222227e+38
0.070620954 -0.72671241 2.3920002 -2.4221704e+38
0.075177148 -0.72671241 2.3920002 -2.4222221e+38
0.079733342 -0.72671241 2.3920002 -2.4089296e+38
0.083725721 -0.72185147 2.3760002 -2.3690007e+38
0.088251434 -0.72185147 2.3760002 -2.3289159e+38
0.092113338 -0.71668673 2.3590002 -2.2623507e+38
0.096606672 -0.71668673 2.3590002 -2.1825974e+38
0.10110001 -0.71668673 2.3590002 -2.2225264e+38
0.10559334 -0.71668673 2.3590002 -2.2625594e+38
0.10934 -0.71182579 2.3430002 -2.2892999e+38
0.11380287 -0.71182579 2.3430002 -2.3157283e+38
0.11826573 -0.71182579 2.3430002 -2.315676e+38
0.12272858 -0.71182579 2.3430002 -2.3156242e+38
0.12719144 -0.71182579 2.3430002 -2.3022802e+38
0.13165429 -0.71182579 2.3430002 -2.2890397e+38
0.13611715 -0.71182579 2.3430002 -2.3023318e+38
0.14058001 -0.71182579 2.3430002 -2.315676e+38
0.14504287 -0.71182579 2.3430002 -2.3422603e+38
0.14950572 -0.71182579 2.3430002 -2.3557092e+38
0.15396859 -0.71182579 2.3430002 -2.3956388e+38
0.15843144 -0.71182579 2.3430002 -2.4223799e+38
0.16289429 -0.71182579 2.3430002 -2.4357251e+38
0.16735715 -0.71182579 2.3430002 -2.4492263e+38
0.17182001 -0.71182579 2.3430002 -2.5025524e+38
0.17628287 -0.71182579 2.3430002 -2.5560347e+38
0.18074572 -0.71182579 2.3430002 -2.6229133e+38
0.18520859 -0.71182579 2.3430002 -2.6898953e+38
0.18967144 -0.71182579 2.3430002 -2.7964427e+38
0.19413429 -0.71182579 2.3430002 -2.9030931e+38
0.19859716 -0.71182579 2.3430002 -2.610508e+38
0.20444667 -0.71668673 2.3590002 -2.305206e+38
0.21044573 -0.72185147 2.3760002 -2.9579868e+38
0.21641906 -0.72671241 2.3920002 nan
0.22097525 -0.72671241 2.3920002 nan
0.2271343 -0.73187721 2.4090002 nan
0.23172288 -0.73187721 2.4090002 nan
0.23631145 -0.73187721 2.4090002 nan
-0.0776181 -0.79370767 2.6290002 nan
-0.072610483 -0.79370767 2.6290002 -2.9068914e+38
-0.067088574 -0.7876696 2.6090002 -2.557075e+38
-0.062119052 -0.7876696 2.6090002 -2.2096598e+38
-0.056295242 -0.7758953 2.5700002 -2.5300257e+38
-0.051020004 -0.77015913 2.5510001 -2.8499755e+38
-0.045817144 -0.76442289 2.5320001 -2.9038198e+38
-0.040702861 -0.75898862 2.5140002 -2.9706992e+38
-0.035657145 -0.75355434 2.4960001 -2.9708055e+38
-0.030680003 -0.74812007 2.4780002 -2.9708534e+38
-0.025960002 -0.74812007 2.4780002 -2.5695367e+38
-0.021085715 -0.74268574 2.46 -2.168892e+38
-0.016400002 -0.74268574 2.46 -2.2753789e+38
-0.011714286 -0.74268574 2.46 -2.381927e+38
-0.0069800005 -0.73755336 2.4430001 -2.3688447e+38
-0.0023266668 -0.73755336 2.4430001 -2.3689489e+38
0.0023428572 -0.74268574 2.46 -2.3690011e+38
0.0070285718 -0.74268574 2.46 -2.3823972e+38
0.011633334 -0.73755336 2.4430001 -2.3956895e+38
0.016286667 -0.73755336 2.4430001 -2.4222738e+38
0.020940002 -0.73755336 2.4430001 -2.4223255e+38
0.02541524 -0.73242098 2.4260001 -2.4356182e+38
0.029825715 -0.7272886 2.4090002 -2.4224302e+38
0.034414288 -0.7272886 2.4090002 -2.4091898e+38
0.039002858 -0.7272886 2.4090002 -2.3826053e+38
0.043591432 -0.7272886 2.4090002 -2.3692613e+38
0.048180003 -0.7272886 2.4090002 -2.3693132e+38
0.052768573 -0.7272886 2.4090002 -2.3691574e+38
0.056952383 -0.72215623 2.3920002 -2.3691572e+38
0.061508577 -0.72215623 2.3920002 -2.3824495e+38
0.066064768 -0.72215623 2.3920002 -2.3822935e+38
0.070620954 -0.72215623 2.3920002 -2.3821893e+38
0.075177148 -0.72215623 2.3920002 -2.3690002e+38
0.079733342 -0.72215623 2.3920002 -2.3690002e+38
0.083725721 -0.71732575 2.3760002 -2.3289674e+38
0.087620005 -0.71219337 2.3590002 -2.3021235e+38
0.092113338 -0.71219337 2.3590002 -2.2489543e+38
0.096606672 -0.71219337 2.3590002 -2.2090775e+38
0.10110001 -0.71219337 2.3590002 -2.2225256e+38
0.10487715 -0.70736289 2.3430002 -2.2492663e+38
0.10934 -0.70736289 2.3430002 -2.2757993e+38
0.11380287 -0.70736289 2.3430002 -2.2889874e+38
0.11826573 -0.70736289 2.3430002 -2.288987e+38
0.12272858 -0.70736289 2.3430002 -2.2889352e+38
0.12719144 -0.70736289 2.3430002 -2.2756951e+38
0.13165429 -0.70736289 2.3430002 -2.2756951e+38
0.13611715 -0.70736289 2.3430002 -2.2890393e+38
0.14058001 -0.70736289 2.3430002 -2.3156758e+38
0.14504287 -0.70736289 2.3430002 -2.3422603e+38
0.14950572 -0.70736289 2.3430002 -2.3688974e+38
0.15291715 -0.70253241 2.3270001 -2.3956382e+38
0.15843144 -0.70736289 2.3430002 -2.4223274e+38
0.16289429 -0.70736289 2.3430002 -2.4357243e+38
0.16735715 -0.70736289 2.3430002 -2.4492253e+38
0.17182001 -0.70736289 2.3430002 -2.502551e+38
0.17628287 -0.70736289 2.3430002 -2.5560856e+38
0.18074572 -0.70736289 2.3430002 -2.6096721e+38
0.18520859 -0.70736289 2.3430002 -2.6634142e+38
0.18967144 -0.70736289 2.3430002 -2.7565657e+38
0.19413429 -0.70736289 2.3430002 -2.8633189e+38
0.19859716 -0.70736289 2.3430002 -2.7036032e+38
0.20444667 -0.71219337 2.3590002 -2.5572366e+38
0.21044573 -0.71732575 2.3760002 -2.8776575e+38
0.21641906 -0.72215623 2.3920002 -3.2118934e+38
0.22097525 -0.72215623 2.3920002 nan
0.2271343 -0.7272886 2.4090002 nan
0.23172288 -0.7272886 2.4090002 nan
0.23631145 -0.7272886 2.4090002 nan
-0.077027626 -0.78270006 2.6090002 nan
-0.072058097 -0.78270006 2.6090002 -2.0665666e+38
-0.06657429 -0.77670008 2.5890002 -2.2893066e+38
-0.061642863 -0.77670008 2.5890002 -2.5160045e+38
-0.055879053 -0.76530004 2.5510001 -2.7164815e+38
-0.050640002 -0.75960004 2.5320001 -2.9033541e+38
-0.045491431 -0.75420004 2.5140002 -2.9041348e+38
-0.040702861 -0.75420004 2.5140002 -2.904291e+38
-0.035657145 -0.74880004 2.4960001 -2.8778626e+38
-0.030680003 -0.74340004 2.4780002 -2.8500781e+38
-0.025960002 -0.74340004 2.4780002 -2.3555062e+38
-0.021085715 -0.73800004 2.46 -1.8502399e+38
-0.016286667 -0.73290002 2.4430001 -2.1025817e+38
-0.011633334 -0.73290002 2.4430001 -2.3421551e+38
-0.0069800005 -0.73290002 2.4430001 -2.3688964e+38
-0.0023266668 -0.73290002 2.4430001 -2.3821889e+38
0.0023428572 -0.73800004 2.46 -2.382241e+38
0.0069800005 -0.73290002 2.4430001 -2.3690528e+38
0.011552381 -0.72780007 2.4260001 -2.3956375e+38
0.016173335 -0.72780007 2.4260001 -2.4223783e+38
0.020794287 -0.72780007 2.4260001 -2.4357748e+38
0.02541524 -0.72780007 2.4260001 -2.4357752e+38
0.029825715 -0.72270006 2.4090002 -2.4225353e+38
0.034414288 -0.72270006 2.4090002 -2.4092949e+38
0.039002858 -0.72270006 2.4090002 -2.382814e+38
0.043591432 -0.72270006 2.4090002 -2.3429369e+38
0.048180003 -0.72270006 2.4090002 -2.3429367e+38
0.052396193 -0.71760005 2.3920002 -2.3426769e+38
0.056952383 -0.71760005 2.3920002 -2.3425731e+38
0.061508577 -0.71760005 2.3920002 -2.3424688e+38
0.066064768 -0.71760005 2.3920002 -2.3423127e+38
0.070620954 -0.71760005 2.3920002 -2.3424678e+38
0.075177148 -0.71760005 2.3920002 -2.3291751e+38
0.079733342 -0.71760005 2.3920002 -2.3157269e+38
0.083725721 -0.71280003 2.3760002 -2.2889344e+38
0.088251434 -0.71280003 2.3760002 -2.2622981e+38
0.092113338 -0.70770007 2.3590002 -2.2489022e+38
0.096606672 -0.70770007 2.3590002 -2.2224217e+38
0.10110001 -0.70770007 2.3590002 -2.2357661e+38
0.10487715 -0.70290005 2.3430002 -2.23587e+38
0.10934 -0.70290005 2.3430002 -2.2491103e+38
0.11380287 -0.70290005 2.3430002 -2.2623503e+38
0.11826573 -0.70290005 2.3430002 -2.2622979e+38
0.12272858 -0.70290005 2.3430002 -2.2490576e+38
0.12719144 -0.70290005 2.3430002 -2.2623501e+38
0.13165429 -0.70290005 2.3430002 -2.2623503e+38
0.13611715 -0.70290005 2.3430002 -2.288987e+38
0.14058001 -0.70290005 2.3430002 -2.302331e+38
0.14504287 -0.70290005 2.3430002 -2.3421559e+38
0.14950572 -0.70290005 2.3430002 -2.3821889e+38
0.15291715 -0.69810003 2.3270001 -2.4088775e+38
0.15843144 -0.70290005 2.3430002 -2.4222223e+38
0.16289429 -0.70290005 2.3430002 -2.4355673e+38
0.1662143 -0.69810003 2.3270001 -2.4358279e+38
0.17064668 -0.69810003 2.3270001 -2.4891021e+38
0.17628287 -0.70290005 2.3430002 -2.5426887e+38
0.17951144 -0.69810003 2.3270001 -2.582931e+38
0.18520859 -0.70290005 2.3430002 -2.6229654e+38
0.18967144 -0.70290005 2.3430002 -2.7163247e+38
0.19413429 -0.70290005 2.3430002 -2.8098384e+38
0.19859716 -0.70290005 2.3430002 -2.809891e+38
0.20444667 -0.70770007 2.3590002 -2.7967577e+38
0.21044573 -0.71280003 2.3760002 -2.8100013e+38
0.21641906 -0.71760005 2.3920002 -2.8127088e+38
0.22097525 -0.71760005 2.3920002 nan
0.22553144 -0.71760005 2.3920002 nan
0.23172288 -0.72270006 2.4090002 nan
0.23631145 -0.72270006 2.4090002 nan
-0.071505718 -0.77176863 2.5890002 -1.9707655e+38
-0.066085719 -0.76610482 2.5700002 -2.3163566e+38
-0.061190479 -0.76610482 2.5700002 -2.675719e+38
-0.05546286 -0.75477719 2.5320001 -2.783047e+38
-0.050640002 -0.75477719 2.5320001 -2.9035636e+38
-0.045491431 -0.74941146 2.5140002 -2.8642614e+38
-0.040702861 -0.74941146 2.5140002 -2.837831e+38
-0.035657145 -0.74404573 2.4960001 -2.7979523e+38
-0.030680003 -0.73868006 2.4780002 -2.7442047e+38
-0.02577143 -0.73331434 2.46 -2.4493267e+38
-0.021085715 -0.73331434 2.46 -2.1429808e+38
-0.016286667 -0.72824669 2.4430001 -2.2625588e+38
-0.011633334 -0.72824669 2.4430001 -2.3690524e+38
-0.0069800005 -0.72824669 2.4430001 -2.3822402e+38
-0.0023266668 -0.72824669 2.4430001 -2.4087211e+38
0.0023266668 -0.72824669 2.4430001 -2.408825e+38
0.0069800005 -0.72824669 2.4430001 -2.4089294e+38
0.011552381 -0.7231791 2.4260001 -2.4223779e+38
0.016173335 -0.7231791 2.4260001 -2.4491711e+38
0.020794287 -0.7231791 2.4260001 -2.4492241e+38
0.025237145 -0.71811146 2.4090002 -2.4492245e+38
0.029825715 -0.71811146 2.4090002 -2.4359845e+38
0.034414288 -0.71811146 2.4090002 -2.422692e+38
0.038727622 -0.71304387 2.3920002 -2.3962111e+38
0.043283813 -0.71304387 2.3920002 -2.3696781e+38
0.047840003 -0.71304387 2.3920002 -2.3694179e+38
0.052396193 -0.71304387 2.3920002 -2.3559177e+38
0.056952383 -0.71304387 2.3920002 -2.3557617e+38
0.061508577 -0.71304387 2.3920002 -2.3424169e+38
0.066064768 -0.71304387 2.3920002 -2.3292798e+38
0.070620954 -0.71304387 2.3920002 -2.3294349e+38
0.075177148 -0.71304387 2.3920002 -2.3158824e+38
0.079733342 -0.71304387 2.3920002 -2.3157265e+38
0.083725721 -0.7082743 2.3760002 -2.2889338e+38
0.088251434 -0.7082743 2.3760002 -2.27559e+38
0.092113338 -0.70320672 2.3590002 -2.2622979e+38
0.096606672 -0.70320672 2.3590002 -2.249058e+38
0.10110001 -0.70320672 2.3590002 -2.2491103e+38
0.10487715 -0.69843721 2.3430002 -2.2491099e+38
0.10934 -0.69843721 2.3430002 -2.2491095e+38
0.11380287 -0.69843721 2.3430002 -2.2623497e+38
0.11826573 -0.69843721 2.3430002 -2.2622973e+38
0.12272858 -0.69843721 2.3430002 -2.2622973e+38
0.12719144 -0.69843721 2.3430002 -2.2622971e+38
0.13165429 -0.69843721 2.3430002 -2.2622975e+38
0.13611715 -0.69843721 2.3430002 -2.2889863e+38
0.14058001 -0.69843721 2.3430002 -2.3156228e+38
0.14405239 -0.69366765 2.3270001 -2.3422072e+38
0.14848477 -0.69366765 2.3270001 -2.38224e+38
0.15291715 -0.69366765 2.3270001 -2.3955842e+38
0.15843144 -0.69843721 2.3430002 -2.4088771e+38
0.16289429 -0.69843721 2.3430002 -2.4223255e+38
0.1662143 -0.69366765 2.3270001 -2.435775e+38
0.17064668 -0.69366765 2.3270001 -2.489153e+38
0.17628287 -0.69843721 2.3430002 -2.5426876e+38
0.18074572 -0.69843721 2.3430002 -2.5825665e+38
0.18520859 -0.69843721 2.3430002 -2.6355819e+38
0.18967144 -0.69843721 2.3430002 -2.6895319e+38
0.19413429 -0.69843721 2.3430002 -2.7567216e+38
0.19859716 -0.69843721 2.3430002 -2.770223e+38
0.20444667 -0.70320672 2.3590002 -2.7838812e+38
0.21044573 -0.7082743 2.3760002 -2.7438508e+38
0.21641906 -0.71304387 2.3920002 -2.7040851e+38
0.22097525 -0.71304387 2.3920002 nan
0.22553144 -0.71304387 2.3920002 nan
0.23172288 -0.71811146 2.4090002 nan
-0.065108575 -0.74995434 2.5320001 -2.3562345e+38
-0.060285717 -0.74995434 2.5320001 -2.8223494e+38
-0.05546286 -0.74995434 2.5320001 -2.8630595e+38
-0.050280005 -0.74462289 2.5140002 -2.8905817e+38
-0.045491431 -0.74462289 2.5140002 -2.8381427e+38
-0.040411431 -0.73929149 2.4960001 -2.7715249e+38
-0.035400003 -0.73396003 2.4780002 -2.7052187e+38
-0.030680003 -0.73396003 2.4780002 -2.6370873e+38
-0.02577143 -0.72862864 2.46 -2.5413328e+38
-0.020940002 -0.72359335 2.4430001 -2.4352026e+38
-0.016286667 -0.72359335 2.4430001 -2.4222223e+38
-0.011633334 -0.72359335 2.4430001 -2.3955333e+38
-0.0069800005 -0.72359335 2.4430001 -2.4087732e+38
-0.0023104763 -0.71855813 2.4260001 -2.4220138e+38
0.0023266668 -0.72359335 2.4430001 -2.4353582e+38
0.0069800005 -0.72359335 2.4430001 -2.4357221e+38
0.011552381 -0.71855813 2.4260001 -2.4491184e+38
0.016173335 -0.71855813 2.4260001 -2.4626194e+38
0.020794287 -0.71855813 2.4260001 -2.4626721e+38
0.025237145 -0.71352291 2.4090002 -2.4626727e+38
0.029825715 -0.71352291 2.4090002 -2.4493809e+38
0.034171432 -0.70848769 2.3920002 -2.4360882e+38
0.038727622 -0.70848769 2.3920002 -2.4228995e+38
0.043283813 -0.70848769 2.3920002 -2.3961069e+38
0.047840003 -0.70848769 2.3920002 -2.3826067e+38
0.052396193 -0.70848769 2.3920002 -2.3690542e+38
0.056952383 -0.70848769 2.3920002 -2.3554498e+38
0.061508577 -0.70848769 2.3920002 -2.3424682e+38
0.066064768 -0.70848769 2.3920002 -2.3294347e+38
0.070620954 -0.70848769 2.3920002 -2.3026938e+38
0.075177148 -0.70848769 2.3920002 -2.3158297e+38
0.079733342 -0.70848769 2.3920002 -2.3155701e+38
0.083725721 -0.70374864 2.3760002 -2.3020701e+38
0.088251434 -0.70374864 2.3760002 -2.2755377e+38
0.092113338 -0.69871336 2.3590002 -2.27559e+38
0.096606672 -0.69871336 2.3590002 -2.2623499e+38
0.10110001 -0.69871336 2.3590002 -2.2624022e+38
0.10487715 -0.69397432 2.3430002 -2.2490576e+38
0.10934 -0.69397432 2.3430002 -2.2623495e+38
0.11380287 -0.69397432 2.3430002 -2.2622971e+38
0.11826573 -0.69397432 2.3430002 -2.2754854e+38
0.12272858 -0.69397432 2.3430002 -2.2755371e+38
0.12719144 -0.69397432 2.3430002 -2.2622448e+38
0.13165429 -0.69397432 2.3430002 -2.2490566e+38
0.13611715 -0.69397432 2.3430002 -2.2889855e+38
0.14058001 -0.69397432 2.3430002 -2.3155701e+38
0.14504287 -0.69397432 2.3430002 -2.3421549e+38
0.14848477 -0.68923527 2.3270001 -2.3689475e+38
0.15291715 -0.68923527 2.3270001 -2.3823442e+38
0.15843144 -0.69397432 2.3430002 -2.3956889e+38
0.16289429 -0.69397432 2.3430002 -2.4223257e+38
0.16735715 -0.69397432 2.3430002 -2.4357752e+38
0.17064668 -0.68923527 2.3270001 -2.4890496e+38
0.17507906 -0.68923527 2.3270001 -2.5291358e+38
0.18074572 -0.69397432 2.3430002 -2.5823584e+38
0.18520859 -0.69397432 2.3430002 -2.6358407e+38
0.18967144 -0.69397432 2.3430002 -2.6761345e+38
0.19413429 -0.69397432 2.3430002 -2.703187e+38
0.19859716 -0.69397432 2.3430002 -2.7437397e+38
0.20444667 -0.69871336 2.3590002 -2.7705352e+38
0.21044573 -0.70374864 2.3760002 -2.6907849e+38
0.21641906 -0.70848769 2.3920002 -2.5988884e+38
0.22097525 -0.70848769 2.3920002 nan
0.2271343 -0.71352291 2.4090002 nan
-0.069931433 -0.74513149 2.5320001 -1.8500413e+38
-0.065108575 -0.74513149 2.5320001 -2.3297027e+38
-0.060285717 -0.74513149 2.5320001 -2.8094725e+38
-0.055068575 -0.73983431 2.5140002 -2.8504412e+38
-0.050280005 -0.73983431 2.5140002 -2.904392e+38
-0.045165718 -0.73453718 2.4960001 -2.8778622e+38
-0.040411431 -0.73453718 2.4960001 -2.8510705e+38
-0.035400003 -0.72924006 2.4780002 -2.784402e+38
-0.030680003 -0.72924006 2.4780002 -2.7171003e+38
-0.02577143 -0.72394288 2.46 -2.5022853e+38
-0.021085715 -0.72394288 2.46 -2.2886754e+38
-0.016286667 -0.71894002 2.4430001 -2.3555534e+38
-0.011633334 -0.71894002 2.4430001 -2.4087221e+38
-0.0069800005 -0.71894002 2.4430001 -2.4353063e+38
-0.0023104763 -0.71393716 2.4260001 -2.4618393e+38
0.0023266668 -0.71894002 2.4430001 -2.4623068e+38
0.0069800005 -0.71894002 2.4430001 -2.4759628e+38
0.011552381 -0.71393716 2.4260001 -2.4761185e+38
0.016173335 -0.71393716 2.4260001 -2.4894636e+38
0.020648573 -0.70893431 2.4090002 -2.4894644e+38
0.025237145 -0.70893431 2.4090002 -2.4893611e+38
0.029825715 -0.70893431 2.4090002 -2.4627253e+38
0.034171432 -0.70393145 2.3920002 -2.4493807e+38
0.038727622 -0.70393145 2.3920002 -2.4227955e+38
0.043283813 -0.70393145 2.3920002 -2.3959513e+38
0.047840003 -0.70393145 2.3920002 -2.3957955e+38
0.052396193 -0.70393145 2.3920002 -2.395483e+38
0.056952383 -0.70393145 2.3920002 -2.3689493e+38
0.061508577 -0.70393145 2.3920002 -2.3558637e+38
0.066064768 -0.70393145 2.3920002 -2.3292262e+38
0.070620954 -0.70393145 2.3920002 -2.3024853e+38
0.075177148 -0.70393145 2.3920002 -2.2757444e+38
0.079733342 -0.70393145 2.3920002 -2.2621408e+38
0.083725721 -0.69922292 2.3760002 -2.2621929e+38
0.088251434 -0.69922292 2.3760002 -2.248901e+38
0.092113338 -0.69422007 2.3590002 -2.2622454e+38
0.096606672 -0.69422007 2.3590002 -2.2755381e+38
0.10110001 -0.69422007 2.3590002 -2.262246e+38
0.10487715 -0.68951148 2.3430002 -2.2488495e+38
0.10934 -0.68951148 2.3430002 -2.248901e+38
0.11380287 -0.68951148 2.3430002 -2.2489006e+38
0.11826573 -0.68951148 2.3430002 -2.2489521e+38
0.12272858 -0.68951148 2.3430002 -2.2489521e+38
0.12719144 -0.68951148 2.3430002 -2.2490038e+38
0.13165429 -0.68951148 2.3430002 -2.2490558e+38
0.13611715 -0.68951148 2.3430002 -2.2756922e+38
0.14058001 -0.68951148 2.3430002 -2.3022772e+38
0.14405239 -0.68480289 2.3270001 -2.3289658e+38
0.14848477 -0.68480289 2.3270001 -2.3557072e+38
0.15291715 -0.68480289 2.3270001 -2.3823445e+38
0.15734953 -0.68480289 2.3270001 -2.3956891e+38
0.16178192 -0.68480289 2.3270001 -2.422274e+38
0.1662143 -0.68480289 2.3270001 -2.4357237e+38
0.17064668 -0.68480289 2.3270001 -2.4757058e+38
0.17507906 -0.68480289 2.3270001 -2.5157916e+38
0.18074572 -0.68951148 2.3430002 -2.5691177e+38
0.18520859 -0.68951148 2.3430002 -2.6359437e+38
0.18967144 -0.68951148 2.3430002 -2.6626332e+38
0.19413429 -0.68951148 2.3430002 -2.7026138e+38
0.19859716 -0.68951148 2.3430002 -2.6901004e+38
0.20444667 -0.69422007 2.3590002 -2.6908837e+38
0.21044573 -0.69922292 2.3760002 -2.6776997e+38
0.21641906 -0.70393145 2.3920002 -2.677447e+38
0.22097525 -0.70393145 2.3920002 nan
0.2271343 -0.70893431 2.4090002 nan
-0.069931433 -0.74030864 2.5320001 -1.8102675e+38
-0.065108575 -0.74030864 2.5320001 -2.3031179e+38
-0.059857145 -0.73504579 2.5140002 -2.78315e+38
-0.055068575 -0.73504579 2.5140002 -2.8513291e+38
-0.050280005 -0.73504579 2.5140002 -2.9046017e+38
-0.045165718 -0.72978288 2.4960001 -2.9177899e+38
-0.040411431 -0.72978288 2.4960001 -2.917479e+38
-0.035400003 -0.72452003 2.4780002 -2.8509146e+38
-0.030680003 -0.72452003 2.4780002 -2.7830942e+38
-0.02577143 -0.71925718 2.46 -2.4619416e+38
-0.020940002 -0.71428668 2.4430001 -2.1427721e+38
-0.016286667 -0.71428668 2.4430001 -2.2892995e+38
-0.011633334 -0.71428668 2.4430001 -2.4221187e+38
-0.0069314288 -0.70931625 2.4260001 -2.4618919e+38
-0.0023104763 -0.70931625 2.4260001 -2.5021847e+38
0.0023266668 -0.71428668 2.4430001 -2.5025488e+38
0.0069314288 -0.70931625 2.4260001 -2.5029126e+38
0.011552381 -0.70931625 2.4260001 -2.5032248e+38
0.01606 -0.70434576 2.4090002 -2.5031211e+38
0.020648573 -0.70434576 2.4090002 -2.5164136e+38
0.025237145 -0.70434576 2.4090002 -2.5161542e+38
0.02961524 -0.69937527 2.3920002 -2.4894139e+38
0.034171432 -0.69937527 2.3920002 -2.4494847e+38
0.038727622 -0.69937527 2.3920002 -2.4228997e+38
0.043283813 -0.69937527 2.3920002 -2.3960034e+38
0.047840003 -0.69937527 2.3920002 -2.4090878e+38
0.052396193 -0.69937527 2.3920002 -2.4089312e+38
0.056952383 -0.69937527 2.3920002 -2.3956384e+38
0.061508577 -0.69937527 2.3920002 -2.369053e+38
0.066064768 -0.69937527 2.3920002 -2.3291234e+38
0.070620954 -0.69937527 2.3920002 -2.28909e+38
0.075177148 -0.69937527 2.3920002 -2.2490048e+38
0.079200007 -0.6946972 2.3760002 -2.2090761e+38
0.083725721 -0.6946972 2.3760002 -2.2223684e+38
0.088251434 -0.6946972 2.3760002 -2.2223166e+38
0.092113338 -0.68972671 2.3590002 -2.2489014e+38
0.096606672 -0.68972671 2.3590002 -2.275486e+38
0.10110001 -0.68972671 2.3590002 -2.2621418e+38
0.10487715 -0.68504864 2.3430002 -2.2488489e+38
0.10934 -0.68504864 2.3430002 -2.2355041e+38
0.11380287 -0.68504864 2.3430002 -2.2223152e+38
0.11826573 -0.68504864 2.3430002 -2.2223667e+38
0.12272858 -0.68504864 2.3430002 -2.2223669e+38
0.12719144 -0.68504864 2.3430002 -2.2356592e+38
0.13165429 -0.68504864 2.3430002 -2.2357635e+38
0.13611715 -0.68504864 2.3430002 -2.2624002e+38
