# .PCD v0.7 - Point Cloud Data file format
VERSION 0.7
FIELDS x y z rgb
SIZE 4 4 4 4
TYPE F F F F
COUNT 1 1 1 1
WIDTH 1048
HEIGHT 1
VIEWPOINT 0 0 0 1 0 0 0
POINTS 1048
DATA ascii
2.7047718 0.37273899 1.7116388 -3.0195391e+38
2.7047608 0.36795041 1.7116388 -3.3663873e+38
2.7227569 0.3662577 1.7150159 nan
2.7227459 0.36143488 1.7150159 nan
2.7417424 0.35980749 1.7185807 nan
2.7607386 0.35810778 1.7221454 nan
2.74172 0.35008943 1.7185807 -2.7008894e+38
2.7607162 0.34831733 1.7221454 -1.7415605e+38
2.760705 0.34342209 1.7221454 -1.9815482e+38
2.7606938 0.33852687 1.7221454 -2.221483e+38
2.7606823 0.33363163 1.7221454 -2.1811894e+38
2.7606711 0.32873639 1.7221454 -2.1412085e+38
2.7606599 0.32384118 1.7221454 -2.1012795e+38
2.7606487 0.31894594 1.7221454 -2.0614015e+38
2.7416308 0.31121713 1.7185807 -2.0349196e+38
2.7226131 0.30356073 1.7150159 -2.0082827e+38
2.6865902 0.29350615 1.7082617 -1.9950417e+38
2.6685734 0.28617027 1.7048845 -1.9817488e+38
2.6335509 0.27649722 1.6983179 -2.0083847e+38
2.6165347 0.26947048 1.6951283 -2.0351268e+38
2.6165242 0.26484954 1.6951283 -2.0619209e+38
2.6165135 0.26022863 1.6951283 -2.0887661e+38
2.599498 0.25333142 1.6919388 -2.102319e+38
2.5994875 0.24874288 1.6919388 -2.1024233e+38
2.5824718 0.24194279 1.6887493 -2.1157679e+38
2.5824614 0.23738664 1.6887493 -2.1290082e+38
2.5664461 0.23080996 1.6857474 -2.1289563e+38
2.5664358 0.2262843 1.6857474 -2.1421443e+38
2.5664253 0.22175857 1.6857474 -2.1419882e+38
2.5664151 0.21723285 1.6857474 -2.1284884e+38
2.5824091 0.21460575 1.6887493 -2.1153002e+38
2.5823987 0.21004957 1.6887493 -2.1019558e+38
2.5823882 0.20549336 1.6887493 -2.0753189e+38
2.5823779 0.20093721 1.6887493 -2.0620266e+38
2.5823674 0.196381 1.6887493 -2.0620266e+38
2.5823569 0.19182485 1.6887493 -2.0753706e+38
2.5663424 0.18555292 1.6857474 -2.06213e+38
2.5663321 0.18102723 1.6857474 -2.0622339e+38
2.5663216 0.17650154 1.6857474 -2.0356493e+38
2.5663114 0.17197585 1.6857474 -2.0223578e+38
2.5663009 0.16745013 1.6857474 -2.0090143e+38
2.5662906 0.16292444 1.6857474 -2.0089625e+38
2.5662801 0.15839875 1.6857474 -2.0487876e+38
2.5662699 0.15387303 1.6857474 -2.0886645e+38
2.5662594 0.14934734 1.6857474 -2.1020085e+38
2.5662491 0.14482161 1.6857474 -2.1153002e+38
2.5662386 0.14029592 1.6857474 -2.1153515e+38
2.5662284 0.13577023 1.6857474 -2.115403e+38
2.5662179 0.13124451 1.6857474 -2.1153507e+38
2.5662076 0.12671882 1.6857474 -2.1153509e+38
2.5661972 0.12219311 1.6857474 -2.1152991e+38
2.5661869 0.1176674 1.6857474 -2.1152474e+38
2.5661764 0.11314171 1.6857474 -2.1152474e+38
2.5661659 0.108616 1.6857474 -2.1152478e+38
2.5661557 0.10409031 1.6857474 -2.1153002e+38
2.5661452 0.09956459 1.6857474 -2.1153521e+38
2.5661349 0.095038898 1.6857474 -2.1153521e+38
2.5661244 0.090513192 1.6857474 -2.1153523e+38
2.5661142 0.085987501 1.6857474 -2.1286448e+38
2.5661037 0.081461795 1.6857474 -2.1419368e+38
2.5660934 0.076936074 1.6857474 -2.1419364e+38
2.566083 0.072410382 1.6857474 -2.1551768e+38
2.5660727 0.067884676 1.6857474 -2.1418845e+38
2.5660622 0.063358985 1.6857474 -2.1418328e+38
2.566052 0.058833279 1.6857474 -2.1286444e+38
2.5660415 0.054307565 1.6857474 -2.1153515e+38
2.5660312 0.049781859 1.6857474 -2.088818e+38
2.5820227 0.046027094 1.6887493 -2.062182e+38
2.5660105 0.040730454 1.6857474 -2.0488901e+38
2.566 0.036204755 1.6857474 -2.0488893e+38
2.5819914 0.032358557 1.6887493 -2.0621288e+38
2.5819809 0.027802378 1.6887493 -2.0753702e+38
2.5819705 0.023246206 1.6887493 -2.0886635e+38
2.58196 0.01869002 1.6887493 -2.088612e+38
2.5989509 0.014726304 1.6919388 -2.088716e+38
2.5989404 0.010137737 1.6919388 -2.088716e+38
2.615931 0.0060768723 1.6951283 -2.1153523e+38
2.6159203 0.0014559254 1.6951283 -2.141989e+38
2.632911 -0.0027020797 1.6983179 -2.1553853e+38
2.6329002 -0.0073554032 1.6983179 -2.1688338e+38
2.6498904 -0.011610549 1.7015073 -2.2086591e+38
2.6678808 -0.015908957 1.7048845 -2.2484327e+38
2.66787 -0.02062894 1.7048845 -2.262089e+38
2.6858599 -0.025030196 1.7082617 -2.2756931e+38
2.685849 -0.029784471 1.7082617 -2.3024336e+38
2.6858382 -0.034538742 1.7082617 -2.3157784e+38
2.6858273 -0.039293017 1.7082617 -2.2093369e+38
2.6858163 -0.044047292 1.7082617 -2.1166552e+38
2.6858053 -0.048801564 1.7082617 -2.1164481e+38
2.5817928 -0.054208837 1.6887493 -2.1167086e+38
2.5987825 -0.05869066 1.6919388 -2.2362878e+38
2.5817721 -0.063321196 1.6887493 -2.356282e+38
2.5817616 -0.067877375 1.6887493 -2.3961588e+38
2.5987511 -0.072456338 1.6919388 -2.4492756e+38
2.6157403 -0.077100061 1.6951283 -2.4625153e+38
2.6157296 -0.081721 1.6951283 -2.4757046e+38
2.7047937 0.38231608 1.7068503 -3.2056247e+38
2.72279 0.38072625 1.7101932 -2.7137103e+38
2.722779 0.3759034 1.7101932 -3.1531385e+38
2.7227681 0.37108055 1.7101932 nan
2.7417645 0.36952555 1.7137216 nan
2.7417533 0.36466652 1.7137216 nan
2.7607498 0.36300299 1.7172502 nan
2.7607386 0.35810778 1.7172502 nan
2.7607274 0.35321254 1.7172502 -2.5665114e+38
2.7607162 0.34831733 1.7172502 -1.7155462e+38
2.760705 0.34342209 1.7172502 -1.9558463e+38
2.7797008 0.34154135 1.7207788 -2.1948466e+38
2.7796896 0.33660996 1.7207788 -2.1810338e+38
2.7796781 0.33167854 1.7207788 -2.1545525e+38
2.7796669 0.32674715 1.7207788 -2.1145712e+38
2.7606487 0.31894594 1.7172502 -2.0747976e+38
2.7416308 0.31121713 1.7137216 -2.0350242e+38
2.7226131 0.30356073 1.7101932 -1.9950954e+38
2.6865902 0.29350615 1.7035074 -1.9951474e+38
2.6685734 0.28617027 1.7001646 -1.9951464e+38
2.6335509 0.27649722 1.6936646 -2.0350743e+38
2.6165347 0.26947048 1.6905074 -2.0751603e+38
2.6165242 0.26484954 1.6905074 -2.0886099e+38
2.6165135 0.26022863 1.6905074 -2.1021626e+38
2.616503 0.25560766 1.6905074 -2.1289559e+38
2.5994875 0.24874288 1.6873503 -2.1555928e+38
2.5824718 0.24194279 1.6841931 -2.1556451e+38
2.5824614 0.23738664 1.6841931 -2.1423007e+38
2.5664461 0.23080996 1.6812217 -2.1422488e+38
2.5664358 0.2262843 1.6812217 -2.1421967e+38
2.5664253 0.22175857 1.6812217 -2.1288003e+38
2.5664151 0.21723285 1.6812217 -2.1153521e+38
2.5824091 0.21460575 1.6841931 -2.1021115e+38
2.5823987 0.21004957 1.6841931 -2.0754229e+38
2.5823882 0.20549336 1.6841931 -2.0620266e+38
2.5823779 0.20093721 1.6841931 -2.0354935e+38
2.5823674 0.196381 1.6841931 -2.0354931e+38
2.5823569 0.19182485 1.6841931 -2.0355453e+38
2.5663424 0.18555292 1.6812217 -2.0488895e+38
2.5663321 0.18102723 1.6812217 -2.0488897e+38
2.5663216 0.17650154 1.6812217 -2.0489418e+38
2.5663114 0.17197585 1.6812217 -2.0489424e+38
2.5663009 0.16745013 1.6812217 -2.0488911e+38
2.5662906 0.16292444 1.6812217 -2.0488394e+38
2.5662801 0.15839875 1.6812217 -2.0753724e+38
2.5662699 0.15387303 1.6812217 -2.0887164e+38
2.5662594 0.14934734 1.6812217 -2.1020087e+38
2.5662491 0.14482161 1.6812217 -2.1020079e+38
2.5662386 0.14029592 1.6812217 -2.1020592e+38
2.5662284 0.13577023 1.6812217 -2.0887667e+38
2.5662179 0.13124451 1.6812217 -2.1020586e+38
2.5662076 0.12671882 1.6812217 -2.1020588e+38
2.5661972 0.12219311 1.6812217 -2.1153515e+38
2.5661869 0.1176674 1.6812217 -2.1152478e+38
2.5661764 0.11314171 1.6812217 -2.1151963e+38
2.5661659 0.108616 1.6812217 -2.1153004e+38
2.5661557 0.10409031 1.6812217 -2.1153525e+38
2.5661452 0.09956459 1.6812217 -2.1153523e+38
2.5661349 0.095038898 1.6812217 -2.1153521e+38
2.5661244 0.090513192 1.6812217 -2.1153521e+38
2.5661142 0.085987501 1.6812217 -2.1286444e+38
2.5661037 0.081461795 1.6812217 -2.1419884e+38
2.5660934 0.076936074 1.6812217 -2.1552804e+38
2.566083 0.072410382 1.6812217 -2.1685729e+38
2.5660727 0.067884676 1.6812217 -2.1419888e+38
2.5660622 0.063358985 1.6812217 -2.1153523e+38
2.566052 0.058833279 1.6812217 -2.1020602e+38
2.5660415 0.054307565 1.6812217 -2.075475e+38
2.5660312 0.049781859 1.6812217 -2.0622343e+38
2.5660207 0.04525616 1.6812217 -2.0489418e+38
2.5660105 0.040730454 1.6812217 -2.0489418e+38
2.566 0.036204755 1.6812217 -2.0489414e+38
2.5819914 0.032358557 1.6841931 -2.0887659e+38
2.5819809 0.027802378 1.6841931 -2.1152993e+38
2.5819705 0.023246206 1.6841931 -2.115248e+38
2.58196 0.01869002 1.6841931 -2.1153004e+38
2.615952 0.015318751 1.6905074 -2.1021125e+38
2.6159415 0.010697812 1.6905074 -2.0755799e+38
2.6329322 0.0066045597 1.6936646 -2.1022164e+38
2.6329215 0.00195124 1.6936646 -2.1288529e+38
2.632911 -0.0027020797 1.6936646 -2.1421454e+38
2.6499012 -0.006924849 1.6968217 -2.1554898e+38
2.6498904 -0.011610549 1.6968217 -2.1820226e+38
2.6678808 -0.015908957 1.7001646 -2.1954715e+38
2.6858709 -0.020275921 1.7035074 -2.2356087e+38
2.6858599 -0.025030196 1.7035074 -2.2756417e+38
2.685849 -0.029784471 1.7035074 -2.3023827e+38
2.6858382 -0.034538742 1.7035074 -2.3153115e+38
2.6858273 -0.039293017 1.7035074 -2.0755831e+38
2.6858163 -0.044047292 1.7035074 -1.8236022e+38
2.6858053 -0.048801564 1.7035074 -1.823344e+38
2.7227681 0.37108055 1.7053702 nan
2.7417645 0.36952555 1.7088625 nan
2.7417533 0.36466652 1.7088625 nan
2.7607498 0.36300299 1.712355 nan
2.7607386 0.35810778 1.712355 nan
2.7607274 0.35321254 1.712355 -2.6204577e+38
2.7607162 0.34831733 1.712355 -1.7147666e+38
2.779712 0.3464728 1.7158474 -1.9554308e+38
2.7797008 0.34154135 1.7158474 -2.1950023e+38
2.7796896 0.33660996 1.7158474 -2.1813973e+38
2.7796781 0.33167854 1.7158474 -2.168104e+38
2.7796669 0.32674715 1.7158474 -2.1281742e+38
2.7606487 0.31894594 1.712355 -2.1015379e+38
2.7606375 0.31405073 1.712355 -2.0350248e+38
2.7226131 0.30356073 1.7053702 -1.9817525e+38
2.6865902 0.29350615 1.6987531 -1.9952009e+38
2.6335616 0.28115052 1.6890112 -2.0084403e+38
2.6335509 0.27649722 1.6890112 -2.0352313e+38
2.6165347 0.26947048 1.6858864 -2.0752651e+38
2.6165242 0.26484954 1.6858864 -2.1020065e+38
2.6165135 0.26022863 1.6858864 -2.1287995e+38
2.599498 0.25333142 1.6827617 -2.1554887e+38
2.5994875 0.24874288 1.6827617 -2.1820737e+38
2.5824718 0.24194279 1.679637 -2.1688857e+38
2.5824614 0.23738664 1.679637 -2.1556451e+38
2.5664461 0.23080996 1.6766959 -2.1422488e+38
2.5664358 0.2262843 1.6766959 -2.1421969e+38
2.5664253 0.22175857 1.6766959 -2.1287488e+38
2.5664151 0.21723285 1.6766959 -2.1285924e+38
2.5824091 0.21460575 1.679637 -2.1152996e+38
2.5823987 0.21004957 1.679637 -2.1020073e+38
2.5823882 0.20549336 1.679637 -2.0887148e+38
2.5823779 0.20093721 1.679637 -2.0754738e+38
2.5823674 0.196381 1.679637 -2.0754211e+38
2.5823569 0.19182485 1.679637 -2.0754734e+38
2.5663424 0.18555292 1.6766959 -2.0754219e+38
2.5663321 0.18102723 1.6766959 -2.0753704e+38
2.5663216 0.17650154 1.6766959 -2.0754746e+38
2.5663114 0.17197585 1.6766959 -2.0888194e+38
2.5663009 0.16745013 1.6766959 -2.088716e+38
2.5662906 0.16292444 1.6766959 -2.0886645e+38
2.5662801 0.15839875 1.6766959 -2.0886647e+38
2.5662699 0.15387303 1.6766959 -2.0887166e+38
2.5662594 0.14934734 1.6766959 -2.1020087e+38
2.5662491 0.14482161 1.6766959 -2.1020081e+38
2.5662386 0.14029592 1.6766959 -2.0887669e+38
2.5662284 0.13577023 1.6766959 -2.0754744e+38
2.5662179 0.13124451 1.6766959 -2.0887665e+38
2.5662076 0.12671882 1.6766959 -2.0887669e+38
2.5661972 0.12219311 1.6766959 -2.1020075e+38
2.5661869 0.1176674 1.6766959 -2.1285407e+38
2.5661764 0.11314171 1.6766959 -2.128645e+38
2.5661659 0.108616 1.6766959 -2.1286969e+38
2.5661557 0.10409031 1.6766959 -2.1286969e+38
2.5661452 0.09956459 1.6766959 -2.1286967e+38
2.5661349 0.095038898 1.6766959 -2.1286963e+38
2.5661244 0.090513192 1.6766959 -2.1419364e+38
2.5661142 0.085987501 1.6766959 -2.141988e+38
2.5661037 0.081461795 1.6766959 -2.1552802e+38
2.5660934 0.076936074 1.6766959 -2.155332e+38
2.566083 0.072410382 1.6766959 -2.1553326e+38
2.5660727 0.067884676 1.6766959 -2.141989e+38
2.5660622 0.063358985 1.6766959 -2.1286969e+38
2.566052 0.058833279 1.6766959 -2.1020604e+38
2.5660415 0.054307565 1.6766959 -2.0887679e+38
2.5660312 0.049781859 1.6766959 -2.0755272e+38
2.5660207 0.04525616 1.6766959 -2.0622343e+38
2.5660105 0.040730454 1.6766959 -2.075526e+38
2.566 0.036204755 1.6766959 -2.1021107e+38
2.5819914 0.032358557 1.679637 -2.1153511e+38
2.5819809 0.027802378 1.679637 -2.1418841e+38
2.5819705 0.023246206 1.679637 -2.1286442e+38
2.5989616 0.019314855 1.6827617 -2.1286967e+38
2.615952 0.015318751 1.6858864 -2.1022166e+38
2.6329429 0.011257887 1.6890112 -2.0889764e+38
2.6329322 0.0066045597 1.6890112 -2.1156131e+38
2.6329215 0.00195124 1.6890112 -2.1422496e+38
2.632911 -0.0027020797 1.6890112 -2.1555417e+38
2.6499012 -0.006924849 1.6921359 -2.1688859e+38
2.6498904 -0.011610549 1.6921359 -2.1955224e+38
2.6678808 -0.015908957 1.6954446 -2.2088676e+38
2.66787 -0.02062894 1.6954446 -2.2489012e+38
2.6858599 -0.025030196 1.6987531 -2.2888308e+38
2.685849 -0.029784471 1.6987531 -2.1421492e+38
2.6858382 -0.034538742 1.6987531 -2.009226e+38
2.6858273 -0.039293017 1.6987531 -2.5290262e+38
2.6858163 -0.044047292 1.6987531 -3.0467001e+38
2.7607498 0.36300299 1.7074597 nan
2.7607386 0.35810778 1.7074597 nan
2.7607274 0.35321254 1.7074597 -2.671914e+38
2.7797234 0.35140419 1.7109159 -1.715442e+38
2.779712 0.3464728 1.7109159 -1.9560542e+38
2.7797008 0.34154135 1.7109159 -2.1950544e+38
2.7996964 0.33974504 1.7145541 -2.1947938e+38
2.799685 0.33477557 1.7145541 -2.1815009e+38
2.7796669 0.32674715 1.7109159 -2.1549677e+38
2.7796555 0.3218157 1.7109159 -2.114987e+38
2.7606375 0.31405073 1.7074597 -2.0351295e+38
2.7226131 0.30356073 1.7005473 -1.9553756e+38
2.6865902 0.29350615 1.6939988 -1.9953561e+38
2.6335616 0.28115052 1.6843579 -2.0219402e+38
2.6335509 0.27649722 1.6843579 -2.0486282e+38
2.6165347 0.26947048 1.6812655 -2.0620773e+38
2.6165242 0.26484954 1.6812655 -2.1021109e+38
2.6165135 0.26022863 1.6812655 -2.1421441e+38
2.599498 0.25333142 1.6781731 -2.1688331e+38
2.5994875 0.24874288 1.6781731 -2.19547e+38
2.5824718 0.24194279 1.6750808 -2.1821262e+38
2.5824614 0.23738664 1.6750808 -2.1555932e+38
2.5664461 0.23080996 1.6721702 -2.1422488e+38
2.5664358 0.2262843 1.6721702 -2.1288007e+38
2.5664253 0.22175857 1.6721702 -2.1287488e+38
2.5664151 0.21723285 1.6721702 -2.1286444e+38
2.5824091 0.21460575 1.6750808 -2.1284882e+38
2.5823987 0.21004957 1.6750808 -2.1152993e+38
2.5823882 0.20549336 1.6750808 -2.1153511e+38
2.5823779 0.20093721 1.6750808 -2.1020586e+38
2.5823674 0.196381 1.6750808 -2.1152468e+38
2.5823569 0.19182485 1.6750808 -2.1152989e+38
2.5823464 0.18726867 1.6750808 -2.1019551e+38
2.5663321 0.18102723 1.6721702 -2.088715e+38
2.5663216 0.17650154 1.6721702 -2.1020596e+38
2.5663114 0.17197585 1.6721702 -2.1153004e+38
2.5663009 0.16745013 1.6721702 -2.1284894e+38
2.5662906 0.16292444 1.6721702 -2.1285415e+38
2.5662801 0.15839875 1.6721702 -2.1152495e+38
2.5662699 0.15387303 1.6721702 -2.0887166e+38
2.5662594 0.14934734 1.6721702 -2.1020089e+38
2.5662491 0.14482161 1.6721702 -2.1020602e+38
2.5662386 0.14029592 1.6721702 -2.0887154e+38
2.5662284 0.13577023 1.6721702 -2.0621824e+38
2.5662179 0.13124451 1.6721702 -2.0754744e+38
2.5662076 0.12671882 1.6721702 -2.0754746e+38
2.5661972 0.12219311 1.6721702 -2.1019556e+38
2.5661869 0.1176674 1.6721702 -2.1286442e+38
2.5661764 0.11314171 1.6721702 -2.1287484e+38
2.5661659 0.108616 1.6721702 -2.1286967e+38
2.5661557 0.10409031 1.6721702 -2.1419892e+38
2.5661452 0.09956459 1.6721702 -2.141989e+38
2.5661349 0.095038898 1.6721702 -2.155281e+38
2.5661244 0.090513192 1.6721702 -2.1552806e+38
2.5661142 0.085987501 1.6721702 -2.1552804e+38
2.5661037 0.081461795 1.6721702 -2.1552804e+38
2.5660934 0.076936074 1.6721702 -2.1553324e+38
2.566083 0.072410382 1.6721702 -2.1419884e+38
2.5660727 0.067884676 1.6721702 -2.1419366e+38
2.5660622 0.063358985 1.6721702 -2.1286967e+38
2.566052 0.058833279 1.6721702 -2.1153529e+38
2.5660415 0.054307565 1.6721702 -2.1021121e+38
2.5660312 0.049781859 1.6721702 -2.0888197e+38
2.5660207 0.04525616 1.6721702 -2.0755272e+38
2.5660105 0.040730454 1.6721702 -2.1154038e+38
2.5820017 0.036914743 1.6750808 -2.1419364e+38
2.5819914 0.032358557 1.6750808 -2.1551768e+38
2.5819809 0.027802378 1.6750808 -2.1552808e+38
2.5819705 0.023246206 1.6750808 -2.1553332e+38
2.5989616 0.019314855 1.6781731 -2.1421447e+38
2.615952 0.015318751 1.6812655 -2.1156123e+38
2.6329429 0.011257887 1.6843579 -2.0890799e+38
2.6329322 0.0066045597 1.6843579 -2.1290088e+38
2.6329215 0.00195124 1.6843579 -2.1556455e+38
2.632911 -0.0027020797 1.6843579 -2.1689382e+38
2.6499012 -0.006924849 1.6874502 -2.1822824e+38
2.6498904 -0.011610549 1.6874502 -2.2089191e+38
2.6678808 -0.015908957 1.6907245 -2.222316e+38
2.66787 -0.02062894 1.6907245 -2.2622977e+38
2.6858599 -0.025030196 1.6939988 -2.2884119e+38
2.685849 -0.029784471 1.6939988 -1.9947845e+38
2.6858382 -0.034538742 1.6939988 -1.704022e+38
2.6858273 -0.039293017 1.6939988 -2.9845521e+38
2.6858163 -0.044047292 1.6939988 nan
2.7797234 0.35140419 1.7059845 -2.0077689e+38
2.779712 0.3464728 1.7059845 -2.1018541e+38
2.7797008 0.34154135 1.7059845 -2.2082952e+38
2.7996964 0.33974504 1.7095845 -2.1950017e+38
2.799685 0.33477557 1.7095845 -2.1816054e+38
2.7796669 0.32674715 1.7059845 -2.1550206e+38
2.7796555 0.3218157 1.7059845 -2.1283841e+38
2.7606375 0.31405073 1.7025645 -2.0751629e+38
2.7226131 0.30356073 1.6957245 -2.021941e+38
2.6685841 0.29089028 1.6860045 -2.0353362e+38
2.6335616 0.28115052 1.6797045 -2.0486806e+38
2.6335509 0.27649722 1.6797045 -2.0753172e+38
2.6165347 0.26947048 1.6766446 -2.1019547e+38
2.6165242 0.26484954 1.6766446 -2.1287997e+38
2.6165135 0.26022863 1.6766446 -2.1687289e+38
2.599498 0.25333142 1.6735845 -2.1955216e+38
2.5994875 0.24874288 1.6735845 -2.2222106e+38
2.5824718 0.24194279 1.6705245 -2.2088148e+38
2.5824614 0.23738664 1.6705245 -2.2087106e+38
2.5664461 0.23080996 1.6676445 -2.1820735e+38
2.5664358 0.2262843 1.6676445 -2.1685216e+38
2.5664253 0.22175857 1.6676445 -2.1552813e+38
2.5664151 0.21723285 1.6676445 -2.1286965e+38
2.5824091 0.21460575 1.6705245 -2.1285922e+38
2.5823987 0.21004957 1.6705245 -2.1285916e+38
2.5823882 0.20549336 1.6705245 -2.1153507e+38
2.5823779 0.20093721 1.6705245 -2.1020588e+38
2.5823674 0.196381 1.6705245 -2.1020071e+38
2.5823569 0.19182485 1.6705245 -2.1153515e+38
2.5823464 0.18726867 1.6705245 -2.1152998e+38
2.5663321 0.18102723 1.6676445 -2.1020596e+38
2.5663216 0.17650154 1.6676445 -2.1020079e+38
2.5663114 0.17197585 1.6676445 -2.1019046e+38
2.5663009 0.16745013 1.6676445 -2.1153012e+38
2.5662906 0.16292444 1.6676445 -2.1286456e+38
2.5662801 0.15839875 1.6676445 -2.102061e+38
2.5662699 0.15387303 1.6676445 -2.0887168e+38
2.5662594 0.14934734 1.6676445 -2.0887166e+38
2.5662491 0.14482161 1.6676445 -2.0888201e+38
2.5662386 0.14029592 1.6676445 -2.0755272e+38
2.5662284 0.13577023 1.6676445 -2.075527e+38
2.5662179 0.13124451 1.6676445 -2.0755266e+38
2.5662076 0.12671882 1.6676445 -2.0887669e+38
2.5661972 0.12219311 1.6676445 -2.1152996e+38
2.5661869 0.1176674 1.6676445 -2.1419362e+38
2.5661764 0.11314171 1.6676445 -2.1419364e+38
2.5661659 0.108616 1.6676445 -2.1418849e+38
2.5661557 0.10409031 1.6676445 -2.1418851e+38
2.5661452 0.09956459 1.6676445 -2.1551774e+38
2.5661349 0.095038898 1.6676445 -2.155281e+38
2.5661244 0.090513192 1.6676445 -2.1552808e+38
2.5661142 0.085987501 1.6676445 -2.1552806e+38
2.5661037 0.081461795 1.6676445 -2.1552806e+38
2.5660934 0.076936074 1.6676445 -2.1552806e+38
2.566083 0.072410382 1.6676445 -2.1552806e+38
2.5660727 0.067884676 1.6676445 -2.1419882e+38
2.5660622 0.063358985 1.6676445 -2.141989e+38
2.566052 0.058833279 1.6676445 -2.1419896e+38
2.5660415 0.054307565 1.6676445 -2.1286969e+38
2.5660312 0.049781859 1.6676445 -2.1154042e+38
2.5660207 0.04525616 1.6676445 -2.1153525e+38
2.5660105 0.040730454 1.6676445 -2.1153527e+38
2.566 0.036204755 1.6676445 -2.128645e+38
2.5819914 0.032358557 1.6705245 -2.1286967e+38
2.5819809 0.027802378 1.6705245 -2.1420411e+38
2.5989721 0.023903415 1.6735845 -2.1421451e+38
2.5989616 0.019314855 1.6735845 -2.1555409e+38
2.615952 0.015318751 1.6766446 -2.1423001e+38
2.6329429 0.011257887 1.6797045 -2.1423522e+38
2.6329322 0.0066045597 1.6797045 -2.1556966e+38
2.6329215 0.00195124 1.6797045 -2.182282e+38
2.632911 -0.0027020797 1.6797045 -2.1956268e+38
2.6499012 -0.006924849 1.6827645 -2.2222116e+38
2.6498904 -0.011610549 1.6827645 -2.2222637e+38
2.6498797 -0.016296256 1.6827645 -2.2356608e+38
2.66787 -0.02062894 1.6860045 -2.1824406e+38
2.6678593 -0.025348932 1.6860045 -2.1291608e+38
2.6678483 -0.030068919 1.6860045 -2.1543365e+38
2.6678376 -0.034788907 1.6860045 -2.1669664e+38
2.6678267 -0.039508894 1.6860045 nan
2.6678159 -0.044228882 1.6860045 nan
2.799685 0.33477557 1.704615 -2.168521e+38
2.7996738 0.32980603 1.704615 -2.155176e+38
2.7796555 0.3218157 1.7010531 -2.1284876e+38
2.7796443 0.31688428 1.7010531 -2.1151436e+38
2.650578 0.28827441 1.6780788 -2.0885582e+38
2.6335616 0.28115052 1.6750512 -2.0754217e+38
2.6165454 0.27409142 1.6720235 -2.1020582e+38
2.6165347 0.26947048 1.6720235 -2.1288512e+38
2.6165242 0.26484954 1.6720235 -2.1689368e+38
2.5995085 0.25792 1.668996 -2.1955737e+38
2.599498 0.25333142 1.668996 -2.2222627e+38
2.5994875 0.24874288 1.668996 -2.2354511e+38
2.5824718 0.24194279 1.6659683 -2.2486917e+38
2.5824614 0.23738664 1.6659683 -2.2486394e+38
2.5664461 0.23080996 1.6631188 -2.2352948e+38
2.5664358 0.2262843 1.6631188 -2.2085023e+38
2.5664253 0.22175857 1.6631188 -2.1685733e+38
2.5664151 0.21723285 1.6631188 -2.1286444e+38
2.5824091 0.21460575 1.6659683 -2.1286442e+38
2.5823987 0.21004957 1.6659683 -2.1286436e+38
2.5663838 0.20365578 1.6631188 -2.1153507e+38
2.5663736 0.19913006 1.6631188 -2.0887661e+38
2.5823674 0.196381 1.6659683 -2.1020067e+38
2.5663528 0.19007865 1.6631188 -2.1152996e+38
2.5663424 0.18555292 1.6631188 -2.115248e+38
2.5663321 0.18102723 1.6631188 -2.1153002e+38
2.5663216 0.17650154 1.6631188 -2.1019044e+38
2.5663114 0.17197585 1.6631188 -2.0754241e+38
2.5663009 0.16745013 1.6631188 -2.102061e+38
2.5662906 0.16292444 1.6631188 -2.1153531e+38
2.5662801 0.15839875 1.6631188 -2.1021127e+38
2.5662699 0.15387303 1.6631188 -2.0754763e+38
2.5662594 0.14934734 1.6631188 -2.0753724e+38
2.5662491 0.14482161 1.6631188 -2.0754756e+38
2.5662386 0.14029592 1.6631188 -2.0755272e+38
2.5662284 0.13577023 1.6631188 -2.075527e+38
2.5662179 0.13124451 1.6631188 -2.088819e+38
2.5662076 0.12671882 1.6631188 -2.0887669e+38
2.5661972 0.12219311 1.6631188 -2.1152993e+38
2.5661869 0.1176674 1.6631188 -2.1418843e+38
2.5661764 0.11314171 1.6631188 -2.1551249e+38
2.5661659 0.108616 1.6631188 -2.1551251e+38
2.5661557 0.10409031 1.6631188 -2.1551253e+38
2.5661452 0.09956459 1.6631188 -2.1552291e+38
2.5661349 0.095038898 1.6631188 -2.155281e+38
2.5661244 0.090513192 1.6631188 -2.1552806e+38
2.5661142 0.085987501 1.6631188 -2.1552802e+38
2.5661037 0.081461795 1.6631188 -2.1552804e+38
2.5660934 0.076936074 1.6631188 -2.1552806e+38
2.566083 0.072410382 1.6631188 -2.1552806e+38
2.5660727 0.067884676 1.6631188 -2.1552287e+38
2.5660622 0.063358985 1.6631188 -2.155281e+38
2.566052 0.058833279 1.6631188 -2.1552815e+38
2.5660415 0.054307565 1.6631188 -2.1552813e+38
2.5660312 0.049781859 1.6631188 -2.155281e+38
2.5660207 0.04525616 1.6631188 -2.141937e+38
2.5820122 0.041470915 1.6659683 -2.1285409e+38
2.5820017 0.036914743 1.6659683 -2.1021123e+38
2.5819914 0.032358557 1.6659683 -2.1154567e+38
2.5819809 0.027802378 1.6659683 -2.1155604e+38
2.5989721 0.023903415 1.668996 -2.1422486e+38
2.5989616 0.019314855 1.668996 -2.1556443e+38
2.615952 0.015318751 1.6720235 -2.1689883e+38
2.6329429 0.011257887 1.6750512 -2.1822808e+38
2.6329322 0.0066045597 1.6750512 -2.1956254e+38
2.6329215 0.00195124 1.6750512 -2.20897e+38
2.632911 -0.0027020797 1.6750512 -2.2356071e+38
2.6499012 -0.006924849 1.6780788 -2.2489002e+38
2.6498904 -0.011610549 1.6780788 -2.2489008e+38
2.6498797 -0.016296256 1.6780788 -2.2489018e+38
2.649869 -0.02098196 1.6780788 -2.1159283e+38
2.6678593 -0.025348932 1.6812845 -1.9691368e+38
2.6678483 -0.030068919 1.6812845 -2.2997772e+38
2.6498368 -0.035039067 1.6780788 -2.635994e+38
2.649826 -0.039724767 1.6780788 nan
2.6498153 -0.044410471 1.6780788 nan
2.6335723 0.28580382 1.6703979 -2.0888186e+38
2.6335616 0.28115052 1.6703979 -2.1154551e+38
2.6165454 0.27409142 1.6674026 -2.1421952e+38
2.6165347 0.26947048 1.6674026 -2.1689883e+38
2.6165242 0.26484954 1.6674026 -2.1956256e+38
2.5995085 0.25792 1.6644074 -2.235555e+38
2.599498 0.25333142 1.6644074 -2.2354517e+38
2.5824823 0.246499 1.6614121 -2.24864e+38
2.5824718 0.24194279 1.6614121 -2.2486396e+38
2.5824614 0.23738664 1.6614121 -2.2618797e+38
2.5664461 0.23080996 1.6585931 -2.2352428e+38
2.5664358 0.2262843 1.6585931 -2.2217424e+38
2.5664253 0.22175857 1.6585931 -2.1818652e+38
2.5664151 0.21723285 1.6585931 -2.1418326e+38
2.5824091 0.21460575 1.6614121 -2.1285922e+38
2.5823987 0.21004957 1.6614121 -2.1285916e+38
2.5823882 0.20549336 1.6614121 -2.1020582e+38
2.5663736 0.19913006 1.6585931 -2.0887659e+38
2.5823674 0.196381 1.6614121 -2.0887659e+38
2.5663528 0.19007865 1.6585931 -2.102059e+38
2.5663424 0.18555292 1.6585931 -2.1020598e+38
2.5663321 0.18102723 1.6585931 -2.1021121e+38
2.5663216 0.17650154 1.6585931 -2.1020604e+38
2.5663114 0.17197585 1.6585931 -2.0887685e+38
2.5663009 0.16745013 1.6585931 -2.102061e+38
2.5662906 0.16292444 1.6585931 -2.1153531e+38
2.5662801 0.15839875 1.6585931 -2.1020606e+38
2.5662699 0.15387303 1.6585931 -2.1020606e+38
2.5662594 0.14934734 1.6585931 -2.1020606e+38
2.5662491 0.14482161 1.6585931 -2.1020602e+38
2.5662386 0.14029592 1.6585931 -2.1020598e+38
2.5662284 0.13577023 1.6585931 -2.1020596e+38
2.5662179 0.13124451 1.6585931 -2.1021113e+38
2.5662076 0.12671882 1.6585931 -2.1021111e+38
2.5661972 0.12219311 1.6585931 -2.1153511e+38
2.5661869 0.1176674 1.6585931 -2.1418841e+38
2.5661764 0.11314171 1.6585931 -2.1418326e+38
2.5661659 0.108616 1.6585931 -2.1551249e+38
2.5661557 0.10409031 1.6585931 -2.1551768e+38
2.5661452 0.09956459 1.6585931 -2.1419886e+38
2.5661349 0.095038898 1.6585931 -2.1419888e+38
2.5661244 0.090513192 1.6585931 -2.1552804e+38
2.5661142 0.085987501 1.6585931 -2.1552798e+38
2.5661037 0.081461795 1.6585931 -2.1552283e+38
2.5660934 0.076936074 1.6585931 -2.1552806e+38
2.566083 0.072410382 1.6585931 -2.1419886e+38
2.5660727 0.067884676 1.6585931 -2.1552808e+38
2.5660622 0.063358985 1.6585931 -2.155281e+38
2.566052 0.058833279 1.6585931 -2.155281e+38
2.5820436 0.055139445 1.6614121 -2.155281e+38
2.5660312 0.049781859 1.6585931 -2.1419888e+38
2.5820227 0.046027094 1.6614121 -2.1419368e+38
2.5820122 0.041470915 1.6614121 -2.1419888e+38
2.5820017 0.036914743 1.6614121 -2.1420411e+38
2.5819914 0.032358557 1.6614121 -2.1421454e+38
2.5819809 0.027802378 1.6614121 -2.1422486e+38
2.5989721 0.023903415 1.6644074 -2.1689364e+38
2.5989616 0.019314855 1.6644074 -2.1955729e+38
2.615952 0.015318751 1.6674026 -2.1956246e+38
2.6329429 0.011257887 1.6703979 -2.2089173e+38
2.6329322 0.0066045597 1.6703979 -2.2090213e+38
2.6329215 0.00195124 1.6703979 -2.2091256e+38
2.632911 -0.0027020797 1.6703979 -2.2356586e+38
2.6329002 -0.0073554032 1.6703979 -2.2622444e+38
2.6498904 -0.011610549 1.673393 -2.2621937e+38
2.6498797 -0.016296256 1.673393 -2.262143e+38
2.649869 -0.02098196 1.673393 -2.1823386e+38
2.6498582 -0.025667664 1.673393 -2.1025297e+38
2.6498475 -0.030353364 1.673393 -2.1686762e+38
2.6498368 -0.035039067 1.673393 -2.2365581e+38
2.649826 -0.039724767 1.673393 nan
2.6498153 -0.044410471 1.673393 nan
2.6498046 -0.049096175 1.673393 nan
2.6497939 -0.053781878 1.673393 nan
2.6335723 0.28580382 1.6657445 -2.1022681e+38
2.6335616 0.28115052 1.6657445 -2.1554891e+38
2.6165454 0.27409142 1.6627817 -2.1822295e+38
2.6165347 0.26947048 1.6627817 -2.2088666e+38
2.6165242 0.26484954 1.6627817 -2.2355035e+38
2.5995085 0.25792 1.6598188 -2.2620367e+38
2.599498 0.25333142 1.6598188 -2.2619852e+38
2.5824823 0.246499 1.6568559 -2.2620367e+38
2.5824718 0.24194279 1.6568559 -2.2619844e+38
2.5664566 0.23533568 1.6540674 -2.2619316e+38
2.5664461 0.23080996 1.6540674 -2.2485868e+38
2.5664358 0.2262843 1.6540674 -2.221898e+38
2.5664253 0.22175857 1.6540674 -2.1953133e+38
2.5664151 0.21723285 1.6540674 -2.1552802e+38
2.5824091 0.21460575 1.6568559 -2.1419356e+38
2.5823987 0.21004957 1.6568559 -2.1153507e+38
2.5663838 0.20365578 1.6540674 -2.1021099e+38
2.5663736 0.19913006 1.6540674 -2.0754736e+38
2.5663631 0.19460434 1.6540674 -2.0887659e+38
2.5663528 0.19007865 1.6540674 -2.0887665e+38
2.5663424 0.18555292 1.6540674 -2.0887671e+38
2.5663321 0.18102723 1.6540674 -2.0888714e+38
2.5663216 0.17650154 1.6540674 -2.1021641e+38
2.5663114 0.17197585 1.6540674 -2.1021123e+38
2.5663009 0.16745013 1.6540674 -2.1153529e+38
2.5662906 0.16292444 1.6540674 -2.1153527e+38
2.5662801 0.15839875 1.6540674 -2.1153527e+38
2.5662699 0.15387303 1.6540674 -2.1153527e+38
2.5662594 0.14934734 1.6540674 -2.1153527e+38
2.5662491 0.14482161 1.6540674 -2.1153525e+38
2.5662386 0.14029592 1.6540674 -2.1153523e+38
2.5662284 0.13577023 1.6540674 -2.1153519e+38
2.5662179 0.13124451 1.6540674 -2.1154036e+38
2.5662076 0.12671882 1.6540674 -2.1153515e+38
2.5661972 0.12219311 1.6540674 -2.1286957e+38
2.5661869 0.1176674 1.6540674 -2.1285924e+38
2.5661764 0.11314171 1.6540674 -2.1418334e+38
2.5661659 0.108616 1.6540674 -2.1551774e+38
2.5661557 0.10409031 1.6540674 -2.1419368e+38
2.5661452 0.09956459 1.6540674 -2.1286965e+38
2.5661349 0.095038898 1.6540674 -2.1419886e+38
2.5661244 0.090513192 1.6540674 -2.1419884e+38
2.5661142 0.085987501 1.6540674 -2.1552285e+38
2.5661037 0.081461795 1.6540674 -2.1552287e+38
2.5660934 0.076936074 1.6540674 -2.1419884e+38
2.566083 0.072410382 1.6540674 -2.128748e+38
2.5660727 0.067884676 1.6540674 -2.1420922e+38
2.5660622 0.063358985 1.6540674 -2.1553326e+38
2.566052 0.058833279 1.6540674 -2.1552808e+38
2.5820436 0.055139445 1.6568559 -2.1420405e+38
2.5660312 0.049781859 1.6540674 -2.1420405e+38
2.5820227 0.046027094 1.6568559 -2.1420407e+38
2.5820122 0.041470915 1.6568559 -2.1553851e+38
2.5820017 0.036914743 1.6568559 -2.1687295e+38
2.5819914 0.032358557 1.6568559 -2.1688336e+38
2.5819809 0.027802378 1.6568559 -2.1555926e+38
2.5989721 0.023903415 1.6598188 -2.1955729e+38
2.5989616 0.019314855 1.6598188 -2.2222091e+38
2.615952 0.015318751 1.6627817 -2.2222091e+38
2.6329429 0.011257887 1.6657445 -2.2222615e+38
2.6329322 0.0066045597 1.6657445 -2.2223659e+38
2.6329215 0.00195124 1.6657445 -2.2090223e+38
2.632911 -0.0027020797 1.6657445 -2.2355556e+38
2.6329002 -0.0073554032 1.6657445 -2.2621929e+38
2.6498904 -0.011610549 1.6687074 -2.2754342e+38
2.6498797 -0.016296256 1.6687074 -2.2754353e+38
2.649869 -0.02098196 1.6687074 -2.2620923e+38
2.6498582 -0.025667664 1.6687074 -2.2356093e+38
2.6498475 -0.030353364 1.6687074 -2.0359116e+38
2.6498368 -0.035039067 1.6687074 -1.8251175e+38
2.649826 -0.039724767 1.6687074 -3.052382e+38
2.6498153 -0.044410471 1.6687074 nan
2.6498046 -0.049096175 1.6687074 nan
2.6497939 -0.053781878 1.6687074 nan
2.6335723 0.28580382 1.6610912 -1.9156582e+38
2.6335616 0.28115052 1.6610912 -1.942866e+38
2.6165454 0.27409142 1.6581607 -2.0356006e+38
2.6165347 0.26947048 1.6581607 -2.1424064e+38
2.6165242 0.26484954 1.6581607 -2.2090238e+38
2.5995085 0.25792 1.6552303 -2.2885701e+38
2.599498 0.25333142 1.6552303 -2.2753821e+38
2.5994875 0.24874288 1.6552303 -2.2754334e+38
2.5824718 0.24194279 1.6522998 -2.2620886e+38
2.5824614 0.23738664 1.6522998 -2.2487434e+38
2.5664461 0.23080996 1.6495416 -2.235398e+38
2.5664358 0.2262843 1.6495416 -2.2219497e+38
2.5664253 0.22175857 1.6495416 -2.1953131e+38
2.5664151 0.21723285 1.6495416 -2.1685721e+38
2.5824091 0.21460575 1.6522998 -2.1286945e+38
2.5823987 0.21004957 1.6522998 -2.0755253e+38
2.5823882 0.20549336 1.6522998 -2.0622848e+38
2.5663736 0.19913006 1.6495416 -2.0488889e+38
2.5823674 0.196381 1.6522998 -2.0488891e+38
2.5663528 0.19007865 1.6495416 -2.0622337e+38
2.5663424 0.18555292 1.6495416 -2.0622858e+38
2.5663321 0.18102723 1.6495416 -2.0623383e+38
2.5663216 0.17650154 1.6495416 -2.0756312e+38
2.5663114 0.17197585 1.6495416 -2.1021639e+38
2.5663009 0.16745013 1.6495416 -2.1154561e+38
2.5662906 0.16292444 1.6495416 -2.1286965e+38
2.5662801 0.15839875 1.6495416 -2.1286965e+38
2.5662699 0.15387303 1.6495416 -2.1286965e+38
2.5662594 0.14934734 1.6495416 -2.1153004e+38
2.5662491 0.14482161 1.6495416 -2.1152486e+38
2.5662386 0.14029592 1.6495416 -2.1153006e+38
2.5662284 0.13577023 1.6495416 -2.1286444e+38
2.5662179 0.13124451 1.6495416 -2.1285918e+38
2.5662076 0.12671882 1.6495416 -2.1417805e+38
2.5661972 0.12219311 1.6495416 -2.1418845e+38
2.5661869 0.1176674 1.6495416 -2.1418334e+38
2.5661764 0.11314171 1.6495416 -2.1418861e+38
2.5661659 0.108616 1.6495416 -2.1419377e+38
2.5661557 0.10409031 1.6495416 -2.1286969e+38
2.5661452 0.09956459 1.6495416 -2.1154042e+38
2.5491321 0.093863569 1.6466112 -2.1286961e+38
2.5661244 0.090513192 1.6495416 -2.1419886e+38
2.5661142 0.085987501 1.6495416 -2.1419888e+38
2.5661037 0.081461795 1.6495416 -2.1419366e+38
2.5660934 0.076936074 1.6495416 -2.1419884e+38
2.566083 0.072410382 1.6495416 -2.1420403e+38
2.5660727 0.067884676 1.6495416 -2.1420401e+38
2.5660622 0.063358985 1.6495416 -2.1553324e+38
2.566052 0.058833279 1.6495416 -2.142092e+38
2.5660415 0.054307565 1.6495416 -2.1421441e+38
2.5660312 0.049781859 1.6495416 -2.1420922e+38
2.5660207 0.04525616 1.6495416 -2.1553849e+38
2.5820122 0.041470915 1.6522998 -2.1687293e+38
2.5820017 0.036914743 1.6522998 -2.1821254e+38
2.5819914 0.032358557 1.6522998 -2.1954696e+38
2.5819809 0.027802378 1.6522998 -2.1955214e+38
2.5989721 0.023903415 1.6552303 -2.2221574e+38
2.5989616 0.019314855 1.6552303 -2.2487937e+38
2.615952 0.015318751 1.6581607 -2.2487935e+38
2.6159415 0.010697812 1.6581607 -2.2487943e+38
2.6329322 0.0066045597 1.6610912 -2.2356065e+38
2.6329215 0.00195124 1.6610912 -2.2355554e+38
2.632911 -0.0027020797 1.6610912 -2.2489004e+38
2.6329002 -0.0073554032 1.6610912 -2.2754338e+38
2.6328895 -0.012008723 1.6610912 -2.2887787e+38
2.6328788 -0.016662043 1.6610912 -2.3021239e+38
2.649869 -0.02098196 1.6640216 -2.2889882e+38
2.6498582 -0.025667664 1.6640216 -2.2893508e+38
2.6498475 -0.030353364 1.6640216 -2.076206e+38
2.6498368 -0.035039067 1.6640216 -1.8631219e+38
2.649826 -0.039724767 1.6640216 -2.5178263e+38
2.6498153 -0.044410471 1.6640216 -3.1726368e+38
2.6498046 -0.049096175 1.6640216 nan
2.6497939 -0.053781878 1.6640216 nan
2.6335723 0.28580382 1.6564379 -1.7281063e+38
2.6335616 0.28115052 1.6564379 -1.7288347e+38
2.6165454 0.27409142 1.6535398 -1.9014798e+38
2.6165347 0.26947048 1.6535398 -2.0625466e+38
2.6165242 0.26484954 1.6535398 -2.1828023e+38
2.5995085 0.25792 1.6506417 -2.3021218e+38
2.599498 0.25333142 1.6506417 -2.2888821e+38
2.5824823 0.246499 1.6477436 -2.275485e+38
2.5824718 0.24194279 1.6477436 -2.2621399e+38
2.5664566 0.23533568 1.645016 -2.2355026e+38
2.5664461 0.23080996 1.645016 -2.2222096e+38
2.5664358 0.2262843 1.645016 -2.2087615e+38
2.5664253 0.22175857 1.645016 -2.1953654e+38
2.5664151 0.21723285 1.645016 -2.1819686e+38
2.5824091 0.21460575 1.6477436 -2.1154547e+38
2.5663943 0.20818144 1.645016 -2.0357532e+38
2.5663838 0.20365578 1.645016 -2.0358053e+38
2.5663736 0.19913006 1.645016 -2.0224092e+38
2.5663631 0.19460434 1.645016 -2.0223053e+38
2.5663528 0.19007865 1.645016 -2.0224613e+38
2.5663424 0.18555292 1.645016 -2.0358576e+38
2.5663321 0.18102723 1.645016 -2.035754e+38
2.5663216 0.17650154 1.645016 -2.0623387e+38
2.5663114 0.17197585 1.645016 -2.0889231e+38
2.5663009 0.16745013 1.645016 -2.1156113e+38
2.5662906 0.16292444 1.645016 -2.1287478e+38
2.5662801 0.15839875 1.645016 -2.1287999e+38
2.5662699 0.15387303 1.645016 -2.1286444e+38
2.5662594 0.14934734 1.645016 -2.128489e+38
2.5662491 0.14482161 1.645016 -2.1151967e+38
2.5662386 0.14029592 1.645016 -2.128489e+38
2.5662284 0.13577023 1.645016 -2.1285405e+38
2.5662179 0.13124451 1.645016 -2.1418843e+38
2.5662076 0.12671882 1.645016 -2.1551247e+38
2.5661972 0.12219311 1.645016 -2.1551247e+38
2.5661869 0.1176674 1.645016 -2.1418851e+38
2.5661764 0.11314171 1.645016 -2.1419898e+38
2.5661659 0.108616 1.645016 -2.1286971e+38
2.5661557 0.10409031 1.645016 -2.1154044e+38
2.5661452 0.09956459 1.645016 -2.1021119e+38
2.5491321 0.093863569 1.6421179 -2.1154042e+38
2.5491219 0.089370258 1.6421179 -2.1286965e+38
2.5661142 0.085987501 1.645016 -2.1286965e+38
2.5661037 0.081461795 1.645016 -2.1286963e+38
2.5660934 0.076936074 1.645016 -2.1419886e+38
2.566083 0.072410382 1.645016 -2.1419882e+38
2.5660727 0.067884676 1.645016 -2.141988e+38
2.5660622 0.063358985 1.645016 -2.1420918e+38
2.566052 0.058833279 1.645016 -2.1420918e+38
2.5660415 0.054307565 1.645016 -2.1420918e+38
2.5660312 0.049781859 1.645016 -2.1553841e+38
2.5660207 0.04525616 1.645016 -2.1554362e+38
2.5820122 0.041470915 1.6477436 -2.1820729e+38
2.5820017 0.036914743 1.6477436 -2.1954173e+38
2.5819914 0.032358557 1.6477436 -2.2220021e+38
2.5819809 0.027802378 1.6477436 -2.2353461e+38
2.5989721 0.023903415 1.6506417 -2.2486901e+38
2.5989616 0.019314855 1.6506417 -2.2620862e+38
2.5989509 0.014726304 1.6506417 -2.2620862e+38
2.6159415 0.010697812 1.6535398 -2.2621385e+38
2.615931 0.0060768723 1.6535398 -2.2621911e+38
2.6329215 0.00195124 1.6564379 -2.2488994e+38
2.6159098 -0.0031650141 1.6535398 -2.2755367e+38
2.6329002 -0.0073554032 1.6564379 -2.2888296e+38
2.6328895 -0.012008723 1.6564379 -2.3154147e+38
2.6328788 -0.016662043 1.6564379 -2.3288117e+38
2.649869 -0.02098196 1.659336 -2.3289165e+38
2.6498582 -0.025667664 1.659336 -2.3290725e+38
2.6498475 -0.030353364 1.659336 -2.1163964e+38
2.6498368 -0.035039067 1.659336 -1.8904313e+38
2.649826 -0.039724767 1.659336 -1.9832215e+38
2.6498153 -0.044410471 1.659336 -2.0669335e+38
2.6498046 -0.049096175 1.659336 nan
2.6497939 -0.053781878 1.659336 nan
2.6335828 0.29045716 1.6517845 -2.7249176e+38
2.6335723 0.28580382 1.6517845 -2.8469364e+38
2.6165559 0.27871236 1.6489189 -2.9644924e+38
2.6165454 0.27409142 1.6489189 -2.8078432e+38
2.6165347 0.26947048 1.6489189 -2.6348396e+38
2.6165242 0.26484954 1.6489189 -2.3684782e+38
2.5995085 0.25792 1.6460531 -2.1025295e+38
2.599498 0.25333142 1.6460531 -2.1824917e+38
2.5824823 0.246499 1.6431874 -2.2755367e+38
2.5824718 0.24194279 1.6431874 -2.2621913e+38
2.5664566 0.23533568 1.6404903 -2.2620349e+38
2.5664461 0.23080996 1.6404903 -2.2354497e+38
2.5664358 0.2262843 1.6404903 -2.2220538e+38
2.5664253 0.22175857 1.6404903 -2.1954175e+38
2.5664151 0.21723285 1.6404903 -2.1687287e+38
2.5824091 0.21460575 1.6431874 -2.0889746e+38
2.5663943 0.20818144 1.6404903 -2.0225655e+38
2.5663838 0.20365578 1.6404903 -2.0092737e+38
2.5663736 0.19913006 1.6404903 -1.9959812e+38
2.5663631 0.19460434 1.6404903 -1.9825849e+38
2.5663528 0.19007865 1.6404903 -1.982637e+38
2.5663424 0.18555292 1.6404903 -2.0091696e+38
2.5663321 0.18102723 1.6404903 -2.0223578e+38
2.5663216 0.17650154 1.6404903 -2.0622864e+38
2.5663114 0.17197585 1.6404903 -2.102163e+38
2.5663009 0.16745013 1.6404903 -2.1154549e+38
2.5662906 0.16292444 1.6404903 -2.1286436e+38
2.5662801 0.15839875 1.6404903 -2.1286955e+38
2.5662699 0.15387303 1.6404903 -2.1285924e+38
2.5662594 0.14934734 1.6404903 -2.1285411e+38
2.5662491 0.14482161 1.6404903 -2.1284892e+38
2.5662386 0.14029592 1.6404903 -2.128489e+38
2.5662284 0.13577023 1.6404903 -2.128385e+38
2.5662179 0.13124451 1.6404903 -2.1418326e+38
2.5662076 0.12671882 1.6404903 -2.168417e+38
2.5661972 0.12219311 1.6404903 -2.1551245e+38
2.5661869 0.1176674 1.6404903 -2.1418849e+38
2.5661764 0.11314171 1.6404903 -2.1286454e+38
2.5661659 0.108616 1.6404903 -2.1286969e+38
2.5491529 0.10285022 1.6376245 -2.1154042e+38
2.5491424 0.09835691 1.6376245 -2.1154044e+38
2.5491321 0.093863569 1.6376245 -2.1154044e+38
2.5491219 0.089370258 1.6376245 -2.1286967e+38
2.5661142 0.085987501 1.6404903 -2.1286965e+38
2.5661037 0.081461795 1.6404903 -2.1286446e+38
2.5660934 0.076936074 1.6404903 -2.1286444e+38
2.566083 0.072410382 1.6404903 -2.128592e+38
2.5660727 0.067884676 1.6404903 -2.1287472e+38
2.5660622 0.063358985 1.6404903 -2.1288512e+38
2.566052 0.058833279 1.6404903 -2.1420916e+38
2.5660415 0.054307565 1.6404903 -2.1553837e+38
2.5660312 0.049781859 1.6404903 -2.1554354e+38
2.5660207 0.04525616 1.6404903 -2.1688317e+38
2.5820122 0.041470915 1.6431874 -2.182124e+38
2.5820017 0.036914743 1.6431874 -2.1954688e+38
2.5819914 0.032358557 1.6431874 -2.2087615e+38
2.5819809 0.027802378 1.6431874 -2.2220536e+38
2.5989721 0.023903415 1.6460531 -2.2222091e+38
2.5989616 0.019314855 1.6460531 -2.2355536e+38
2.5989509 0.014726304 1.6460531 -2.2355538e+38
2.6159415 0.010697812 1.6489189 -2.2356061e+38
2.615931 0.0060768723 1.6489189 -2.2356065e+38
2.6159203 0.0014559254 1.6489189 -2.2489513e+38
2.6159098 -0.0031650141 1.6489189 -2.262244e+38
2.6329002 -0.0073554032 1.6517845 -2.2755888e+38
2.6328895 -0.012008723 1.6517845 -2.2888815e+38
2.6328788 -0.016662043 1.6517845 -2.315519e+38
2.6328683 -0.021315366 1.6517845 -2.328968e+38
2.6328576 -0.025968686 1.6517845 -2.3557098e+38
2.6328468 -0.030622005 1.6517845 -2.2495807e+38
2.6498368 -0.035039067 1.6546502 -2.1572097e+38
2.649826 -0.039724767 1.6546502 -2.0500405e+38
2.6498153 -0.044410471 1.6546502 -1.9436128e+38
2.6328042 -0.049235296 1.6517845 -3.1988128e+38
2.6327934 -0.053888615 1.6517845 nan
2.6335936 0.29511046 1.6471312 nan
2.6335828 0.29045716 1.6471312 nan
2.6335723 0.28580382 1.6471312 nan
2.6165559 0.27871236 1.6442978 nan
2.6165454 0.27409142 1.6442978 nan
2.6165347 0.26947048 1.6442978 -3.209066e+38
2.6165242 0.26484954 1.6442978 -2.5537917e+38
2.5995085 0.25792 1.6414645 -1.8891787e+38
2.5824926 0.25105515 1.6386311 -2.0894985e+38
2.5824823 0.246499 1.6386311 -2.2755371e+38
2.5824718 0.24194279 1.6386311 -2.2755359e+38
2.5664566 0.23533568 1.6359645 -2.2754316e+38
2.5664461 0.23080996 1.6359645 -2.2487949e+38
2.5664358 0.2262843 1.6359645 -2.2221067e+38
2.5664253 0.22175857 1.6359645 -2.1821782e+38
2.5664151 0.21723285 1.6359645 -2.1422492e+38
2.5824091 0.21460575 1.6386311 -2.0757876e+38
2.5823987 0.21004957 1.6386311 -2.0092745e+38
2.5823882 0.20549336 1.6386311 -1.9826382e+38
2.5663736 0.19913006 1.6359645 -1.9561054e+38
2.5663631 0.19460434 1.6359645 -1.9560532e+38
2.5663528 0.19007865 1.6359645 -1.9427088e+38
2.5663424 0.18555292 1.6359645 -1.9825335e+38
2.5663321 0.18102723 1.6359645 -2.009066e+38
2.5663216 0.17650154 1.6359645 -2.0622349e+38
2.5663114 0.17197585 1.6359645 -2.1154036e+38
2.5663009 0.16745013 1.6359645 -2.1153515e+38
2.5662906 0.16292444 1.6359645 -2.1153513e+38
2.5662801 0.15839875 1.6359645 -2.1286434e+38
2.5662699 0.15387303 1.6359645 -2.1285918e+38
2.5662594 0.14934734 1.6359645 -2.1417809e+38
2.5662491 0.14482161 1.6359645 -2.141833e+38
2.5662386 0.14029592 1.6359645 -2.1418332e+38
2.5662284 0.13577023 1.6359645 -2.1284886e+38
2.5662179 0.13124451 1.6359645 -2.1551247e+38
2.5662076 0.12671882 1.6359645 -2.168417e+38
2.5661972 0.12219311 1.6359645 -2.1551249e+38
2.5661869 0.1176674 1.6359645 -2.1285926e+38
2.5661764 0.11314171 1.6359645 -2.128645e+38
2.5661659 0.108616 1.6359645 -2.1154046e+38
2.5491529 0.10285022 1.6331311 -2.1154048e+38
2.5491424 0.09835691 1.6331311 -2.1154048e+38
2.5491321 0.093863569 1.6331311 -2.1154048e+38
2.5491219 0.089370258 1.6331311 -2.1154048e+38
2.5661142 0.085987501 1.6359645 -2.1286452e+38
2.5491014 0.080383621 1.6331311 -2.128645e+38
2.5660934 0.076936074 1.6359645 -2.1152486e+38
2.566083 0.072410382 1.6359645 -2.1021119e+38
2.5660727 0.067884676 1.6359645 -2.1155598e+38
2.5660622 0.063358985 1.6359645 -2.1155077e+38
2.566052 0.058833279 1.6359645 -2.1420922e+38
2.5660415 0.054307565 1.6359645 -2.1553845e+38
2.5660312 0.049781859 1.6359645 -2.1686766e+38
2.5660207 0.04525616 1.6359645 -2.1820727e+38
2.5820122 0.041470915 1.6386311 -2.1953648e+38
2.5820017 0.036914743 1.6386311 -2.1954171e+38
2.5819914 0.032358557 1.6386311 -2.1954175e+38
2.5819809 0.027802378 1.6386311 -2.1956252e+38
2.5819705 0.023246206 1.6386311 -2.2090211e+38
2.58196 0.01869002 1.6386311 -2.2090211e+38
2.5989509 0.014726304 1.6414645 -2.2089694e+38
2.5989404 0.010137737 1.6414645 -2.1957292e+38
2.5989299 0.0055491775 1.6414645 -2.2223142e+38
2.6159203 0.0014559254 1.6442978 -2.2356588e+38
2.6159098 -0.0031650141 1.6442978 -2.2489513e+38
2.6158991 -0.0077859536 1.6442978 -2.2622961e+38
2.6328895 -0.012008723 1.6471312 -2.2756407e+38
2.6328788 -0.016662043 1.6471312 -2.2890375e+38
2.6328683 -0.021315366 1.6471312 -2.3290709e+38
2.6328576 -0.025968686 1.6471312 -2.3690009e+38
2.6328468 -0.030622005 1.6471312 -2.3956386e+38
2.6498368 -0.035039067 1.6499646 -2.4221193e+38
2.6328256 -0.039928652 1.6471312 -2.1293776e+38
2.6328149 -0.044581972 1.6471312 -1.8244969e+38
2.6328042 -0.049235296 1.6471312 -2.9590249e+38
2.6327934 -0.053888615 1.6471312 nan
2.6505995 0.29764581 1.6452788 nan
2.6335828 0.29045716 1.6424779 nan
2.6335723 0.28580382 1.6424779 nan
2.6165559 0.27871236 1.6396769 nan
2.6165454 0.27409142 1.6396769 nan
2.6165347 0.26947048 1.6396769 -3.1593861e+38
2.599519 0.26250851 1.6368759 -2.5018691e+38
2.5995085 0.25792 1.6368759 -1.8476928e+38
2.599498 0.25333142 1.6368759 -2.0756357e+38
2.5824823 0.246499 1.6340749 -2.3020184e+38
2.5824718 0.24194279 1.6340749 -2.2754843e+38
2.5664566 0.23533568 1.6314387 -2.2487959e+38
2.5664461 0.23080996 1.6314387 -2.2222112e+38
2.5664358 0.2262843 1.6314387 -2.1955749e+38
2.5664253 0.22175857 1.6314387 -2.1689386e+38
2.5664151 0.21723285 1.6314387 -2.1422504e+38
2.5824091 0.21460575 1.6340749 -2.1156659e+38
2.5823987 0.21004957 1.6340749 -2.075789e+38
2.5823882 0.20549336 1.6340749 -2.0491523e+38
2.5823779 0.20093721 1.6340749 -2.0225676e+38
2.5823674 0.196381 1.6340749 -2.0092232e+38
2.5663528 0.19007865 1.6314387 -2.0091708e+38
2.5663424 0.18555292 1.6314387 -2.0224108e+38
2.5663321 0.18102723 1.6314387 -2.0356509e+38
2.5663216 0.17650154 1.6314387 -2.0622353e+38
2.5663114 0.17197585 1.6314387 -2.1021117e+38
2.5663009 0.16745013 1.6314387 -2.1021113e+38
2.5662906 0.16292444 1.6314387 -2.1154032e+38
2.5662801 0.15839875 1.6314387 -2.1286431e+38
2.5662699 0.15387303 1.6314387 -2.1418837e+38
2.5662594 0.14934734 1.6314387 -2.141832e+38
2.5662491 0.14482161 1.6314387 -2.1551249e+38
2.5662386 0.14029592 1.6314387 -2.1418332e+38
2.5662284 0.13577023 1.6314387 -2.1417287e+38
2.5662179 0.13124451 1.6314387 -2.1417801e+38
2.5662076 0.12671882 1.6314387 -2.1551247e+38
2.5661972 0.12219311 1.6314387 -2.1285924e+38
2.5661869 0.1176674 1.6314387 -2.10206e+38
2.5661764 0.11314171 1.6314387 -2.1021119e+38
2.5661659 0.108616 1.6314387 -2.1021125e+38
2.5661557 0.10409031 1.6314387 -2.1021129e+38
2.5661452 0.09956459 1.6314387 -2.1153533e+38
2.5661349 0.095038898 1.6314387 -2.1286973e+38
2.5661244 0.090513192 1.6314387 -2.1287494e+38
2.5661142 0.085987501 1.6314387 -2.1419898e+38
2.5661037 0.081461795 1.6314387 -2.1419896e+38
2.5660934 0.076936074 1.6314387 -2.1286969e+38
2.566083 0.072410382 1.6314387 -2.1288009e+38
2.5660727 0.067884676 1.6314387 -2.1288009e+38
2.5660622 0.063358985 1.6314387 -2.1287488e+38
2.566052 0.058833279 1.6314387 -2.1420928e+38
2.5660415 0.054307565 1.6314387 -2.155437e+38
2.5660312 0.049781859 1.6314387 -2.155437e+38
2.5660207 0.04525616 1.6314387 -2.1687291e+38
2.5660105 0.040730454 1.6314387 -2.1821248e+38
2.566 0.036204755 1.6314387 -2.2087098e+38
2.5819914 0.032358557 1.6340749 -2.2088658e+38
2.5819809 0.027802378 1.6340749 -2.2091254e+38
2.5819705 0.023246206 1.6340749 -2.2090215e+38
2.58196 0.01869002 1.6340749 -2.1957812e+38
2.5819495 0.014133848 1.6340749 -2.1956771e+38
2.5989404 0.010137737 1.6368759 -2.1956775e+38
2.5989299 0.0055491775 1.6368759 -2.2090739e+38
2.5989194 0.00096061826 1.6368759 -2.2224702e+38
2.5989089 -0.003627941 1.6368759 -2.2357625e+38
2.5988984 -0.0082165003 1.6368759 -2.2623476e+38
2.6158886 -0.012406893 1.6396769 -2.2624e+38
2.6158779 -0.017027833 1.6396769 -2.2758484e+38
2.6328683 -0.021315366 1.6424779 -2.3157255e+38
2.6328576 -0.025968686 1.6424779 -2.3556552e+38
2.6328468 -0.030622005 1.6424779 -2.3952735e+38
2.6498368 -0.035039067 1.6452788 -2.4478716e+38
2.649826 -0.039724767 1.6452788 -2.1014416e+38
2.6498153 -0.044410471 1.6452788 -1.7678964e+38
2.6498046 -0.049096175 1.6452788 -3.0779208e+38
2.6327934 -0.053888615 1.6424779 nan
2.6327829 -0.058541939 1.6424779 nan
2.6686058 0.30033025 1.6435245 nan
2.6335828 0.29045716 1.6378245 nan
2.6335723 0.28580382 1.6378245 nan
2.6165559 0.27871236 1.6350559 nan
2.6165454 0.27409142 1.6350559 nan
2.6165347 0.26947048 1.6350559 -3.0902239e+38
2.599519 0.26250851 1.6322874 -2.4465703e+38
2.5995085 0.25792 1.6322874 -1.8092173e+38
2.599498 0.25333142 1.6322874 -2.0632259e+38
