# .PCD v0.7 - Point Cloud Data file format
VERSION 0.7
FIELDS x y z rgb
SIZE 4 4 4 4
TYPE F F F F
COUNT 1 1 1 1
WIDTH 1259
HEIGHT 1
VIEWPOINT 0 0 0 1 0 0 0
POINTS 1259
DATA ascii
6.9874105 -3.2650957 2.2372446 nan
6.9824071 -3.2704933 2.2372446 -3.2632829e+38
7.0040102 -3.3104398 2.2483425 nan
6.9723997 -3.2812881 2.2372446 nan
6.9673958 -3.2866859 2.2372446 nan
6.9623928 -3.2920833 2.2372446 nan
6.931005 -3.2626915 2.2261465 nan
6.9260569 -3.268029 2.2261465 nan
6.9211092 -3.2733665 2.2261465 nan
6.942378 -3.3136735 2.2372446 nan
6.9373741 -3.3190711 2.2372446 nan
6.9062653 -3.2893789 2.2261465 nan
6.9013176 -3.2947164 2.2261465 nan
6.8963695 -3.3000538 2.2261465 nan
6.8914213 -3.3053913 2.2261465 nan
6.8864737 -3.3107288 2.2261465 nan
6.8815255 -3.3160663 2.2261465 nan
6.8765774 -3.3214035 2.2261465 nan
6.8716297 -3.3267412 2.2261465 nan
6.8666816 -3.3320785 2.2261465 nan
6.8617334 -3.3374162 2.2261465 nan
6.8567858 -3.3427534 2.2261465 nan
6.8518381 -3.3480909 2.2261465 nan
6.84689 -3.3534284 2.2261465 nan
6.8419418 -3.3587658 2.2261465 nan
6.8369942 -3.3641033 2.2261465 nan
6.8073635 -3.3342872 2.2153065 nan
6.8270979 -3.3747783 2.2261465 nan
6.8221502 -3.3801157 2.2261465 nan
6.9705887 -3.2199919 2.2188683 nan
6.9924145 -3.2596982 2.2298846 -3.3701915e+38
6.9874105 -3.2650957 2.2298846 -3.249674e+38
6.9824071 -3.2704933 2.2298846 -3.1169608e+38
6.9774036 -3.2758908 2.2298846 nan
6.9723997 -3.2812881 2.2298846 nan
6.9673958 -3.2866859 2.2298846 nan
6.9623928 -3.2920833 2.2298846 nan
6.931005 -3.2626915 2.2188683 nan
6.9260569 -3.268029 2.2188683 nan
6.9211092 -3.2733665 2.2188683 nan
6.942378 -3.3136735 2.2298846 nan
6.9112129 -3.2840414 2.2188683 nan
6.9062653 -3.2893789 2.2188683 nan
6.9013176 -3.2947164 2.2188683 nan
6.8963695 -3.3000538 2.2188683 nan
6.8914213 -3.3053913 2.2188683 nan
6.8864737 -3.3107288 2.2188683 nan
6.8815255 -3.3160663 2.2188683 nan
6.8765774 -3.3214035 2.2188683 nan
6.8716297 -3.3267412 2.2188683 nan
6.8666816 -3.3320785 2.2188683 nan
6.8617334 -3.3374162 2.2188683 nan
6.8567858 -3.3427534 2.2188683 nan
6.8518381 -3.3480909 2.2188683 nan
6.84689 -3.3534284 2.2188683 nan
6.8419418 -3.3587658 2.2188683 nan
6.8369942 -3.3641033 2.2188683 nan
6.8073635 -3.3342872 2.2081084 nan
6.8024702 -3.3395662 2.2081084 nan
6.7975769 -3.3448448 2.2081084 nan
7.0024214 -3.2489033 2.2225246 -3.3301082e+38
6.9974179 -3.2543006 2.2225246 -3.0363769e+38
6.9924145 -3.2596982 2.2225246 -2.7441005e+38
6.9874105 -3.2650957 2.2225246 -2.8626388e+38
6.9824071 -3.2704933 2.2225246 -2.9703834e+38
6.9774036 -3.2758908 2.2225246 nan
6.9723997 -3.2812881 2.2225246 nan
6.9673958 -3.2866859 2.2225246 nan
6.9623928 -3.2920833 2.2225246 nan
6.931005 -3.2626915 2.2115903 nan
6.9523849 -3.3028784 2.2225246 -3.3963617e+38
6.9473815 -3.3082759 2.2225246 -3.3296902e+38
6.942378 -3.3136735 2.2225246 -3.2632298e+38
6.9112129 -3.2840414 2.2115903 -3.3160884e+38
6.9062653 -3.2893789 2.2115903 -3.3700374e+38
6.9013176 -3.2947164 2.2115903 nan
6.8963695 -3.3000538 2.2115903 nan
6.8914213 -3.3053913 2.2115903 nan
6.8864737 -3.3107288 2.2115903 nan
6.8815255 -3.3160663 2.2115903 nan
6.8765774 -3.3214035 2.2115903 nan
6.8716297 -3.3267412 2.2115903 nan
6.8666816 -3.3320785 2.2115903 -3.3300575e+38
6.8617334 -3.3374162 2.2115903 -3.3167149e+38
6.8567858 -3.3427534 2.2115903 -3.303735e+38
6.8518381 -3.3480909 2.2115903 -3.3971973e+38
6.84689 -3.3534284 2.2115903 nan
6.8419418 -3.3587658 2.2115903 nan
6.8369942 -3.3641033 2.2115903 nan
6.8073635 -3.3342872 2.2009103 nan
6.8024702 -3.3395662 2.2009103 nan
6.7975769 -3.3448448 2.2009103 nan
6.7926831 -3.3501236 2.2009103 nan
6.7877893 -3.3554025 2.2009103 nan
7.0024214 -3.2489033 2.2151647 -3.1425574e+38
6.9705887 -3.2199919 2.2043121 -2.9962865e+38
6.9924145 -3.2596982 2.2151647 -2.8502274e+38
6.9874105 -3.2650957 2.2151647 -3.1025213e+38
6.9824071 -3.2704933 2.2151647 -3.3687379e+38
6.9774036 -3.2758908 2.2151647 nan
6.9723997 -3.2812881 2.2151647 nan
6.9673958 -3.2866859 2.2151647 nan
6.9623928 -3.2920833 2.2151647 nan
6.931005 -3.2626915 2.2043121 -3.3823421e+38
6.9003415 -3.2339902 2.1937122 -3.2626572e+38
6.9736543 -3.3431854 2.226017 -3.1695048e+38
6.942378 -3.3136735 2.2151647 -3.0895432e+38
6.9112129 -3.2840414 2.2043121 -3.209485e+38
6.9062653 -3.2893789 2.2043121 -3.3430332e+38
6.9013176 -3.2947164 2.2043121 -3.3695159e+38
6.8963695 -3.3000538 2.2043121 nan
6.8914213 -3.3053913 2.2043121 -3.3691528e+38
6.8864737 -3.3107288 2.2043121 -3.3296896e+38
6.8815255 -3.3160663 2.2043121 -3.3555973e+38
6.8765774 -3.3214035 2.2043121 -3.3821827e+38
6.8716297 -3.3267412 2.2043121 -3.2894491e+38
6.8666816 -3.3320785 2.2043121 -3.1838388e+38
6.8617334 -3.3374162 2.2043121 -3.1700802e+38
6.8567858 -3.3427534 2.2043121 -3.156582e+38
6.8773308 -3.3838413 2.2151647 -3.2765778e+38
6.84689 -3.3534284 2.2043121 nan
6.8419418 -3.3587658 2.2043121 nan
6.8369942 -3.3641033 2.2043121 nan
6.8073635 -3.3342872 2.1937122 nan
6.8024702 -3.3395662 2.1937122 nan
6.7975769 -3.3448448 2.1937122 nan
6.7926831 -3.3501236 2.1937122 nan
6.7877893 -3.3554025 2.1937122 nan
6.9755363 -3.2146544 2.1970341 -2.9558391e+38
6.9705887 -3.2199919 2.1970341 -2.9559908e+38
6.9924145 -3.2596982 2.2078047 -2.95615e+38
6.9874105 -3.2650957 2.2078047 -3.3550777e+38
6.9824071 -3.2704933 2.2078047 nan
6.9774036 -3.2758908 2.2078047 nan
6.9723997 -3.2812881 2.2078047 nan
6.9409008 -3.2520165 2.1970341 -3.3956327e+38
6.9623928 -3.2920833 2.2078047 -3.2092816e+38
6.931005 -3.2626915 2.1970341 -3.1690419e+38
6.9523849 -3.3028784 2.2078047 -3.1159752e+38
6.9473815 -3.3082759 2.2078047 -3.022668e+38
6.942378 -3.3136735 2.2078047 -2.9163813e+38
6.9373741 -3.3190711 2.2078047 -3.1157653e+38
6.9062653 -3.2893789 2.1970341 -3.3023775e+38
6.9013176 -3.2947164 2.1970341 -3.2889824e+38
6.8963695 -3.3000538 2.1970341 -3.2757927e+38
6.8914213 -3.3053913 2.1970341 -3.235136e+38
6.8864737 -3.3107288 2.1970341 -3.1826421e+38
6.8815255 -3.3160663 2.1970341 -3.2086559e+38
6.8765774 -3.3214035 2.1970341 -3.2223123e+38
6.8716297 -3.3267412 2.1970341 -3.1291111e+38
6.8923416 -3.3676486 2.2078047 -3.0366373e+38
6.8873382 -3.3730462 2.2078047 -3.0231384e+38
6.8823347 -3.3784437 2.2078047 -3.0099508e+38
6.8518381 -3.3480909 2.1970341 -3.1693032e+38
6.84689 -3.3534284 2.1970341 -3.3293295e+38
6.8419418 -3.3587658 2.1970341 -3.3027446e+38
6.8369942 -3.3641033 2.1970341 -3.2634393e+38
6.8073635 -3.3342872 2.1865141 -3.1974458e+38
6.8024702 -3.3395662 2.1865141 -3.11837e+38
6.7975769 -3.3448448 2.1865141 nan
6.7926831 -3.3501236 2.1865141 nan
6.7877893 -3.3554025 2.1865141 nan
7.0024214 -3.2489033 2.2004445 -2.6762828e+38
6.9705887 -3.2199919 2.1897559 -2.8358374e+38
6.9924145 -3.2596982 2.2004445 -2.9955592e+38
6.9874105 -3.2650957 2.2004445 nan
6.9824071 -3.2704933 2.2004445 nan
6.9774036 -3.2758908 2.2004445 nan
6.9723997 -3.2812881 2.2004445 nan
6.9409008 -3.2520165 2.1897559 -3.3290146e+38
6.9623928 -3.2920833 2.2004445 -3.2353983e+38
6.9573889 -3.2974808 2.2004445 -3.1822817e+38
6.9523849 -3.3028784 2.2004445 -3.1158718e+38
6.9473815 -3.3082759 2.2004445 -3.0624424e+38
6.942378 -3.3136735 2.2004445 -2.9958249e+38
6.9373741 -3.3190711 2.2004445 -3.1023702e+38
6.9062653 -3.2893789 2.1897559 -3.2092277e+38
6.9013176 -3.2947164 2.1897559 -3.2091236e+38
6.8963695 -3.3000538 2.1897559 -3.1959849e+38
6.8914213 -3.3053913 2.1897559 -3.1691383e+38
6.8864737 -3.3107288 2.1897559 -3.1430754e+38
6.8815255 -3.3160663 2.1897559 -3.1557987e+38
6.8765774 -3.3214035 2.1897559 -3.1691953e+38
6.8716297 -3.3267412 2.1897559 -3.0892862e+38
6.8923416 -3.3676486 2.2004445 -3.0230856e+38
6.8617334 -3.3374162 2.1897559 -2.9962944e+38
6.8823347 -3.3784437 2.2004445 -2.956677e+38
6.8518381 -3.3480909 2.1897559 -3.0365343e+38
6.84689 -3.3534284 2.1897559 -3.1165476e+38
6.8419418 -3.3587658 2.1897559 -3.1829052e+38
6.8369942 -3.3641033 2.1897559 -3.2494189e+38
6.8073635 -3.3342872 2.179316 -3.1169638e+38
6.8024702 -3.3395662 2.179316 -2.9979063e+38
6.7975769 -3.3448448 2.179316 -3.3708708e+38
6.7687473 -3.3156352 2.1691246 nan
6.9755363 -3.2146544 2.182478 -2.3967295e+38
6.9705887 -3.2199919 2.182478 -2.7154317e+38
6.9924145 -3.2596982 2.1930845 -3.0363219e+38
6.9874105 -3.2650957 2.1930845 nan
6.9824071 -3.2704933 2.1930845 nan
6.9774036 -3.2758908 2.1930845 nan
6.9723997 -3.2812881 2.1930845 -3.2892935e+38
6.9673958 -3.2866859 2.1930845 -3.2751149e+38
6.9623928 -3.2920833 2.1930845 -3.2617721e+38
6.9573889 -3.2974808 2.1930845 -3.195416e+38
6.9523849 -3.3028784 2.1930845 -3.1155584e+38
6.9473815 -3.3082759 2.1930845 -3.1020587e+38
6.942378 -3.3136735 2.1930845 -3.0753694e+38
6.9112129 -3.2840414 2.182478 -3.1020053e+38
6.9062653 -3.2893789 2.182478 -3.1156087e+38
6.9013176 -3.2947164 2.182478 -3.1156604e+38
6.8963695 -3.3000538 2.182478 -3.1157114e+38
6.8914213 -3.3053913 2.182478 -3.1023661e+38
6.8864737 -3.3107288 2.182478 -3.0891791e+38
6.8815255 -3.3160663 2.182478 -3.1023171e+38
6.8765774 -3.3214035 2.182478 -3.1022653e+38
6.8716297 -3.3267412 2.182478 -3.0622851e+38
6.8666816 -3.3320785 2.182478 -3.0091165e+38
6.8617334 -3.3374162 2.182478 -2.9556886e+38
6.8567858 -3.3427534 2.182478 -2.9030907e+38
6.8518381 -3.3480909 2.182478 -2.9036099e+38
6.84689 -3.3534284 2.182478 -2.8901604e+38
6.8419418 -3.3587658 2.182478 -3.0628029e+38
6.8369942 -3.3641033 2.182478 -3.2226753e+38
6.8073635 -3.3342872 2.1721179 -3.0497215e+38
6.8024702 -3.3395662 2.1721179 -2.8642549e+38
6.7975769 -3.3448448 2.1721179 -3.1970834e+38
6.9705887 -3.2199919 2.1751997 -2.9289424e+38
6.9924145 -3.2596982 2.1857245 -3.3683207e+38
7.0141287 -3.2995245 2.1962492 nan
7.0090694 -3.3049822 2.1962492 nan
6.9774036 -3.2758908 2.1857245 nan
6.9723997 -3.2812881 2.1857245 -3.3681612e+38
6.9673958 -3.2866859 2.1857245 -3.1949941e+38
6.9623928 -3.2920833 2.1857245 -3.0221447e+38
6.9573889 -3.2974808 2.1857245 -3.035491e+38
6.9523849 -3.3028784 2.1857245 -3.0620761e+38
6.9473815 -3.3082759 2.1857245 -3.0485768e+38
6.942378 -3.3136735 2.1857245 -3.0351279e+38
6.9112129 -3.2840414 2.1751997 -3.0352829e+38
6.9062653 -3.2893789 2.1751997 -3.0488342e+38
6.9013176 -3.2947164 2.1751997 -3.0487816e+38
6.8963695 -3.3000538 2.1751997 -3.0621262e+38
6.8914213 -3.3053913 2.1751997 -3.0488342e+38
6.8864737 -3.3107288 2.1751997 -3.0355425e+38
6.8815255 -3.3160663 2.1751997 -3.0221989e+38
6.8765774 -3.3214035 2.1751997 -3.0088549e+38
6.8716297 -3.3267412 2.1751997 -2.9688223e+38
6.8666816 -3.3320785 2.1751997 -2.9155497e+38
6.8617334 -3.3374162 2.1751997 -2.8891213e+38
6.8567858 -3.3427534 2.1751997 -2.8494524e+38
6.8518381 -3.3480909 2.1751997 -2.8896927e+38
6.84689 -3.3534284 2.1751997 -2.9296188e+38
6.8419418 -3.3587658 2.1751997 -3.0362658e+38
6.8369942 -3.3641033 2.1751997 -3.156626e+38
6.8073635 -3.3342872 2.1649199 -3.0363753e+38
6.8024702 -3.3395662 2.1649199 -2.9166955e+38
6.7975769 -3.3448448 2.1649199 -3.0500882e+38
6.9705887 -3.2199919 2.1679215 -3.1295713e+38
6.9924145 -3.2596982 2.1783645 nan
7.0141287 -3.2995245 2.1888075 nan
7.0090694 -3.3049822 2.1888075 nan
7.0040102 -3.3104398 2.1888075 nan
6.9723997 -3.2812881 2.1783645 nan
6.9673958 -3.2866859 2.1783645 -3.1145165e+38
6.9623928 -3.2920833 2.1783645 -2.7826253e+38
6.9573889 -3.2974808 2.1783645 -2.8889122e+38
6.9523849 -3.3028784 2.1783645 -2.9952505e+38
6.9473815 -3.3082759 2.1783645 -2.9949909e+38
6.9161611 -3.2787039 2.1679215 -2.981802e+38
6.9112129 -3.2840414 2.1679215 -2.9818016e+38
6.9062653 -3.2893789 2.1679215 -2.9686645e+38
6.9013176 -3.2947164 2.1679215 -2.9818523e+38
6.8963695 -3.3000538 2.1679215 -2.995301e+38
6.8914213 -3.3053913 2.1679215 -2.9820091e+38
6.8864737 -3.3107288 2.1679215 -2.9687168e+38
6.8815255 -3.3160663 2.1679215 -2.9420284e+38
6.8765774 -3.3214035 2.1679215 -2.9153915e+38
6.8716297 -3.3267412 2.1679215 -2.8753587e+38
6.8666816 -3.3320785 2.1679215 -2.8223971e+38
6.8617334 -3.3374162 2.1679215 -2.8091048e+38
6.8567858 -3.3427534 2.1679215 -2.7960212e+38
6.8518381 -3.3480909 2.1679215 -2.8759836e+38
6.84689 -3.3534284 2.1679215 -2.9559438e+38
6.8419418 -3.3587658 2.1679215 -3.0226116e+38
6.8369942 -3.3641033 2.1679215 -3.0758864e+38
6.832046 -3.3694408 2.1679215 -3.0223559e+38
6.8024702 -3.3395662 2.1577218 -2.9561026e+38
6.7975769 -3.3448448 2.1577218 -2.9027783e+38
6.9924145 -3.2596982 2.1710045 nan
7.0141287 -3.2995245 2.1813655 nan
7.0090694 -3.3049822 2.1813655 nan
7.0040102 -3.3104398 2.1813655 nan
6.998951 -3.3158975 2.1813655 nan
6.9673958 -3.2866859 2.1710045 -3.1014869e+38
6.9623928 -3.2920833 2.1710045 -2.7561979e+38
6.9573889 -3.2974808 2.1710045 -2.8489831e+38
6.9523849 -3.3028784 2.1710045 -2.955269e+38
6.9473815 -3.3082759 2.1710045 -2.9418203e+38
6.9161611 -3.2787039 2.1606436 -2.928528e+38
6.9112129 -3.2840414 2.1606436 -2.92858e+38
6.9062653 -3.2893789 2.1606436 -2.9286313e+38
6.9013176 -3.2947164 2.1606436 -2.9285787e+38
6.9223633 -3.3352635 2.1710045 -2.9418718e+38
6.8914213 -3.3053913 2.1606436 -2.9286321e+38
6.8864737 -3.3107288 2.1606436 -2.9153392e+38
6.8815255 -3.3160663 2.1606436 -2.8620137e+38
6.8765774 -3.3214035 2.1606436 -2.8220322e+38
6.8716297 -3.3267412 2.1606436 -3.155273e+38
6.8666816 -3.3320785 2.1606436 nan
6.8617334 -3.3374162 2.1606436 -3.2080774e+38
6.8567858 -3.3427534 2.1606436 -2.9287339e+38
6.8518381 -3.3480909 2.1606436 -2.955684e+38
6.84689 -3.3534284 2.1606436 -2.9955093e+38
6.8419418 -3.3587658 2.1606436 -3.0089575e+38
6.8369942 -3.3641033 2.1606436 -3.0354912e+38
6.832046 -3.3694408 2.1606436 -2.9823748e+38
6.8270979 -3.3747783 2.1606436 -2.9426004e+38
6.9924145 -3.2596982 2.1636446 nan
7.0141287 -3.2995245 2.1739235 nan
7.0090694 -3.3049822 2.1739235 nan
7.0040102 -3.3104398 2.1739235 nan
6.998951 -3.3158975 2.1739235 nan
6.9673958 -3.2866859 2.1636446 -3.1007028e+38
6.9623928 -3.2920833 2.1636446 -2.7156946e+38
6.9573889 -3.2974808 2.1636446 -2.8221371e+38
6.9523849 -3.3028784 2.1636446 -2.9151826e+38
6.9473815 -3.3082759 2.1636446 -2.9017344e+38
6.942378 -3.3136735 2.1636446 -2.8752537e+38
6.9373741 -3.3190711 2.1636446 -2.8885461e+38
6.9062653 -3.2893789 2.1533656 -2.8885985e+38
6.9273672 -3.3298659 2.1636446 -2.888495e+38
6.9223633 -3.3352635 2.1636446 -2.875307e+38
6.8914213 -3.3053913 2.1533656 -2.8620151e+38
6.8864737 -3.3107288 2.1533656 -2.8486707e+38
6.8815255 -3.3160663 2.1533656 -2.7952937e+38
6.8765774 -3.3214035 2.1533656 -2.7300277e+38
6.8716297 -3.3267412 2.1533656 nan
6.8666816 -3.3320785 2.1533656 nan
6.8617334 -3.3374162 2.1533656 nan
6.8567858 -3.3427534 2.1533656 -3.0489362e+38
6.8518381 -3.3480909 2.1533656 -3.0356966e+38
6.84689 -3.3534284 2.1533656 -3.0221452e+38
6.8419418 -3.3587658 2.1533656 -3.0087496e+38
6.8369942 -3.3641033 2.1533656 -2.9822176e+38
6.832046 -3.3694408 2.1533656 -2.9555298e+38
6.8024702 -3.3395662 2.1433256 -2.9290992e+38
6.7975769 -3.3448448 2.1433256 -3.0754684e+38
6.9924145 -3.2596982 2.1562846 nan
7.0420895 -3.3355546 2.1771531 nan
7.0090694 -3.3049822 2.1664817 nan
7.0040102 -3.3104398 2.1664817 nan
6.998951 -3.3158975 2.1664817 nan
6.9938917 -3.3213549 2.1664817 -3.1548532e+38
6.9888325 -3.3268125 2.1664817 -2.8483022e+38
6.9573889 -3.2974808 2.1562846 -2.8752005e+38
6.9523849 -3.3028784 2.1562846 -2.9150252e+38
6.9473815 -3.3082759 2.1562846 -2.9417654e+38
6.942378 -3.3136735 2.1562846 -2.9814866e+38
6.9373741 -3.3190711 2.1562846 -2.9149735e+38
6.9323707 -3.3244686 2.1562846 -2.8486174e+38
6.9273672 -3.3298659 2.1562846 -2.8352746e+38
6.9223633 -3.3352635 2.1562846 -2.8354306e+38
6.8914213 -3.3053913 2.1460874 -2.7952943e+38
6.8864737 -3.3107288 2.1460874 -2.7687619e+38
6.8815255 -3.3160663 2.1460874 -2.9956133e+38
6.8765774 -3.3214035 2.1460874 -3.2219492e+38
6.8716297 -3.3267412 2.1460874 nan
6.8666816 -3.3320785 2.1460874 nan
6.8617334 -3.3374162 2.1460874 nan
6.8567858 -3.3427534 2.1460874 nan
6.8518381 -3.3480909 2.1460874 -3.1283264e+38
6.84689 -3.3534284 2.1460874 -2.8358451e+38
6.8419418 -3.3587658 2.1460874 -2.8889629e+38
6.8369942 -3.3641033 2.1460874 -2.9423402e+38
6.832046 -3.3694408 2.1460874 -2.8890155e+38
6.8024702 -3.3395662 2.1361275 -2.8358964e+38
7.0191879 -3.2940669 2.1590397 nan
7.0420895 -3.3355546 2.1696255 nan
7.0090694 -3.3049822 2.1590397 nan
7.0040102 -3.3104398 2.1590397 nan
6.998951 -3.3158975 2.1590397 nan
6.9938917 -3.3213549 2.1590397 -3.2210539e+38
6.9888325 -3.3268125 2.1590397 -2.9816915e+38
6.9573889 -3.2974808 2.1489246 -2.9419207e+38
6.9523849 -3.3028784 2.1489246 -2.9021487e+38
6.9473815 -3.3082759 2.1489246 -2.9952998e+38
6.942378 -3.3136735 2.1489246 -3.0882419e+38
6.9373741 -3.3190711 2.1489246 -2.9411962e+38
6.9323707 -3.3244686 2.1489246 -2.7951361e+38
6.9273672 -3.3298659 2.1489246 -2.7951353e+38
6.9223633 -3.3352635 2.1489246 -2.781739e+38
6.8914213 -3.3053913 2.1388092 -2.7415504e+38
6.8864737 -3.3107288 2.1388092 -2.6894749e+38
6.8815255 -3.3160663 2.1388092 -3.2096426e+38
6.8765774 -3.3214035 2.1388092 nan
6.8716297 -3.3267412 2.1388092 nan
6.8666816 -3.3320785 2.1388092 nan
6.8617334 -3.3374162 2.1388092 nan
6.8567858 -3.3427534 2.1388092 nan
6.8518381 -3.3480909 2.1388092 -3.2336781e+38
6.84689 -3.3534284 2.1388092 -2.6489222e+38
6.8419418 -3.3587658 2.1388092 -2.7821055e+38
6.8369942 -3.3641033 2.1388092 -2.9019948e+38
6.832046 -3.3694408 2.1388092 -2.8221884e+38
7.0191879 -3.2940669 2.151598 nan
7.0420895 -3.3355546 2.1620979 nan
7.036972 -3.3410752 2.1620979 nan
7.0040102 -3.3104398 2.151598 nan
6.998951 -3.3158975 2.151598 -3.3947405e+38
7.0216188 -3.3576365 2.1620979 -3.2879816e+38
6.9888325 -3.3268125 2.151598 -3.1945746e+38
6.9837732 -3.3322701 2.151598 -3.2083367e+38
6.9787135 -3.3377278 2.151598 -3.2348198e+38
6.9473815 -3.3082759 2.1415646 -3.3817121e+38
6.942378 -3.3136735 2.1415646 nan
6.9373741 -3.3190711 2.1415646 -3.3014394e+38
6.9323707 -3.3244686 2.1415646 -3.087358e+38
6.9273672 -3.3298659 2.1415646 -2.8879705e+38
6.9223633 -3.3352635 2.1415646 -2.6884299e+38
6.8914213 -3.3053913 2.1315312 -2.808631e+38
6.8864737 -3.3107288 2.1315312 -2.9151836e+38
6.8815255 -3.3160663 2.1315312 -3.328601e+38
6.8765774 -3.3214035 2.1315312 nan
6.8716297 -3.3267412 2.1315312 nan
6.8666816 -3.3320785 2.1315312 nan
6.8617334 -3.3374162 2.1315312 nan
6.8567858 -3.3427534 2.1315312 nan
6.8518381 -3.3480909 2.1315312 -3.1941647e+38
6.84689 -3.3534284 2.1315312 -2.5814224e+38
6.8419418 -3.3587658 2.1315312 -2.7152804e+38
6.8369942 -3.3641033 2.1315312 -2.8486687e+38
6.832046 -3.3694408 2.1315312 -2.6357827e+38
6.8270979 -3.3747783 2.1315312 -2.423006e+38
7.0242472 -3.2886095 2.144156 -2.9557884e+38
7.0191879 -3.2940669 2.144156 -3.1021071e+38
7.0420895 -3.3355546 2.1545703 -3.1145684e+38
7.036972 -3.3410752 2.1545703 -3.1286396e+38
7.0318542 -3.3465955 2.1545703 -3.2347182e+38
7.0267367 -3.3521161 2.1545703 -3.3281252e+38
7.0216188 -3.3576365 2.1545703 -3.3680515e+38
6.9888325 -3.3268125 2.144156 -3.3948464e+38
6.9573889 -3.2974808 2.1342046 nan
6.9523849 -3.3028784 2.1342046 nan
6.9473815 -3.3082759 2.1342046 nan
6.942378 -3.3136735 2.1342046 nan
6.9373741 -3.3190711 2.1342046 nan
6.9323707 -3.3244686 2.1342046 -3.3811892e+38
6.9273672 -3.3298659 2.1342046 -2.9941528e+38
6.9223633 -3.3352635 2.1342046 -2.595802e+38
6.9173598 -3.340661 2.1342046 -2.8760844e+38
6.9123564 -3.3460586 2.1342046 -3.1425054e+38
6.9073524 -3.3514562 2.1342046 nan
6.8765774 -3.3214035 2.124253 nan
6.8716297 -3.3267412 2.124253 nan
6.8666816 -3.3320785 2.124253 nan
6.8617334 -3.3374162 2.124253 nan
6.8567858 -3.3427534 2.124253 nan
6.8518381 -3.3480909 2.124253 -3.1531947e+38
6.84689 -3.3534284 2.124253 -2.5152186e+38
6.8419418 -3.3587658 2.124253 -2.6488697e+38
6.8369942 -3.3641033 2.124253 -2.7818416e+38
6.857316 -3.4054313 2.1342046 -2.4491685e+38
6.8270979 -3.3747783 2.124253 -2.1038335e+38
7.0242472 -3.2886095 2.136714 nan
7.0191879 -3.2940669 2.136714 nan
7.0420895 -3.3355546 2.1470428 -3.3670094e+38
7.036972 -3.3410752 2.1470428 -3.3005518e+38
7.0318542 -3.3465955 2.1470428 -3.3012824e+38
7.0267367 -3.3521161 2.1470428 -3.3017501e+38
6.9938917 -3.3213549 2.136714 -3.2617697e+38
6.9888325 -3.3268125 2.136714 -3.2224153e+38
6.9573889 -3.2974808 2.1268444 nan
6.9523849 -3.3028784 2.1268444 nan
6.9473815 -3.3082759 2.1268444 nan
6.942378 -3.3136735 2.1268444 nan
6.9373741 -3.3190711 2.1268444 nan
6.9323707 -3.3244686 2.1268444 nan
6.9273672 -3.3298659 2.1268444 -3.3143613e+38
6.9223633 -3.3352635 2.1268444 -2.9808652e+38
6.9173598 -3.340661 2.1268444 -3.2757408e+38
6.8864737 -3.3107288 2.1169751 nan
6.8815255 -3.3160663 2.1169751 nan
6.8765774 -3.3214035 2.1169751 nan
6.8716297 -3.3267412 2.1169751 nan
6.8666816 -3.3320785 2.1169751 nan
6.8617334 -3.3374162 2.1169751 nan
6.8567858 -3.3427534 2.1169751 nan
6.8518381 -3.3480909 2.1169751 -3.1140938e+38
6.84689 -3.3534284 2.1169751 -2.4881128e+38
6.8419418 -3.3587658 2.1169751 -2.6219203e+38
6.8369942 -3.3641033 2.1169751 -2.7684954e+38
6.857316 -3.4054313 2.1268444 -2.5819325e+38
6.8523126 -3.4108288 2.1268444 -2.3823465e+38
7.0242472 -3.2886095 2.1292722 nan
7.0191879 -3.2940669 2.1292722 nan
7.0420895 -3.3355546 2.1395149 nan
7.036972 -3.3410752 2.1395149 nan
7.0318542 -3.3465955 2.1395149 -3.368157e+38
7.0267367 -3.3521161 2.1395149 -3.2614567e+38
6.9938917 -3.3213549 2.1292722 -3.1548081e+38
6.9888325 -3.3268125 2.1292722 -3.0364797e+38
6.9573889 -3.2974808 2.1194844 nan
6.9523849 -3.3028784 2.1194844 nan
6.9473815 -3.3082759 2.1194844 nan
6.942378 -3.3136735 2.1194844 nan
6.9373741 -3.3190711 2.1194844 nan
6.9323707 -3.3244686 2.1194844 nan
6.9273672 -3.3298659 2.1194844 nan
6.9223633 -3.3352635 2.1194844 -3.3689938e+38
6.9173598 -3.340661 2.1194844 nan
6.9123564 -3.3460586 2.1194844 nan
6.8815255 -3.3160663 2.1096969 nan
6.8765774 -3.3214035 2.1096969 nan
6.8716297 -3.3267412 2.1096969 nan
6.8666816 -3.3320785 2.1096969 nan
6.8617334 -3.3374162 2.1096969 nan
6.8567858 -3.3427534 2.1096969 nan
6.8518381 -3.3480909 2.1096969 -3.0733349e+38
6.84689 -3.3534284 2.1096969 -2.4487553e+38
6.8419418 -3.3587658 2.1096969 -2.6088359e+38
6.8369942 -3.3641033 2.1096969 -2.7549954e+38
6.832046 -3.3694408 2.1096969 -2.714492e+38
6.8270979 -3.3747783 2.1096969 -2.6628897e+38
7.0523243 -3.3245137 2.1319873 nan
7.0191879 -3.2940669 2.1218302 nan
7.0420895 -3.3355546 2.1319873 nan
7.036972 -3.3410752 2.1319873 nan
7.0318542 -3.3465955 2.1319873 nan
7.0267367 -3.3521161 2.1319873 nan
7.0216188 -3.3576365 2.1319873 nan
6.9888325 -3.3268125 2.1218302 nan
6.9837732 -3.3322701 2.1218302 nan
6.9787135 -3.3377278 2.1218302 nan
6.9473815 -3.3082759 2.1121244 nan
6.942378 -3.3136735 2.1121244 nan
6.9373741 -3.3190711 2.1121244 nan
6.9323707 -3.3244686 2.1121244 nan
6.9273672 -3.3298659 2.1121244 nan
6.9223633 -3.3352635 2.1121244 nan
6.9173598 -3.340661 2.1121244 nan
6.9123564 -3.3460586 2.1121244 nan
6.9073524 -3.3514562 2.1121244 nan
6.8765774 -3.3214035 2.1024189 nan
6.8716297 -3.3267412 2.1024189 nan
6.8666816 -3.3320785 2.1024189 nan
6.8617334 -3.3374162 2.1024189 nan
6.8567858 -3.3427534 2.1024189 -3.1548586e+38
6.8518381 -3.3480909 2.1024189 -2.8611263e+38
6.84689 -3.3534284 2.1024189 -2.5683863e+38
6.8419418 -3.3587658 2.1024189 -2.6219724e+38
6.8369942 -3.3641033 2.1024189 -2.6755015e+38
6.832046 -3.3694408 2.1024189 -2.6880113e+38
6.8270979 -3.3747783 2.1024189 -2.7012123e+38
7.0191879 -3.2940669 2.1143885 nan
7.0420895 -3.3355546 2.1244597 nan
7.036972 -3.3410752 2.1244597 nan
7.0318542 -3.3465955 2.1244597 nan
7.0267367 -3.3521161 2.1244597 nan
7.0216188 -3.3576365 2.1244597 nan
6.9888325 -3.3268125 2.1143885 nan
6.9837732 -3.3322701 2.1143885 nan
6.9787135 -3.3377278 2.1143885 nan
6.9473815 -3.3082759 2.1047645 nan
6.942378 -3.3136735 2.1047645 nan
6.9373741 -3.3190711 2.1047645 nan
6.9323707 -3.3244686 2.1047645 nan
6.9273672 -3.3298659 2.1047645 nan
6.9223633 -3.3352635 2.1047645 nan
6.9173598 -3.340661 2.1047645 nan
6.9123564 -3.3460586 2.1047645 nan
6.9073524 -3.3514562 2.1047645 nan
6.8765774 -3.3214035 2.0951407 nan
6.8716297 -3.3267412 2.0951407 nan
6.8666816 -3.3320785 2.0951407 nan
6.8617334 -3.3374162 2.0951407 -3.380988e+38
6.8567858 -3.3427534 2.0951407 -2.6223872e+38
6.8518381 -3.3480909 2.0951407 -2.6611154e+38
6.84689 -3.3534284 2.0951407 -2.687961e+38
6.8419418 -3.3587658 2.0951407 -2.6483452e+38
6.8369942 -3.3641033 2.0951407 -2.5950191e+38
6.857316 -3.4054313 2.1047645 -2.6740448e+38
7.0420895 -3.3355546 2.1169322 nan
7.036972 -3.3410752 2.1169322 nan
7.0318542 -3.3465955 2.1169322 nan
7.0267367 -3.3521161 2.1169322 nan
7.0216188 -3.3576365 2.1169322 nan
6.9888325 -3.3268125 2.1069465 nan
6.9837732 -3.3322701 2.1069465 nan
6.9787135 -3.3377278 2.1069465 nan
6.9473815 -3.3082759 2.0974045 nan
6.942378 -3.3136735 2.0974045 nan
6.9373741 -3.3190711 2.0974045 nan
6.9323707 -3.3244686 2.0974045 nan
6.9273672 -3.3298659 2.0974045 nan
6.9223633 -3.3352635 2.0974045 nan
6.9173598 -3.340661 2.0974045 nan
6.9123564 -3.3460586 2.0974045 nan
6.9073524 -3.3514562 2.0974045 nan
6.902349 -3.3568537 2.0974045 nan
6.8973455 -3.3622513 2.0974045 nan
6.8666816 -3.3320785 2.0878625 nan
6.8617334 -3.3374162 2.0878625 -3.3812485e+38
6.8567858 -3.3427534 2.0878625 -2.6351588e+38
6.8518381 -3.3480909 2.0878625 -2.5948061e+38
6.84689 -3.3534284 2.0878625 -2.5417421e+38
6.8419418 -3.3587658 2.0878625 -2.4885223e+38
6.8369942 -3.3641033 2.0878625 -2.422114e+38
6.832046 -3.3694408 2.0878625 -2.661532e+38
6.8523126 -3.4108288 2.0974045 -2.9023134e+38
7.0420895 -3.3355546 2.1094046 nan
7.036972 -3.3410752 2.1094046 nan
7.0318542 -3.3465955 2.1094046 nan
7.0267367 -3.3521161 2.1094046 nan
7.0216188 -3.3576365 2.1094046 nan
6.9888325 -3.3268125 2.0995045 nan
6.9837732 -3.3322701 2.0995045 nan
6.9787135 -3.3377278 2.0995045 nan
6.9473815 -3.3082759 2.0900445 nan
6.942378 -3.3136735 2.0900445 nan
6.9373741 -3.3190711 2.0900445 nan
6.9323707 -3.3244686 2.0900445 nan
6.9273672 -3.3298659 2.0900445 nan
6.9223633 -3.3352635 2.0900445 nan
6.9173598 -3.340661 2.0900445 nan
6.9123564 -3.3460586 2.0900445 nan
6.9073524 -3.3514562 2.0900445 nan
6.902349 -3.3568537 2.0900445 nan
6.8973455 -3.3622513 2.0900445 nan
6.8666816 -3.3320785 2.0805845 nan
6.8617334 -3.3374162 2.0805845 -3.3806706e+38
6.8567858 -3.3427534 2.0805845 -2.6484994e+38
6.8518381 -3.3480909 2.0805845 -2.5279287e+38
6.84689 -3.3534284 2.0805845 -2.3950055e+38
6.8419418 -3.3587658 2.0805845 -2.3284918e+38
6.8369942 -3.3641033 2.0805845 -2.2487412e+38
6.832046 -3.3694408 2.0805845 -2.6609087e+38
6.8523126 -3.4108288 2.0900445 -3.0634829e+38
7.0654945 -3.3779702 2.1119094 nan
7.0318542 -3.3465955 2.101877 nan
7.0267367 -3.3521161 2.101877 nan
7.0216188 -3.3576365 2.101877 nan
6.9888325 -3.3268125 2.0920627 nan
6.9837732 -3.3322701 2.0920627 nan
6.9787135 -3.3377278 2.0920627 nan
6.9736543 -3.3431854 2.0920627 nan
6.942378 -3.3136735 2.0826845 nan
6.9373741 -3.3190711 2.0826845 nan
6.9323707 -3.3244686 2.0826845 nan
6.9273672 -3.3298659 2.0826845 nan
6.9223633 -3.3352635 2.0826845 nan
6.9173598 -3.340661 2.0826845 nan
6.9123564 -3.3460586 2.0826845 nan
6.9073524 -3.3514562 2.0826845 nan
6.902349 -3.3568537 2.0826845 nan
6.8973455 -3.3622513 2.0826845 nan
6.8923416 -3.3676486 2.0826845 nan
6.8617334 -3.3374162 2.0733066 nan
6.8567858 -3.3427534 2.0733066 nan
6.8518381 -3.3480909 2.0733066 -3.0731193e+38
6.84689 -3.3534284 2.0733066 -2.7400314e+38
6.8419418 -3.3587658 2.0733066 -2.4074107e+38
6.8369942 -3.3641033 2.0733066 -2.0752645e+38
6.832046 -3.3694408 2.0733066 -2.8491293e+38
6.8270979 -3.3747783 2.0733066 nan
7.0654945 -3.3779702 2.1042941 nan
7.0318542 -3.3465955 2.0943494 nan
7.0267367 -3.3521161 2.0943494 nan
7.0216188 -3.3576365 2.0943494 nan
6.9888325 -3.3268125 2.0846207 nan
6.9837732 -3.3322701 2.0846207 nan
6.9787135 -3.3377278 2.0846207 nan
6.9736543 -3.3431854 2.0846207 nan
6.968595 -3.3486428 2.0846207 nan
6.9635358 -3.3541005 2.0846207 nan
6.9584761 -3.3595581 2.0846207 nan
6.9534168 -3.3650157 2.0846207 nan
6.9483576 -3.3704734 2.0846207 nan
6.9432983 -3.3759308 2.0846207 nan
6.9382391 -3.3813884 2.0846207 nan
6.9331799 -3.3868461 2.0846207 nan
6.902349 -3.3568537 2.0753245 nan
6.8973455 -3.3622513 2.0753245 nan
6.8923416 -3.3676486 2.0753245 nan
6.8873382 -3.3730462 2.0753245 nan
6.8567858 -3.3427534 2.0660284 nan
6.8518381 -3.3480909 2.0660284 nan
6.84689 -3.3534284 2.0660284 -3.0863075e+38
6.8419418 -3.3587658 2.0660284 -2.4858154e+38
6.8369942 -3.3641033 2.0660284 -1.8899567e+38
6.832046 -3.3694408 2.0660284 -3.0382946e+38
6.8270979 -3.3747783 2.0660284 nan
6.8221502 -3.3801157 2.0660284 nan
6.8172021 -3.3854532 2.0660284 nan
7.0318542 -3.3465955 2.0868216 nan
7.0267367 -3.3521161 2.0868216 nan
7.0216188 -3.3576365 2.0868216 nan
6.9888325 -3.3268125 2.077179 nan
6.9837732 -3.3322701 2.077179 nan
6.9787135 -3.3377278 2.077179 nan
6.9736543 -3.3431854 2.077179 nan
6.968595 -3.3486428 2.077179 nan
6.9635358 -3.3541005 2.077179 nan
6.9584761 -3.3595581 2.077179 nan
6.9534168 -3.3650157 2.077179 nan
6.9483576 -3.3704734 2.077179 nan
6.9432983 -3.3759308 2.077179 nan
6.9382391 -3.3813884 2.077179 nan
6.9331799 -3.3868461 2.077179 nan
6.9281206 -3.3923037 2.077179 nan
6.9230614 -3.3977613 2.077179 nan
6.8923416 -3.3676486 2.0679646 nan
6.8873382 -3.3730462 2.0679646 nan
6.8823347 -3.3784437 2.0679646 nan
6.8518381 -3.3480909 2.0587502 nan
6.84689 -3.3534284 2.0587502 nan
6.8419418 -3.3587658 2.0587502 -3.1932666e+38
6.8369942 -3.3641033 2.0587502 -2.778468e+38
6.832046 -3.3694408 2.0587502 nan
6.8270979 -3.3747783 2.0587502 nan
6.8221502 -3.3801157 2.0587502 nan
6.8172021 -3.3854532 2.0587502 nan
6.8122544 -3.3907905 2.0587502 nan
6.8073063 -3.3961282 2.0587502 nan
7.0267367 -3.3521161 2.0792942 nan
7.0216188 -3.3576365 2.0792942 nan
6.9888325 -3.3268125 2.069737 nan
6.9837732 -3.3322701 2.069737 nan
6.9787135 -3.3377278 2.069737 nan
6.9736543 -3.3431854 2.069737 nan
6.968595 -3.3486428 2.069737 nan
6.9635358 -3.3541005 2.069737 nan
6.9584761 -3.3595581 2.069737 nan
6.9534168 -3.3650157 2.069737 nan
6.9483576 -3.3704734 2.069737 nan
6.9432983 -3.3759308 2.069737 nan
6.9382391 -3.3813884 2.069737 nan
6.9331799 -3.3868461 2.069737 nan
6.9281206 -3.3923037 2.069737 nan
6.9230614 -3.3977613 2.069737 nan
6.8923416 -3.3676486 2.0606046 nan
6.8873382 -3.3730462 2.0606046 nan
6.8823347 -3.3784437 2.0606046 nan
6.8518381 -3.3480909 2.0514722 nan
6.84689 -3.3534284 2.0514722 nan
6.8419418 -3.3587658 2.0514722 nan
6.8369942 -3.3641033 2.0514722 nan
6.832046 -3.3694408 2.0514722 nan
6.8270979 -3.3747783 2.0514722 nan
6.8221502 -3.3801157 2.0514722 nan
6.8172021 -3.3854532 2.0514722 nan
6.8122544 -3.3907905 2.0514722 nan
6.8073063 -3.3961282 2.0514722 nan
7.0216188 -3.3576365 2.0717664 nan
6.9888325 -3.3268125 2.062295 nan
6.9837732 -3.3322701 2.062295 nan
6.9787135 -3.3377278 2.062295 nan
6.9736543 -3.3431854 2.062295 nan
6.968595 -3.3486428 2.062295 nan
6.9635358 -3.3541005 2.062295 nan
6.9584761 -3.3595581 2.062295 nan
6.9534168 -3.3650157 2.062295 nan
6.9483576 -3.3704734 2.062295 nan
6.9432983 -3.3759308 2.062295 nan
6.9382391 -3.3813884 2.062295 nan
6.9331799 -3.3868461 2.062295 nan
6.9281206 -3.3923037 2.062295 nan
6.9230614 -3.3977613 2.062295 nan
6.8923416 -3.3676486 2.0532446 nan
6.8873382 -3.3730462 2.0532446 nan
6.8823347 -3.3784437 2.0532446 nan
6.8518381 -3.3480909 2.044194 nan
6.84689 -3.3534284 2.044194 nan
6.8419418 -3.3587658 2.044194 nan
6.8369942 -3.3641033 2.044194 nan
6.832046 -3.3694408 2.044194 nan
6.8270979 -3.3747783 2.044194 nan
6.8221502 -3.3801157 2.044194 nan
6.8172021 -3.3854532 2.044194 nan
6.8122544 -3.3907905 2.044194 nan
6.8073063 -3.3961282 2.044194 nan
6.8023586 -3.4014654 2.044194 nan
6.7974105 -3.4068031 2.044194 nan
6.9888325 -3.3268125 2.054853 nan
6.9837732 -3.3322701 2.054853 nan
6.9787135 -3.3377278 2.054853 nan
6.9736543 -3.3431854 2.054853 nan
6.968595 -3.3486428 2.054853 nan
6.9635358 -3.3541005 2.054853 nan
6.9584761 -3.3595581 2.054853 nan
6.9806786 -3.4018002 2.0642388 nan
6.9755611 -3.4073205 2.0642388 nan
6.9432983 -3.3759308 2.054853 nan
6.9382391 -3.3813884 2.054853 nan
6.9331799 -3.3868461 2.054853 nan
6.9281206 -3.3923037 2.054853 nan
6.9230614 -3.3977613 2.054853 nan
6.8923416 -3.3676486 2.0458846 nan
6.8873382 -3.3730462 2.0458846 nan
6.8823347 -3.3784437 2.0458846 nan
6.8518381 -3.3480909 2.036916 nan
6.84689 -3.3534284 2.036916 nan
6.8419418 -3.3587658 2.036916 nan
6.8369942 -3.3641033 2.036916 nan
6.832046 -3.3694408 2.036916 nan
6.8270979 -3.3747783 2.036916 nan
6.8221502 -3.3801157 2.036916 nan
6.8172021 -3.3854532 2.036916 nan
6.8122544 -3.3907905 2.036916 nan
6.782896 -3.3606813 2.028156 nan
6.7780027 -3.3659601 2.028156 nan
6.773109 -3.3712387 2.028156 nan
6.7682152 -3.3765178 2.028156 nan
6.9888325 -3.3268125 2.0474112 nan
7.011384 -3.3686774 2.0567112 nan
6.9787135 -3.3377278 2.0474112 nan
7.0011487 -3.3797183 2.0567112 nan
6.9960313 -3.3852386 2.0567112 nan
6.9909134 -3.390759 2.0567112 nan
6.985796 -3.3962796 2.0567112 nan
6.9806786 -3.4018002 2.0567112 nan
6.9755611 -3.4073205 2.0567112 nan
6.9704432 -3.4128408 2.0567112 nan
6.9382391 -3.3813884 2.0474112 nan
6.9331799 -3.3868461 2.0474112 nan
6.902349 -3.3568537 2.0385246 nan
6.8973455 -3.3622513 2.0385246 nan
6.8923416 -3.3676486 2.0385246 nan
6.8873382 -3.3730462 2.0385246 nan
6.8567858 -3.3427534 2.0296378 nan
6.8518381 -3.3480909 2.0296378 nan
6.84689 -3.3534284 2.0296378 nan
6.8171511 -3.3237298 2.0209579 nan
6.8122573 -3.3290086 2.0209579 nan
6.8073635 -3.3342872 2.0209579 nan
6.8024702 -3.3395662 2.0209579 nan
6.7975769 -3.3448448 2.0209579 nan
6.7926831 -3.3501236 2.0209579 nan
6.7877893 -3.3554025 2.0209579 nan
6.782896 -3.3606813 2.0209579 nan
6.7780027 -3.3659601 2.0209579 nan
6.773109 -3.3712387 2.0209579 nan
6.7682152 -3.3765178 2.0209579 nan
6.7633219 -3.3817964 2.0209579 nan
6.7584281 -3.3870752 2.0209579 nan
7.0344315 -3.4114785 2.0586026 nan
7.029254 -3.4170632 2.0586026 nan
7.0240774 -3.4226477 2.0586026 nan
6.9909134 -3.390759 2.0491836 nan
6.985796 -3.3962796 2.0491836 nan
6.9806786 -3.4018002 2.0491836 nan
6.9755611 -3.4073205 2.0491836 nan
6.9704432 -3.4128408 2.0491836 nan
6.9382391 -3.3813884 2.0399694 nan
6.9331799 -3.3868461 2.0399694 nan
6.902349 -3.3568537 2.0311646 nan
6.8973455 -3.3622513 2.0311646 nan
6.8923416 -3.3676486 2.0311646 nan
6.8617334 -3.3374162 2.0223598 nan
6.8567858 -3.3427534 2.0223598 nan
6.8518381 -3.3480909 2.0223598 nan
6.84689 -3.3534284 2.0223598 nan
6.8171511 -3.3237298 2.0137599 nan
6.8122573 -3.3290086 2.0137599 nan
6.8073635 -3.3342872 2.0137599 nan
6.8024702 -3.3395662 2.0137599 nan
6.7975769 -3.3448448 2.0137599 nan
6.7926831 -3.3501236 2.0137599 nan
6.7877893 -3.3554025 2.0137599 nan
6.782896 -3.3606813 2.0137599 nan
6.7780027 -3.3659601 2.0137599 nan
6.773109 -3.3712387 2.0137599 nan
6.7682152 -3.3765178 2.0137599 nan
6.7633219 -3.3817964 2.0137599 nan
6.7584281 -3.3870752 2.0137599 nan
7.029254 -3.4170632 2.0509875 nan
7.0240774 -3.4226477 2.0509875 nan
6.9909134 -3.390759 2.041656 nan
6.985796 -3.3962796 2.041656 nan
6.9806786 -3.4018002 2.041656 nan
6.9755611 -3.4073205 2.041656 nan
6.9432983 -3.3759308 2.0325274 nan
6.9382391 -3.3813884 2.0325274 nan
6.9073524 -3.3514562 2.0238047 nan
6.902349 -3.3568537 2.0238047 nan
6.8973455 -3.3622513 2.0238047 nan
6.8666816 -3.3320785 2.0150816 nan
6.8617334 -3.3374162 2.0150816 nan
6.8567858 -3.3427534 2.0150816 nan
6.8518381 -3.3480909 2.0150816 nan
6.84689 -3.3534284 2.0150816 nan
6.8171511 -3.3237298 2.0065618 nan
6.8122573 -3.3290086 2.0065618 nan
6.8073635 -3.3342872 2.0065618 nan
6.8024702 -3.3395662 2.0065618 nan
6.7975769 -3.3448448 2.0065618 nan
6.7926831 -3.3501236 2.0065618 nan
6.7877893 -3.3554025 2.0065618 nan
6.782896 -3.3606813 2.0065618 nan
6.7780027 -3.3659601 2.0065618 nan
6.773109 -3.3712387 2.0065618 nan
6.7682152 -3.3765178 2.0065618 nan
6.7633219 -3.3817964 2.0065618 nan
6.7348642 -3.352186 1.9982445 nan
6.7300234 -3.3574076 1.9982445 nan
7.0062666 -3.3741977 2.0341284 nan
7.0011487 -3.3797183 2.0341284 nan
6.9960313 -3.3852386 2.0341284 -3.3816612e+38
6.9909134 -3.390759 2.0341284 nan
6.985796 -3.3962796 2.0341284 nan
6.9806786 -3.4018002 2.0341284 nan
6.9483576 -3.3704734 2.0250854 nan
6.9173598 -3.340661 2.0164447 nan
6.9123564 -3.3460586 2.0164447 nan
6.9073524 -3.3514562 2.0164447 nan
6.902349 -3.3568537 2.0164447 nan
6.8716297 -3.3267412 2.0078034 nan
6.8666816 -3.3320785 2.0078034 nan
6.8617334 -3.3374162 2.0078034 nan
6.8567858 -3.3427534 2.0078034 nan
6.8518381 -3.3480909 2.0078034 nan
6.84689 -3.3534284 2.0078034 nan
6.8171511 -3.3237298 1.9993637 nan
6.8122573 -3.3290086 1.9993637 nan
6.8073635 -3.3342872 1.9993637 nan
6.8024702 -3.3395662 1.9993637 nan
6.7975769 -3.3448448 1.9993637 nan
6.7926831 -3.3501236 1.9993637 nan
6.7877893 -3.3554025 1.9993637 nan
6.782896 -3.3606813 1.9993637 nan
6.7542257 -3.3312998 1.9911245 nan
6.773109 -3.3712387 1.9993637 nan
6.744545 -3.341743 1.9911245 nan
6.7397046 -3.3469644 1.9911245 nan
6.7348642 -3.352186 1.9911245 nan
6.7535343 -3.392354 1.9993637 nan
6.748641 -3.3976328 1.9993637 nan
7.0062666 -3.3741977 2.0266008 nan
7.0011487 -3.3797183 2.0266008 nan
6.9960313 -3.3852386 2.0266008 -3.3946405e+38
6.9909134 -3.390759 2.0266008 nan
6.985796 -3.3962796 2.0266008 nan
6.9806786 -3.4018002 2.0266008 nan
6.9483576 -3.3704734 2.0176435 nan
6.9173598 -3.340661 2.0090845 nan
6.9123564 -3.3460586 2.0090845 nan
6.9073524 -3.3514562 2.0090845 nan
6.902349 -3.3568537 2.0090845 nan
6.8716297 -3.3267412 2.0005255 nan
6.8666816 -3.3320785 2.0005255 nan
6.8617334 -3.3374162 2.0005255 nan
6.8567858 -3.3427534 2.0005255 nan
6.8269382 -3.3131721 1.9921656 nan
6.8220444 -3.3184509 1.9921656 nan
6.8171511 -3.3237298 1.9921656 nan
6.7881093 -3.2947493 1.9840045 nan
6.7832689 -3.2999706 1.9840045 nan
6.7784281 -3.3051922 1.9840045 nan
6.7735882 -3.3104138 1.9840045 nan
6.7687473 -3.3156352 1.9840045 nan
6.763907 -3.3208568 1.9840045 nan
6.7590666 -3.3260784 1.9840045 nan
6.7542257 -3.3312998 1.9840045 nan
6.7493858 -3.3365214 1.9840045 nan
6.744545 -3.341743 1.9840045 nan
6.7397046 -3.3469644 1.9840045 nan
6.7348642 -3.352186 1.9840045 nan
6.7070866 -3.3233132 1.9760426 nan
6.6799841 -3.2951827 1.9682798 nan
7.0062666 -3.3741977 2.019073 -3.3811385e+38
7.0011487 -3.3797183 2.019073 -3.3945351e+38
6.9960313 -3.3852386 2.019073 nan
6.9909134 -3.390759 2.019073 nan
6.985796 -3.3962796 2.019073 nan
6.9534168 -3.3650157 2.0102017 nan
6.9483576 -3.3704734 2.0102017 nan
6.9173598 -3.340661 2.0017245 nan
6.9123564 -3.3460586 2.0017245 nan
6.9073524 -3.3514562 2.0017245 nan
6.902349 -3.3568537 2.0017245 nan
6.8716297 -3.3267412 1.9932474 nan
6.8666816 -3.3320785 1.9932474 nan
6.8617334 -3.3374162 1.9932474 nan
6.8318319 -3.3078933 1.9849675 nan
6.8269382 -3.3131721 1.9849675 nan
6.8220444 -3.3184509 1.9849675 nan
6.8171511 -3.3237298 1.9849675 nan
6.7881093 -3.2947493 1.9768846 nan
6.7832689 -3.2999706 1.9768846 nan
6.7784281 -3.3051922 1.9768846 nan
6.7735882 -3.3104138 1.9768846 nan
6.7687473 -3.3156352 1.9768846 nan
6.763907 -3.3208568 1.9768846 nan
6.7590666 -3.3260784 1.9768846 nan
6.7542257 -3.3312998 1.9768846 nan
6.7493858 -3.3365214 1.9768846 nan
6.744545 -3.341743 1.9768846 nan
6.7397046 -3.3469644 1.9768846 nan
6.7348642 -3.352186 1.9768846 nan
6.7300234 -3.3574076 1.9768846 nan
6.6799841 -3.2951827 1.9613103 nan
7.0062666 -3.3741977 2.0115454 -3.3808767e+38
7.0011487 -3.3797183 2.0115454 -3.3544487e+38
6.9960313 -3.3852386 2.0115454 -3.3279678e+38
6.9909134 -3.390759 2.0115454 nan
6.985796 -3.3962796 2.0115454 nan
6.9806786 -3.4018002 2.0115454 nan
6.9483576 -3.3704734 2.0027597 nan
6.9173598 -3.340661 1.9943645 nan
6.9123564 -3.3460586 1.9943645 nan
6.9073524 -3.3514562 1.9943645 nan
6.902349 -3.3568537 1.9943645 nan
6.8716297 -3.3267412 1.9859693 nan
6.8666816 -3.3320785 1.9859693 nan
6.8617334 -3.3374162 1.9859693 nan
6.8318319 -3.3078933 1.9777694 nan
6.8269382 -3.3131721 1.9777694 nan
6.8220444 -3.3184509 1.9777694 nan
6.7929497 -3.2895277 1.9697645 nan
6.7881093 -3.2947493 1.9697645 nan
6.7832689 -3.2999706 1.9697645 nan
6.7549729 -3.271657 1.9619551 nan
6.7501841 -3.2768226 1.9619551 nan
6.7453957 -3.2819881 1.9619551 nan
6.7406073 -3.2871537 1.9619551 nan
6.7590666 -3.3260784 1.9697645 nan
6.7542257 -3.3312998 1.9697645 nan
6.7493858 -3.3365214 1.9697645 nan
6.744545 -3.341743 1.9697645 nan
6.7397046 -3.3469644 1.9697645 nan
6.7348642 -3.352186 1.9697645 nan
6.7300234 -3.3574076 1.9697645 nan
6.6799841 -3.2951827 1.9543407 nan
6.6752458 -3.3002937 1.9543407 nan
7.0062666 -3.3741977 2.0040178 -3.3810322e+38
7.0011487 -3.3797183 2.0040178 -3.314311e+38
6.9960313 -3.3852386 2.0040178 -3.2481117e+38
6.9909134 -3.390759 2.0040178 -3.3812446e+38
6.985796 -3.3962796 2.0040178 nan
6.9806786 -3.4018002 2.0040178 nan
6.9483576 -3.3704734 1.9953179 nan
6.9173598 -3.340661 1.9870045 nan
6.9123564 -3.3460586 1.9870045 nan
6.9073524 -3.3514562 1.9870045 nan
6.8765774 -3.3214035 1.9786912 nan
6.8716297 -3.3267412 1.9786912 nan
6.8666816 -3.3320785 1.9786912 nan
6.8367252 -3.3026147 1.9705713 nan
6.8318319 -3.3078933 1.9705713 nan
6.8269382 -3.3131721 1.9705713 nan
6.8220444 -3.3184509 1.9705713 nan
6.7929497 -3.2895277 1.9626446 nan
6.7881093 -3.2947493 1.9626446 nan
6.7832689 -3.2999706 1.9626446 nan
6.7549729 -3.271657 1.9549112 nan
6.7501841 -3.2768226 1.9549112 nan
6.7453957 -3.2819881 1.9549112 nan
6.7406073 -3.2871537 1.9549112 nan
6.7358184 -3.2923193 1.9549112 nan
6.7310295 -3.2974851 1.9549112 nan
6.7262411 -3.3026507 1.9549112 nan
6.744545 -3.341743 1.9626446 nan
6.7397046 -3.3469644 1.9626446 nan
6.7348642 -3.352186 1.9626446 nan
6.7300234 -3.3574076 1.9626446 -2.8209842e+38
6.7251835 -3.3626289 1.9626446 -3.1272796e+38
6.7203426 -3.3678505 1.9626446 nan
6.7155023 -3.3730719 1.9626446 nan
6.7106619 -3.3782935 1.9626446 nan
7.0062666 -3.3741977 1.9964902 nan
7.0011487 -3.3797183 1.9964902 nan
6.9960313 -3.3852386 1.9964902 nan
6.9909134 -3.390759 1.9964902 nan
6.985796 -3.3962796 1.9964902 nan
6.9806786 -3.4018002 1.9964902 nan
6.9483576 -3.3704734 1.9878759 nan
6.9432983 -3.3759308 1.9878759 nan
6.9123564 -3.3460586 1.9796445 nan
6.9073524 -3.3514562 1.9796445 nan
6.8765774 -3.3214035 1.9714131 nan
6.8716297 -3.3267412 1.9714131 nan
6.8416185 -3.2973356 1.9633732 nan
6.8367252 -3.3026147 1.9633732 nan
6.8318319 -3.3078933 1.9633732 nan
6.8269382 -3.3131721 1.9633732 nan
6.7977901 -3.284306 1.9555244 nan
6.7929497 -3.2895277 1.9555244 nan
6.7881093 -3.2947493 1.9555244 nan
6.7597618 -3.2664912 1.9478674 nan
6.7549729 -3.271657 1.9478674 nan
6.7501841 -3.2768226 1.9478674 nan
6.7453957 -3.2819881 1.9478674 nan
6.7406073 -3.2871537 1.9478674 nan
6.7358184 -3.2923193 1.9478674 nan
6.7310295 -3.2974851 1.9478674 nan
6.7262411 -3.3026507 1.9478674 nan
6.744545 -3.341743 1.9555244 nan
6.7166634 -3.3129821 1.9478674 nan
6.7348642 -3.352186 1.9555244 nan
6.7070866 -3.3233132 1.9478674 nan
6.7022977 -3.3284788 1.9478674 nan
6.7203426 -3.3678505 1.9555244 nan
6.7155023 -3.3730719 1.9555244 nan
6.7106619 -3.3782935 1.9555244 nan
6.705821 -3.3835149 1.9555244 nan
7.0011487 -3.3797183 1.9889627 nan
6.9960313 -3.3852386 1.9889627 nan
6.9909134 -3.390759 1.9889627 nan
6.985796 -3.3962796 1.9889627 nan
6.9806786 -3.4018002 1.9889627 nan
6.9483576 -3.3704734 1.9804341 nan
6.9432983 -3.3759308 1.9804341 nan
6.9123564 -3.3460586 1.9722846 nan
6.9073524 -3.3514562 1.9722846 nan
6.8765774 -3.3214035 1.9641349 nan
6.8716297 -3.3267412 1.9641349 nan
6.8416185 -3.2973356 1.9561751 nan
6.8367252 -3.3026147 1.9561751 nan
6.8318319 -3.3078933 1.9561751 nan
6.8269382 -3.3131721 1.9561751 nan
6.8220444 -3.3184509 1.9561751 nan
6.7929497 -3.2895277 1.9484046 nan
6.7881093 -3.2947493 1.9484046 nan
6.7832689 -3.2999706 1.9484046 nan
6.7549729 -3.271657 1.9408236 nan
6.7501841 -3.2768226 1.9408236 nan
6.7453957 -3.2819881 1.9408236 nan
6.7406073 -3.2871537 1.9408236 nan
6.7358184 -3.2923193 1.9408236 nan
6.7310295 -3.2974851 1.9408236 nan
6.7262411 -3.3026507 1.9408236 nan
6.7214522 -3.3078165 1.9408236 nan
6.7166634 -3.3129821 1.9408236 nan
6.711875 -3.3181477 1.9408236 nan
6.7070866 -3.3233132 1.9408236 nan
6.7022977 -3.3284788 1.9408236 nan
6.6975088 -3.3336446 1.9408236 nan
6.7155023 -3.3730719 1.9484046 nan
6.7106619 -3.3782935 1.9484046 nan
6.705821 -3.3835149 1.9484046 nan
7.0062666 -3.3741977 1.9814351 nan
6.9960313 -3.3852386 1.9814351 nan
6.9909134 -3.390759 1.9814351 nan
6.985796 -3.3962796 1.9814351 nan
6.9806786 -3.4018002 1.9814351 nan
6.9483576 -3.3704734 1.9729922 nan
6.9432983 -3.3759308 1.9729922 nan
6.9123564 -3.3460586 1.9649246 nan
6.9073524 -3.3514562 1.9649246 nan
6.8765774 -3.3214035 1.956857 nan
6.8716297 -3.3267412 1.956857 nan
6.8416185 -3.2973356 1.948977 nan
6.8367252 -3.3026147 1.948977 nan
6.8318319 -3.3078933 1.948977 nan
6.8269382 -3.3131721 1.948977 nan
6.8220444 -3.3184509 1.948977 nan
6.7929497 -3.2895277 1.9412845 nan
6.7881093 -3.2947493 1.9412845 nan
6.7597618 -3.2664912 1.9337797 nan
6.7549729 -3.271657 1.9337797 nan
6.7501841 -3.2768226 1.9337797 nan
6.7453957 -3.2819881 1.9337797 nan
6.7406073 -3.2871537 1.9337797 nan
6.713151 -3.2594044 1.9264627 nan
6.7084131 -3.2645156 1.9264627 nan
6.7036748 -3.2696269 1.9264627 nan
6.7214522 -3.3078165 1.9337797 nan
6.7166634 -3.3129821 1.9337797 nan
6.711875 -3.3181477 1.9337797 nan
6.7070866 -3.3233132 1.9337797 nan
6.7022977 -3.3284788 1.9337797 nan
6.6975088 -3.3336446 1.9337797 nan
6.7155023 -3.3730719 1.9412845 nan
6.6879315 -3.343976 1.9337797 nan
6.705821 -3.3835149 1.9412845 nan
6.7009811 -3.3887365 1.9412845 nan
6.9960313 -3.3852386 1.9739075 nan
6.9909134 -3.390759 1.9739075 nan
6.985796 -3.3962796 1.9739075 nan
6.9806786 -3.4018002 1.9739075 nan
6.9755611 -3.4073205 1.9739075 nan
6.9704432 -3.4128408 1.9739075 nan
6.9123564 -3.3460586 1.9575646 nan
6.9073524 -3.3514562 1.9575646 nan
6.8765774 -3.3214035 1.9495788 nan
6.8465123 -3.292057 1.9417789 nan
6.8416185 -3.2973356 1.9417789 nan
6.8367252 -3.3026147 1.9417789 nan
6.8318319 -3.3078933 1.9417789 nan
6.8269382 -3.3131721 1.9417789 nan
6.7977901 -3.284306 1.9341645 nan
6.7929497 -3.2895277 1.9341645 nan
6.7881093 -3.2947493 1.9341645 nan
6.7832689 -3.2999706 1.9341645 nan
6.7549729 -3.271657 1.9267359 nan
6.7501841 -3.2768226 1.9267359 nan
6.7453957 -3.2819881 1.9267359 nan
6.7406073 -3.2871537 1.9267359 nan
6.713151 -3.2594044 1.9194931 nan
6.7310295 -3.2974851 1.9267359 nan
6.7036748 -3.2696269 1.9194931 nan
6.7214522 -3.3078165 1.9267359 nan
6.6941986 -3.2798491 1.9194931 nan
6.711875 -3.3181477 1.9267359 nan
6.7070866 -3.3233132 1.9267359 nan
6.7022977 -3.3284788 1.9267359 nan
6.6975088 -3.3336446 1.9267359 nan
6.7155023 -3.3730719 1.9341645 nan
6.6879315 -3.343976 1.9267359 nan
6.705821 -3.3835149 1.9341645 nan
6.7009811 -3.3887365 1.9341645 nan
6.9960313 -3.3852386 1.9663798 nan
6.9909134 -3.390759 1.9663798 nan
6.985796 -3.3962796 1.9663798 nan
6.9806786 -3.4018002 1.9663798 nan
6.9483576 -3.3704734 1.9581084 nan
6.9432983 -3.3759308 1.9581084 nan
6.9123564 -3.3460586 1.9502046 nan
6.9073524 -3.3514562 1.9502046 nan
6.8765774 -3.3214035 1.9423008 nan
6.8465123 -3.292057 1.9345808 nan
6.8416185 -3.2973356 1.9345808 nan
6.8367252 -3.3026147 1.9345808 nan
6.8318319 -3.3078933 1.9345808 nan
6.8026304 -3.2790847 1.9270445 nan
6.7977901 -3.284306 1.9270445 nan
6.7929497 -3.2895277 1.9270445 nan
6.7881093 -3.2947493 1.9270445 nan
6.7597618 -3.2664912 1.9196922 nan
6.7549729 -3.271657 1.9196922 nan
6.7501841 -3.2768226 1.9196922 nan
6.7226276 -3.2491822 1.9125235 nan
6.7406073 -3.2871537 1.9196922 nan
6.713151 -3.2594044 1.9125235 nan
6.7084131 -3.2645156 1.9125235 nan
6.7036748 -3.2696269 1.9125235 nan
6.6989365 -3.2747378 1.9125235 nan
6.6941986 -3.2798491 1.9125235 nan
6.6894603 -3.2849603 1.9125235 nan
6.7070866 -3.3233132 1.9196922 nan
6.7022977 -3.3284788 1.9196922 nan
6.6975088 -3.3336446 1.9196922 nan
6.6927204 -3.3388102 1.9196922 nan
6.6879315 -3.343976 1.9196922 nan
6.705821 -3.3835149 1.9270445 nan
6.6783543 -3.3543072 1.9196922 nan
7.0011487 -3.3797183 1.9588522 nan
6.9960313 -3.3852386 1.9588522 nan
6.9909134 -3.390759 1.9588522 nan
6.985796 -3.3962796 1.9588522 nan
6.9806786 -3.4018002 1.9588522 nan
6.9483576 -3.3704734 1.9506664 nan
6.9173598 -3.340661 1.9428445 nan
6.9123564 -3.3460586 1.9428445 nan
6.8815255 -3.3160663 1.9350226 nan
6.8765774 -3.3214035 1.9350226 nan
6.8465123 -3.292057 1.9273827 nan
6.8416185 -3.2973356 1.9273827 nan
6.8367252 -3.3026147 1.9273827 nan
