# .PCD v0.7 - Point Cloud Data file format
VERSION 0.7
FIELDS x y z rgb
SIZE 4 4 4 4
TYPE F F F F
COUNT 1 1 1 1
WIDTH 1112
HEIGHT 1
VIEWPOINT 0 0 0 1 0 0 0
POINTS 1112
DATA ascii
3.5317905 1.1556381 1.7395235 -2.3821873e+38
3.5317745 1.1492743 1.7395235 -2.3689469e+38
3.5317585 1.1429106 1.7395235 -2.3821873e+38
3.5317426 1.1365467 1.7395235 -2.3954799e+38
3.5317266 1.130183 1.7395235 -2.4087205e+38
3.5637393 1.1352284 1.7443084 -2.4219091e+38
3.5637233 1.1288036 1.7443084 -2.4085651e+38
3.5637071 1.1223789 1.7443084 -2.3952215e+38
3.5967202 1.1275313 1.7492425 -2.3952739e+38
3.596704 1.1210437 1.7492425 -2.3819295e+38
3.5966876 1.1145561 1.7492425 -2.3819291e+38
3.5966713 1.1080686 1.7492425 -2.3952727e+38
3.5966551 1.101581 1.7492425 -2.3820317e+38
3.5966387 1.0950933 1.7492425 -2.3821357e+38
3.5966225 1.0886056 1.7492425 -2.3821359e+38
3.5966063 1.082118 1.7492425 -2.3821359e+38
3.6306186 1.0870403 1.7543263 -2.3822398e+38
3.6306021 1.080488 1.7543263 -2.3822917e+38
3.6656151 1.0855476 1.7595598 -2.4088244e+38
3.6655984 1.0789286 1.7595598 -2.4487008e+38
3.6655817 1.0723096 1.7595598 -2.4619407e+38
3.7005939 1.0771025 1.7647932 -2.4884734e+38
3.700577 1.070417 1.7647932 -2.4485963e+38
3.7005603 1.0637313 1.7647932 -2.4087195e+38
3.7005436 1.0570456 1.7647932 -2.3687905e+38
3.7365558 1.0618237 1.7701759 -2.3288092e+38
3.7365389 1.0550694 1.7701759 -2.30212e+38
3.736522 1.0483152 1.7701759 -2.2753797e+38
3.7365048 1.0415609 1.7701759 -2.2619316e+38
3.7364879 1.0348067 1.7701759 -2.2485357e+38
3.7364709 1.0280524 1.7701759 -2.2352434e+38
3.7004261 1.0102457 1.7647932 -2.2220552e+38
3.7004092 1.0035599 1.7647932 -2.2487436e+38
3.7003925 0.99687439 1.7647932 -2.2754326e+38
3.7003758 0.99018866 1.7647932 -2.3154656e+38
3.7003589 0.98350304 1.7647932 -2.3556031e+38
3.7003422 0.97681731 1.7647932 -2.4353057e+38
3.7003253 0.97013158 1.7647932 -2.5018198e+38
3.7003086 0.96344584 1.7647932 -2.5552494e+38
3.7002919 0.95676023 1.7647932 -2.6221265e+38
3.6652493 0.93992907 1.7595598 -2.7553094e+38
3.532238 1.3338243 1.7331598 -2.7151177e+38
3.4681547 1.3007412 1.7237122 -2.6748778e+38
3.4681392 1.2944994 1.7237122 -2.6346897e+38
3.4370909 1.2754334 1.719136 -2.5948128e+38
3.4370754 1.2692505 1.719136 -2.5548321e+38
3.4070289 1.2507716 1.7147074 -2.5017158e+38
3.3769829 1.2324071 1.7102787 -2.4751841e+38
3.3769677 1.2263386 1.7102787 -2.43536e+38
3.3479228 1.2085494 1.7059978 -2.4621012e+38
3.3479075 1.2025361 1.7059978 -2.4889443e+38
3.3478925 1.1965227 1.7059978 -2.5157356e+38
3.3477869 1.1544296 1.7059978 -1.995464e+38
3.3477716 1.1484163 1.7059978 -2.1535658e+38
3.3477566 1.142403 1.7059978 -2.3141108e+38
3.3477416 1.1363896 1.7059978 -2.3550253e+38
3.4067829 1.1527605 1.7147074 -2.3816123e+38
3.4678257 1.1696616 1.7237122 -2.3820822e+38
3.4678102 1.1634197 1.7237122 -2.3686867e+38
3.4998245 1.1691356 1.728436 -2.3952719e+38
3.4998085 1.1628327 1.728436 -2.4086682e+38
3.5318224 1.1683657 1.7331598 -2.3953761e+38
3.5318065 1.1620018 1.7331598 -2.3821877e+38
3.5317905 1.1556381 1.7331598 -2.3689475e+38
3.5638039 1.1609273 1.7378836 -2.3556031e+38
3.5317585 1.1429106 1.7331598 -2.3820838e+38
3.5317426 1.1365467 1.7331598 -2.395428e+38
3.5317266 1.130183 1.7331598 -2.3953763e+38
3.5637393 1.1352284 1.7378836 -2.3953763e+38
3.5637233 1.1288036 1.7378836 -2.3953246e+38
3.5637071 1.1223789 1.7378836 -2.3952729e+38
3.5967202 1.1275313 1.7427549 -2.3952731e+38
3.596704 1.1210437 1.7427549 -2.3819287e+38
3.5966876 1.1145561 1.7427549 -2.3818765e+38
3.5966713 1.1080686 1.7427549 -2.3819802e+38
3.5966551 1.101581 1.7427549 -2.3952723e+38
3.5966387 1.0950933 1.7427549 -2.3953242e+38
3.5966225 1.0886056 1.7427549 -2.3820319e+38
3.5966063 1.082118 1.7427549 -2.3555512e+38
3.6306186 1.0870403 1.7477741 -2.3556029e+38
3.6306021 1.080488 1.7477741 -2.355655e+38
3.6656151 1.0855476 1.7529407 -2.3822915e+38
3.6655984 1.0789286 1.7529407 -2.408772e+38
3.6655817 1.0723096 1.7529407 -2.4485448e+38
3.6655653 1.0656905 1.7529407 -2.4751294e+38
3.700577 1.070417 1.7581074 -2.4218564e+38
3.7005603 1.0637313 1.7581074 -2.3554985e+38
3.7005436 1.0570456 1.7581074 -2.3156733e+38
3.7365558 1.0618237 1.7634217 -2.2757957e+38
3.7365389 1.0550694 1.7634217 -2.2491582e+38
3.736522 1.0483152 1.7634217 -2.2223136e+38
3.7004764 1.0303029 1.7581074 -2.2221576e+38
3.7004597 1.0236171 1.7581074 -2.2219501e+38
3.7004428 1.0169314 1.7581074 -2.2218986e+38
3.7004261 1.0102457 1.7581074 -2.2087625e+38
3.7004092 1.0035599 1.7581074 -2.2353996e+38
3.7003925 0.99687439 1.7581074 -2.2621923e+38
3.7003758 0.99018866 1.7581074 -2.3155697e+38
3.7003589 0.98350304 1.7581074 -2.3554995e+38
3.7003422 0.97681731 1.7581074 -2.4485982e+38
3.7003253 0.97013158 1.7581074 -2.5284565e+38
3.7003086 0.96344584 1.7581074 -2.5818343e+38
3.7002919 0.95676023 1.7581074 -2.6351596e+38
3.7002749 0.95007449 1.7581074 -2.7681867e+38
3.5642877 1.3536696 1.7314588 -2.7818386e+38
3.532238 1.3338243 1.7267959 -2.7417536e+38
3.532222 1.3274604 1.7267959 -2.7016174e+38
3.5001726 1.3077979 1.7221332 -2.6484484e+38
3.4681234 1.2882575 1.7174702 -2.5950199e+38
3.4370754 1.2692505 1.7129531 -2.5549873e+38
3.4070289 1.2507716 1.7085817 -2.5281443e+38
3.3769829 1.2324071 1.7042103 -2.4749764e+38
3.3769677 1.2263386 1.7042103 -2.4352047e+38
3.3479228 1.2085494 1.6999846 -2.4221211e+38
3.3479075 1.2025361 1.6999846 -2.4223264e+38
3.3477869 1.1544296 1.6999846 nan
3.3477566 1.142403 1.6999846 -2.8978742e+38
3.3477416 1.1363896 1.6999846 -2.4734549e+38
3.3767543 1.1413788 1.7042103 -2.0484704e+38
3.4067674 1.1466349 1.7085817 -2.0486832e+38
3.4067521 1.1405092 1.7085817 -2.0361189e+38
3.4677944 1.1571778 1.7174702 -2.1689907e+38
3.4998085 1.1628327 1.7221332 -2.3155701e+38
3.5318224 1.1683657 1.7267959 -2.3422591e+38
3.5318065 1.1620018 1.7267959 -2.3688958e+38
3.5317905 1.1556381 1.7267959 -2.3556556e+38
3.5638039 1.1609273 1.7314588 -2.3556556e+38
3.5317585 1.1429106 1.7267959 -2.3556035e+38
3.5637717 1.148078 1.7314588 -2.3689475e+38
3.5317266 1.130183 1.7267959 -2.3688435e+38
3.5637393 1.1352284 1.7314588 -2.3820838e+38
3.5637233 1.1288036 1.7314588 -2.3820319e+38
3.5637071 1.1223789 1.7314588 -2.3953242e+38
3.5967202 1.1275313 1.7362673 -2.3819279e+38
3.596704 1.1210437 1.7362673 -2.3819798e+38
3.5966876 1.1145561 1.7362673 -2.3819276e+38
3.5966713 1.1080686 1.7362673 -2.3952721e+38
3.5966551 1.101581 1.7362673 -2.3952203e+38
3.5966387 1.0950933 1.7362673 -2.3951684e+38
3.5966225 1.0886056 1.7362673 -2.3819798e+38
3.630635 1.0935928 1.7412217 -2.3687911e+38
3.6656482 1.0987856 1.7463217 -2.3555506e+38
3.6656315 1.0921667 1.7463217 -2.3556027e+38
3.6656151 1.0855476 1.7463217 -2.3688433e+38
3.7006276 1.090474 1.7514217 -2.3954278e+38
3.7006106 1.0837883 1.7514217 -2.4086682e+38
3.7005939 1.0771025 1.7514217 -2.4352527e+38
3.700577 1.070417 1.7514217 -2.395324e+38
3.7005603 1.0637313 1.7514217 -2.368739e+38
3.7005436 1.0570456 1.7514217 -2.3156733e+38
3.7365558 1.0618237 1.7566674 -2.262607e+38
3.7365389 1.0550694 1.7566674 -2.2491059e+38
3.736522 1.0483152 1.7566674 -2.2356053e+38
3.7004764 1.0303029 1.7514217 -2.2352929e+38
3.7004597 1.0236171 1.7514217 -2.2350339e+38
3.7004428 1.0169314 1.7514217 -2.2351901e+38
3.7004261 1.0102457 1.7514217 -2.2486392e+38
3.7004092 1.0035599 1.7514217 -2.2620361e+38
3.7003925 0.99687439 1.7514217 -2.288829e+38
3.7003758 0.99018866 1.7514217 -2.3288102e+38
3.7003589 0.98350304 1.7514217 -2.36874e+38
3.7003422 0.97681731 1.7514217 -2.4485984e+38
3.7003253 0.97013158 1.7514217 -2.5284569e+38
3.7003086 0.96344584 1.7514217 -2.595023e+38
3.7002919 0.95676023 1.7514217 -2.6614848e+38
3.7002749 0.95007449 1.7514217 -2.7549984e+38
3.5642877 1.3536696 1.725034 -2.7951302e+38
3.532238 1.3338243 1.7204322 -2.7552013e+38
3.532222 1.3274604 1.7204322 -2.7153246e+38
3.5001726 1.3077979 1.7158302 -2.6623634e+38
3.4681234 1.2882575 1.7112284 -2.5954349e+38
3.4370754 1.2692505 1.7067702 -2.5685909e+38
3.4070289 1.2507716 1.702456 -2.5414881e+38
3.3769829 1.2324071 1.6981417 -2.4880085e+38
3.3769677 1.2263386 1.6981417 -2.4217554e+38
3.3479228 1.2085494 1.6939712 -2.3953791e+38
3.3479075 1.2025361 1.6939712 -2.3550859e+38
3.3477416 1.1363896 1.6939712 -2.5923755e+38
3.3477263 1.1303763 1.6939712 -1.7167409e+38
3.3477113 1.1243629 1.6939712 -1.7147104e+38
3.3767238 1.1292417 1.6981417 -1.7024566e+38
3.436765 1.1455939 1.7067702 -1.955633e+38
3.4677787 1.1509359 1.7112284 -2.2083974e+38
3.5318224 1.1683657 1.7204322 -2.2759529e+38
3.5318065 1.1620018 1.7204322 -2.3423108e+38
3.5638199 1.1673521 1.725034 -2.3424151e+38
3.5638039 1.1609273 1.725034 -2.3423632e+38
3.5637877 1.1545026 1.725034 -2.342311e+38
3.5637717 1.148078 1.725034 -2.3422589e+38
3.5637555 1.1416532 1.725034 -2.3554991e+38
3.5637393 1.1352284 1.725034 -2.3554469e+38
3.5637233 1.1288036 1.725034 -2.3819794e+38
3.5637071 1.1223789 1.725034 -2.3951676e+38
3.5967202 1.1275313 1.7297797 -2.3817715e+38
3.596704 1.1210437 1.7297797 -2.3685311e+38
3.5966876 1.1145561 1.7297797 -2.3818755e+38
3.5966713 1.1080686 1.7297797 -2.3951678e+38
3.5966551 1.101581 1.7297797 -2.3951161e+38
3.5966387 1.0950933 1.7297797 -2.3951159e+38
3.5966225 1.0886056 1.7297797 -2.3818236e+38
3.630635 1.0935928 1.7346692 -2.368635e+38
3.6656482 1.0987856 1.7397026 -2.3687388e+38
3.6656315 1.0921667 1.7397026 -2.3554467e+38
3.7006443 1.0971597 1.744736 -2.3686873e+38
3.7006276 1.090474 1.744736 -2.3687394e+38
3.7006106 1.0837883 1.744736 -2.38198e+38
3.7005939 1.0771025 1.744736 -2.3952723e+38
3.700577 1.070417 1.744736 -2.3819281e+38
3.7005603 1.0637313 1.744736 -2.3686871e+38
3.7005436 1.0570456 1.744736 -2.3023289e+38
3.7005267 1.0503598 1.744736 -2.2358148e+38
3.7365389 1.0550694 1.7499131 -2.2356582e+38
3.7004931 1.0369885 1.744736 -2.2353978e+38
3.7004764 1.0303029 1.744736 -2.2482741e+38
3.7004597 1.0236171 1.744736 -2.2484302e+38
3.7004428 1.0169314 1.744736 -2.2617749e+38
3.6653991 0.99950022 1.7397026 -2.2752237e+38
3.6653824 0.99288136 1.7397026 -2.2886207e+38
3.6653657 0.98626226 1.7397026 -2.3020174e+38
3.6653492 0.97964329 1.7397026 -2.3420506e+38
3.6653326 0.97302419 1.7397026 -2.382084e+38
3.6653159 0.96640509 1.7397026 -2.4618904e+38
3.6652994 0.95978624 1.7397026 -2.5284567e+38
3.6652827 0.95316714 1.7397026 -2.6082114e+38
3.7002919 0.95676023 1.744736 -2.688173e+38
3.6652493 0.93992907 1.7397026 -2.741654e+38
3.53227 1.3465518 1.7140683 -2.8614874e+38
3.532254 1.3401879 1.7140683 -2.8349545e+38
3.532238 1.3338243 1.7140683 -2.781941e+38
3.532222 1.3274604 1.7140683 -2.7421165e+38
3.5001726 1.3077979 1.7095274 -2.6756033e+38
3.5001566 1.3014952 1.7095274 -2.6222267e+38
3.4681077 1.2820156 1.7049865 -2.5818309e+38
3.4070289 1.2507716 1.6963302 -2.554676e+38
3.4070134 1.244646 1.6963302 -2.4348386e+38
3.3769677 1.2263386 1.6920731 -2.3285005e+38
3.3479228 1.2085494 1.6879579 -2.4080986e+38
3.3479075 1.2025361 1.6879579 -2.4873335e+38
3.3476963 1.1183497 1.6879579 -3.0572773e+38
3.3767085 1.1231731 1.6920731 -2.6591829e+38
3.4367495 1.139411 1.7005874 -2.2599016e+38
3.4997928 1.1565298 1.7095274 -2.2346733e+38
3.5318065 1.1620018 1.7140683 -2.2092319e+38
3.5638199 1.1673521 1.7186093 -2.2890381e+38
3.5638039 1.1609273 1.7186093 -2.3821879e+38
3.5637877 1.1545026 1.7186093 -2.3688435e+38
3.5637717 1.148078 1.7186093 -2.3553952e+38
3.5317266 1.130183 1.7140683 -2.3553948e+38
3.5637393 1.1352284 1.7186093 -2.368635e+38
3.5637233 1.1288036 1.7186093 -2.381823e+38
3.5637071 1.1223789 1.7186093 -2.4081997e+38
3.5967202 1.1275313 1.7232921 -2.395011e+38
3.596704 1.1210437 1.7232921 -2.3817191e+38
3.5966876 1.1145561 1.7232921 -2.3817713e+38
3.5966713 1.1080686 1.7232921 -2.3950638e+38
3.5966551 1.101581 1.7232921 -2.408408e+38
3.5966387 1.0950933 1.7232921 -2.4084078e+38
3.5966225 1.0886056 1.7232921 -2.3951153e+38
3.630635 1.0935928 1.7281169 -2.3951155e+38
3.6306186 1.0870403 1.7281169 -2.3686348e+38
3.6656315 1.0921667 1.7330836 -2.3553946e+38
3.6656151 1.0855476 1.7330836 -2.3553948e+38
3.7006276 1.090474 1.7380502 -2.3687394e+38
3.6655817 1.0723096 1.7330836 -2.3686877e+38
3.6655653 1.0656905 1.7330836 -2.3819281e+38
3.700577 1.070417 1.7380502 -2.3553435e+38
3.7005603 1.0637313 1.7380502 -2.3420506e+38
3.7005436 1.0570456 1.7380502 -2.2889845e+38
3.7005267 1.0503598 1.7380502 -2.2489513e+38
3.7365389 1.0550694 1.7431588 -2.2355546e+38
3.7004931 1.0369885 1.7380502 -2.2353463e+38
3.7004764 1.0303029 1.7380502 -2.248586e+38
3.7004597 1.0236171 1.7380502 -2.2618787e+38
3.7004428 1.0169314 1.7380502 -2.2751712e+38
3.6653991 0.99950022 1.7330836 -2.3019121e+38
3.6653824 0.99288136 1.7330836 -2.315205e+38
3.6653657 0.98626226 1.7330836 -2.3284979e+38
3.6653492 0.97964329 1.7330836 -2.3552908e+38
3.6653326 0.97302419 1.7330836 -2.3821357e+38
3.6653159 0.96640509 1.7330836 -2.46189e+38
3.6652994 0.95978624 1.7330836 -2.5417488e+38
3.6652827 0.95316714 1.7330836 -2.6082633e+38
3.7002919 0.95676023 1.7380502 -2.6748288e+38
3.6652493 0.93992907 1.7330836 -2.7153287e+38
3.53227 1.3465518 1.7077045 -2.8878638e+38
3.532254 1.3401879 1.7077045 -2.8748837e+38
3.532238 1.3338243 1.7077045 -2.821975e+38
3.532222 1.3274604 1.7077045 -2.7554096e+38
3.5001726 1.3077979 1.7032245 -2.7023443e+38
3.5001566 1.3014952 1.7032245 -2.6488115e+38
3.4681077 1.2820156 1.6987445 -2.6084674e+38
3.4370599 1.2630678 1.6944045 -2.5546746e+38
3.4070134 1.244646 1.6902045 -2.3946995e+38
3.3769677 1.2263386 1.6860045 -2.2217449e+38
3.3479228 1.2085494 1.6819445 -2.4210782e+38
3.3479075 1.2025361 1.6819445 -2.6217136e+38
3.3476963 1.1183497 1.6819445 nan
3.3767085 1.1231731 1.6860045 -3.350706e+38
3.4367495 1.139411 1.6944045 -2.3019651e+38
3.4997928 1.1565298 1.7032245 -2.1936012e+38
3.5318065 1.1620018 1.7077045 -2.0753201e+38
3.5638199 1.1673521 1.7121845 -2.2489499e+38
3.5638039 1.1609273 1.7121845 -2.4085108e+38
3.5637877 1.1545026 1.7121845 -2.3820836e+38
3.5637717 1.148078 1.7121845 -2.355395e+38
3.5637555 1.1416532 1.7121845 -2.3686871e+38
3.5637393 1.1352284 1.7121845 -2.3818751e+38
3.5637233 1.1288036 1.7121845 -2.3950633e+38
3.5637071 1.1223789 1.7121845 -2.4083554e+38
3.5967202 1.1275313 1.7168045 -2.3951149e+38
3.596704 1.1210437 1.7168045 -2.3817709e+38
3.5966876 1.1145561 1.7168045 -2.3950635e+38
3.5966713 1.1080686 1.7168045 -2.3950635e+38
3.5966551 1.101581 1.7168045 -2.4083558e+38
3.5966387 1.0950933 1.7168045 -2.4216481e+38
3.5966225 1.0886056 1.7168045 -2.4216481e+38
3.5966063 1.082118 1.7168045 -2.408408e+38
3.6306186 1.0870403 1.7215645 -2.3818753e+38
3.6306021 1.080488 1.7215645 -2.3420506e+38
3.6656151 1.0855476 1.7264645 -2.355395e+38
3.6655984 1.0789286 1.7264645 -2.3553952e+38
3.6655817 1.0723096 1.7264645 -2.3553954e+38
3.6655653 1.0656905 1.7264645 -2.3554473e+38
3.700577 1.070417 1.7313645 -2.3421031e+38
3.7005603 1.0637313 1.7313645 -2.3155701e+38
3.7005436 1.0570456 1.7313645 -2.289089e+38
3.7005267 1.0503598 1.7313645 -2.2490036e+38
3.70051 1.0436741 1.7313645 -2.248899e+38
3.7004931 1.0369885 1.7313645 -2.2354503e+38
3.7004764 1.0303029 1.7313645 -2.2620345e+38
3.7004597 1.0236171 1.7313645 -2.2752229e+38
3.6654155 1.0061193 1.7264645 -2.3017555e+38
3.6653991 0.99950022 1.7264645 -2.3151001e+38
3.6653824 0.99288136 1.7264645 -2.3416853e+38
3.6653657 0.98626226 1.7264645 -2.3550818e+38
3.6303225 0.96909791 1.7215645 -2.3684786e+38
3.6653326 0.97302419 1.7264645 -2.3819794e+38
3.6653159 0.96640509 1.7264645 -2.4617858e+38
3.6652994 0.95978624 1.7264645 -2.5417482e+38
3.6652827 0.95316714 1.7264645 -2.5948666e+38
3.7002919 0.95676023 1.7313645 -2.648659e+38
3.6652493 0.93992907 1.7264645 -2.6891074e+38
3.53227 1.3465518 1.7013407 -3.2201702e+38
3.532254 1.3401879 1.7013407 -3.0210994e+38
3.532238 1.3338243 1.7013407 -2.9013147e+38
3.532222 1.3274604 1.7013407 -2.7818394e+38
3.5001726 1.3077979 1.6969216 -2.75541e+38
3.5001566 1.3014952 1.6969216 -2.7286692e+38
3.4681077 1.2820156 1.6925026 -2.6614286e+38
3.4370599 1.2630678 1.6882217 -2.581154e+38
3.4070134 1.244646 1.6840788 -2.3279239e+38
3.3769677 1.2263386 1.6799359 -2.0881972e+38
3.3479228 1.2085494 1.6759312 -2.7538511e+38
3.3479075 1.2025361 1.6759312 nan
3.3476963 1.1183497 1.6759312 nan
3.347681 1.1123364 1.6759312 nan
3.4067214 1.1282578 1.6840788 nan
3.4997928 1.1565298 1.6969216 -3.115025e+38
3.5318065 1.1620018 1.7013407 -2.6330742e+38
3.5638199 1.1673521 1.7057598 -2.5005128e+38
3.5638039 1.1609273 1.7057598 -2.3682685e+38
3.5637877 1.1545026 1.7057598 -2.3685832e+38
3.5637717 1.148078 1.7057598 -2.3685313e+38
3.5637555 1.1416532 1.7057598 -2.368635e+38
3.5637393 1.1352284 1.7057598 -2.3552906e+38
3.5637233 1.1288036 1.7057598 -2.3552384e+38
3.5637071 1.1223789 1.7057598 -2.3684786e+38
3.5967202 1.1275313 1.7103169 -2.3685301e+38
3.596704 1.1210437 1.7103169 -2.3684786e+38
3.5966876 1.1145561 1.7103169 -2.3684788e+38
3.5966713 1.1080686 1.7103169 -2.381823e+38
3.5966551 1.101581 1.7103169 -2.3950633e+38
3.5966387 1.0950933 1.7103169 -2.4083039e+38
3.5966225 1.0886056 1.7103169 -2.408356e+38
3.5966063 1.082118 1.7103169 -2.395064e+38
3.6306186 1.0870403 1.7150121 -2.3818236e+38
3.6656315 1.0921667 1.7198455 -2.3552912e+38
3.6656151 1.0855476 1.7198455 -2.3553431e+38
3.6655984 1.0789286 1.7198455 -2.342051e+38
3.6655817 1.0723096 1.7198455 -2.3421551e+38
3.7005939 1.0771025 1.7246788 -2.3422589e+38
3.700577 1.070417 1.7246788 -2.342207e+38
3.7005603 1.0637313 1.7246788 -2.3422068e+38
3.7005436 1.0570456 1.7246788 -2.3155701e+38
3.7005267 1.0503598 1.7246788 -2.288829e+38
3.70051 1.0436741 1.7246788 -2.2621395e+38
3.7004931 1.0369885 1.7246788 -2.248743e+38
3.7004764 1.0303029 1.7246788 -2.2619828e+38
3.6654322 1.0127383 1.7198455 -2.2885152e+38
3.6654155 1.0061193 1.7198455 -2.3017553e+38
3.6303718 0.98875505 1.7150121 -2.3149961e+38
3.6653824 0.99288136 1.7198455 -2.3151521e+38
3.6653657 0.98626226 1.7198455 -2.3152565e+38
3.6303225 0.96909791 1.7150121 -2.3419453e+38
3.630306 0.96254545 1.7150121 -2.3687384e+38
3.6653159 0.96640509 1.7198455 -2.4353045e+38
3.6652994 0.95978624 1.7198455 -2.5020265e+38
3.6652827 0.95316714 1.7198455 -2.542164e+38
3.7002919 0.95676023 1.7246788 -2.5825606e+38
3.6652493 0.93992907 1.7198455 -2.6361457e+38
3.6652329 0.93330997 1.7198455 -2.6895745e+38
3.53227 1.3465518 1.6949769 nan
3.532254 1.3401879 1.6949769 -3.1668991e+38
3.532238 1.3338243 1.6949769 -2.980393e+38
3.532222 1.3274604 1.6949769 -2.7946639e+38
3.5322061 1.3210967 1.6949769 -2.8087347e+38
3.5001566 1.3014952 1.6906188 -2.808371e+38
3.4681077 1.2820156 1.6862607 -2.7140787e+38
3.4370599 1.2630678 1.6820388 -2.6073747e+38
3.4070134 1.244646 1.6779531 -2.2742347e+38
3.3769677 1.2263386 1.6738673 -1.9426585e+38
3.3479228 1.2085494 1.6699178 -3.0754141e+38
3.3479075 1.2025361 1.6699178 nan
3.347681 1.1123364 1.6699178 nan
3.3766932 1.1171045 1.6738673 nan
3.4997928 1.1565298 1.6906188 nan
3.5318065 1.1620018 1.6949769 -3.1806611e+38
3.5638199 1.1673521 1.699335 -2.7517178e+38
3.5638039 1.1609273 1.699335 -2.314685e+38
3.5637877 1.1545026 1.699335 -2.3554993e+38
3.5637717 1.148078 1.699335 -2.3819796e+38
3.5637555 1.1416532 1.699335 -2.3553948e+38
3.5637393 1.1352284 1.699335 -2.3287581e+38
3.5637233 1.1288036 1.699335 -2.3287579e+38
3.5967364 1.1340189 1.7038293 -2.3154133e+38
3.5967202 1.1275313 1.7038293 -2.3287054e+38
3.596704 1.1210437 1.7038293 -2.3419459e+38
3.5966876 1.1145561 1.7038293 -2.3551863e+38
3.5966713 1.1080686 1.7038293 -2.3684788e+38
3.5966551 1.101581 1.7038293 -2.3817193e+38
3.5966387 1.0950933 1.7038293 -2.3950638e+38
3.5966225 1.0886056 1.7038293 -2.3950642e+38
3.5966063 1.082118 1.7038293 -2.3817717e+38
3.6306186 1.0870403 1.7084597 -2.3817717e+38
3.6306021 1.080488 1.7084597 -2.3685315e+38
3.6656151 1.0855476 1.7132264 -2.3552916e+38
3.6655984 1.0789286 1.7132264 -2.3288107e+38
3.7006106 1.0837883 1.717993 -2.3289145e+38
3.7005939 1.0771025 1.717993 -2.3288624e+38
3.700577 1.070417 1.717993 -2.3421545e+38
3.7005603 1.0637313 1.717993 -2.3553946e+38
3.7005436 1.0570456 1.717993 -2.3420502e+38
3.7005267 1.0503598 1.717993 -2.315361e+38
3.70051 1.0436741 1.717993 -2.288672e+38
3.6654656 1.0259764 1.7132264 -2.2620351e+38
3.7004764 1.0303029 1.717993 -2.2752231e+38
3.6654322 1.0127383 1.7132264 -2.2885671e+38
3.6303883 0.99530739 1.7084597 -2.3018075e+38
3.6303718 0.98875505 1.7084597 -2.3018079e+38
3.6653824 0.99288136 1.7132264 -2.2887237e+38
3.6653657 0.98626226 1.7132264 -2.2754318e+38
3.6303225 0.96909791 1.7084597 -2.3153089e+38
3.630306 0.96254545 1.7084597 -2.3553944e+38
3.6653159 0.96640509 1.7132264 -2.4087203e+38
3.6652994 0.95978624 1.7132264 -2.4489099e+38
3.6652827 0.95316714 1.7132264 -2.4890995e+38
3.665266 0.94654816 1.7132264 -2.5162562e+38
3.6652493 0.93992907 1.7132264 -2.5832381e+38
3.6652329 0.93330997 1.7132264 -2.6364589e+38
3.7002413 0.93670315 1.717993 -2.7028682e+38
3.53227 1.3465518 1.6886131 nan
3.532254 1.3401879 1.6886131 nan
3.532238 1.3338243 1.6886131 nan
3.532222 1.3274604 1.6886131 nan
3.5322061 1.3210967 1.6886131 -3.0604049e+38
3.5001566 1.3014952 1.6843159 -2.6097654e+38
3.4681077 1.2820156 1.6800188 -2.6081558e+38
3.4370599 1.2630678 1.6758559 -2.6074782e+38
3.4370444 1.2568849 1.6758559 -2.2610974e+38
3.4069982 1.2385203 1.6718273 -1.9145698e+38
3.3769524 1.22027 1.6677988 -3.0620737e+38
3.3479075 1.2025361 1.6639045 nan
3.3478925 1.1965227 1.6639045 nan
3.3478775 1.1905094 1.6639045 nan
3.3476963 1.1183497 1.6639045 nan
3.347681 1.1123364 1.6639045 nan
3.4067214 1.1282578 1.6718273 nan
3.4677629 1.1446941 1.6800188 nan
3.5318065 1.1620018 1.6886131 -2.4505795e+38
3.5638199 1.1673521 1.6929102 -2.3678529e+38
3.5638039 1.1609273 1.6929102 -2.288413e+38
3.5637877 1.1545026 1.6929102 -2.3286555e+38
3.5637717 1.148078 1.6929102 -2.3686358e+38
3.5637555 1.1416532 1.6929102 -2.3287583e+38
3.5637393 1.1352284 1.6929102 -2.2888294e+38
3.5637233 1.1288036 1.6929102 -2.2888811e+38
3.5967364 1.1340189 1.6973417 -2.2756405e+38
3.6307502 1.1394593 1.7019074 -2.302121e+38
3.596704 1.1210437 1.6973417 -2.3153614e+38
3.5966876 1.1145561 1.6973417 -2.3286015e+38
3.5966713 1.1080686 1.6973417 -2.3418942e+38
3.5966551 1.101581 1.6973417 -2.3418944e+38
3.5966387 1.0950933 1.6973417 -2.355239e+38
3.5966225 1.0886056 1.6973417 -2.3418952e+38
3.5966063 1.082118 1.6973417 -2.341895e+38
3.6306186 1.0870403 1.7019074 -2.3418948e+38
3.6306021 1.080488 1.7019074 -2.3418952e+38
3.6656151 1.0855476 1.7066073 -2.3419476e+38
3.6655984 1.0789286 1.7066073 -2.3421031e+38
3.7006106 1.0837883 1.7113074 -2.3419989e+38
3.7005939 1.0771025 1.7113074 -2.3419466e+38
3.700577 1.070417 1.7113074 -2.3419979e+38
3.7005603 1.0637313 1.7113074 -2.3419977e+38
3.7005436 1.0570456 1.7113074 -2.3286533e+38
3.7005267 1.0503598 1.7113074 -2.3153087e+38
3.70051 1.0436741 1.7113074 -2.3285486e+38
3.7004931 1.0369885 1.7113074 -2.3417366e+38
3.7004764 1.0303029 1.7113074 -2.3417882e+38
3.6654322 1.0127383 1.7066073 -2.3418401e+38
3.6303883 0.99530739 1.7019074 -2.3152555e+38
3.6303718 0.98875505 1.7019074 -2.2884639e+38
3.6303554 0.98220259 1.7019074 -2.275328e+38
3.6303389 0.97565025 1.7019074 -2.275432e+38
3.6303225 0.96909791 1.7019074 -2.3153608e+38
3.630306 0.96254545 1.7019074 -2.3553946e+38
3.6302896 0.95599324 1.7019074 -2.3954284e+38
3.6302731 0.9494409 1.7019074 -2.4356182e+38
3.6302567 0.94288844 1.7019074 -2.4625155e+38
3.665266 0.94654816 1.7066073 -2.4898286e+38
3.6652493 0.93992907 1.7066073 -2.5561359e+38
3.6652329 0.93330997 1.7066073 -2.6365644e+38
3.6652162 0.92669106 1.7066073 -2.7030254e+38
3.5643039 1.3600944 1.6864855 nan
3.5642877 1.3536696 1.6864855 nan
3.532238 1.3338243 1.6822493 nan
3.532222 1.3274604 1.6822493 nan
3.5322061 1.3210967 1.6822493 -3.311553e+38
3.5001566 1.3014952 1.6780131 -2.4082506e+38
3.4681077 1.2820156 1.6737769 -2.5146421e+38
3.4680922 1.2757736 1.6737769 -2.6074782e+38
3.4370444 1.2568849 1.6696731 -2.2480132e+38
3.4370289 1.250702 1.6696731 -1.8896985e+38
3.4069827 1.2323946 1.6657016 -3.0630073e+38
3.3769372 1.2142015 1.6617303 nan
3.3769219 1.2081329 1.6617303 nan
3.3769066 1.2020643 1.6617303 nan
3.3478622 1.1844962 1.6578912 nan
3.3478472 1.1784829 1.6578912 nan
3.3478322 1.1724695 1.6578912 nan
3.3478019 1.1604428 1.6578912 nan
3.3477869 1.1544296 1.6578912 -3.223197e+38
3.3477716 1.1484163 1.6578912 nan
3.3477566 1.142403 1.6578912 nan
3.3476963 1.1183497 1.6578912 nan
3.347681 1.1123364 1.6578912 nan
3.4067214 1.1282578 1.6657016 nan
3.4677629 1.1446941 1.6737769 -3.3684277e+38
3.5318065 1.1620018 1.6822493 -1.7041287e+38
3.5638199 1.1673521 1.6864855 -1.9806584e+38
3.5638039 1.1609273 1.6864855 -2.2609948e+38
3.5637877 1.1545026 1.6864855 -2.3019665e+38
3.5637717 1.148078 1.6864855 -2.3419466e+38
3.5637555 1.1416532 1.6864855 -2.3020693e+38
3.5637393 1.1352284 1.6864855 -2.2489521e+38
3.5967529 1.1405065 1.6908541 -2.249056e+38
3.5967364 1.1340189 1.6908541 -2.2356596e+38
3.6307502 1.1394593 1.6953549 -2.2621401e+38
3.6307337 1.1329069 1.6953549 -2.2887245e+38
3.5966876 1.1145561 1.6908541 -2.3019647e+38
3.5966713 1.1080686 1.6908541 -2.3019649e+38
3.5966551 1.101581 1.6908541 -2.3019653e+38
3.5966387 1.0950933 1.6908541 -2.3019135e+38
3.5966225 1.0886056 1.6908541 -2.301862e+38
3.5966063 1.082118 1.6908541 -2.3019141e+38
3.59659 1.0756304 1.6908541 -2.3152066e+38
3.6306021 1.080488 1.6953549 -2.3152588e+38
3.6305857 1.0739356 1.6953549 -2.3285512e+38
3.6655984 1.0789286 1.6999884 -2.3418435e+38
3.7006106 1.0837883 1.7046217 -2.3417397e+38
3.7005939 1.0771025 1.7046217 -2.3418948e+38
3.700577 1.070417 1.7046217 -2.3418942e+38
3.7005603 1.0637313 1.7046217 -2.3286017e+38
3.7005436 1.0570456 1.7046217 -2.3152575e+38
3.7005267 1.0503598 1.7046217 -2.3019649e+38
3.70051 1.0436741 1.7046217 -2.3550816e+38
3.7004931 1.0369885 1.7046217 -2.4081982e+38
3.7004764 1.0303029 1.7046217 -2.4083017e+38
3.6654322 1.0127383 1.6999884 -2.3951658e+38
3.6303883 0.99530739 1.6953549 -2.3288088e+38
3.6303718 0.98875505 1.6953549 -2.2620351e+38
3.6303554 0.98220259 1.6953549 -2.2619823e+38
3.6303389 0.97565025 1.6953549 -2.2619832e+38
3.5962968 0.95885378 1.6908541 -2.3153091e+38
3.5962806 0.95236617 1.6908541 -2.3552906e+38
3.6302896 0.95599324 1.6953549 -2.3951684e+38
3.6302731 0.9494409 1.6953549 -2.4220136e+38
3.6302567 0.94288844 1.6953549 -2.4354107e+38
3.6302402 0.9363361 1.6953549 -2.4489117e+38
3.6302238 0.9297837 1.6953549 -2.5415433e+38
3.6302073 0.9232313 1.6953549 -2.6356281e+38
3.6301908 0.91667897 1.6953549 -2.7030765e+38
3.5643039 1.3600944 1.6800607 nan
3.5642877 1.3536696 1.6800607 nan
3.532238 1.3338243 1.6758854 nan
3.532222 1.3274604 1.6758854 nan
3.5322061 1.3210967 1.6758854 -3.0061387e+38
3.5001566 1.3014952 1.6717103 -2.1275012e+38
3.5001409 1.2951924 1.6717103 -2.3414267e+38
3.5001252 1.2888895 1.6717103 -2.5413283e+38
3.4680765 1.2695317 1.6675349 -2.3144231e+38
3.4370289 1.250702 1.6634903 -2.1011284e+38
3.4370134 1.2445192 1.6634903 -3.1285331e+38
3.4069674 1.226269 1.6595759 nan
3.4069519 1.2201432 1.6595759 nan
3.4069366 1.2140175 1.6595759 nan
3.3768914 1.1959957 1.6556616 nan
3.3478472 1.1784829 1.6518779 nan
3.3478322 1.1724695 1.6518779 nan
3.3477113 1.1243629 1.6518779 nan
3.3476963 1.1183497 1.6518779 nan
3.347681 1.1123364 1.6518779 nan
3.4067214 1.1282578 1.6595759 nan
3.4997928 1.1565298 1.6717103 nan
3.5318065 1.1620018 1.6758854 -3.0841832e+38
3.5638199 1.1673521 1.6800607 -2.539137e+38
3.5638039 1.1609273 1.6800607 -1.9943158e+38
3.5637877 1.1545026 1.6800607 -2.1686275e+38
3.5637717 1.148078 1.6800607 -2.3552382e+38
3.5637555 1.1416532 1.6800607 -2.3154129e+38
3.5637393 1.1352284 1.6800607 -2.2755363e+38
3.5637233 1.1288036 1.6800607 -2.262244e+38
3.5637071 1.1223789 1.6800607 -2.2621399e+38
3.5967202 1.1275313 1.6843665 -2.2754839e+38
3.6307337 1.1329069 1.6888026 -2.2887241e+38
3.5966876 1.1145561 1.6843665 -2.3019642e+38
3.5966713 1.1080686 1.6843665 -2.3152048e+38
3.5966551 1.101581 1.6843665 -2.315205e+38
3.5966387 1.0950933 1.6843665 -2.3283417e+38
3.5966225 1.0886056 1.6843665 -2.3283938e+38
3.5966063 1.082118 1.6843665 -2.3151022e+38
3.59659 1.0756304 1.6843665 -2.3284989e+38
3.6306021 1.080488 1.6888026 -2.328551e+38
3.6305857 1.0739356 1.6888026 -2.328551e+38
3.6655984 1.0789286 1.6933693 -2.3284474e+38
3.7006106 1.0837883 1.6979359 -2.3286034e+38
3.7005939 1.0771025 1.6979359 -2.3154143e+38
3.700577 1.070417 1.6979359 -2.3153618e+38
3.7005603 1.0637313 1.6979359 -2.3153099e+38
3.7005436 1.0570456 1.6979359 -2.3020174e+38
3.7005267 1.0503598 1.6979359 -2.3019133e+38
3.70051 1.0436741 1.6979359 -2.3550821e+38
3.7004931 1.0369885 1.6979359 -2.4080948e+38
3.7004764 1.0303029 1.6979359 -2.4880554e+38
3.6654322 1.0127383 1.6933693 -2.5682256e+38
3.6303883 0.99530739 1.6888026 -2.7550976e+38
3.6303718 0.98875505 1.6888026 -2.9530777e+38
3.6303554 0.98220259 1.6888026 -2.5144302e+38
3.6653657 0.98626226 1.6933693 -2.0755791e+38
3.6303225 0.96909791 1.6888026 -2.2088151e+38
3.630306 0.96254545 1.6888026 -2.3551865e+38
3.6302896 0.95599324 1.6888026 -2.3819274e+38
3.6302731 0.9494409 1.6888026 -2.4219089e+38
3.6302567 0.94288844 1.6888026 -2.4487018e+38
3.6302402 0.9363361 1.6888026 -2.4883714e+38
3.6302238 0.9297837 1.6888026 -2.5549889e+38
3.6302073 0.9232313 1.6888026 -2.6347438e+38
3.6301908 0.91667897 1.6888026 -2.7022447e+38
3.5002358 1.3330094 1.6654074 nan
3.5002201 1.3267065 1.6654074 nan
3.532238 1.3338243 1.6695217 nan
3.532222 1.3274604 1.6695217 nan
3.5322061 1.3210967 1.6695217 -2.711889e+38
3.5001566 1.3014952 1.6654074 -1.8484656e+38
3.5001409 1.2951924 1.6654074 -2.1688859e+38
3.5001252 1.2888895 1.6654074 -2.4743994e+38
3.5001092 1.2825866 1.6654074 -2.3938659e+38
3.4680607 1.2632899 1.661293 -2.3019673e+38
3.4370134 1.2445192 1.6573074 -3.1955149e+38
3.4369979 1.2383363 1.6573074 nan
3.4369822 1.2321535 1.6573074 nan
3.4369667 1.2259707 1.6573074 nan
3.4069211 1.2078918 1.6534503 nan
3.3768761 1.1899271 1.6495931 nan
3.3478322 1.1724695 1.6458645 nan
3.3477113 1.1243629 1.6458645 nan
3.3476963 1.1183497 1.6458645 nan
3.3767085 1.1231731 1.6495931 nan
3.4367495 1.139411 1.6573074 nan
3.4997928 1.1565298 1.6654074 nan
3.5318065 1.1620018 1.6695217 nan
3.5638199 1.1673521 1.673636 -3.0974241e+38
3.5638039 1.1609273 1.673636 -1.7155477e+38
3.5637877 1.1545026 1.673636 -2.0494657e+38
3.5637717 1.148078 1.673636 -2.3686354e+38
3.5637555 1.1416532 1.673636 -2.3288098e+38
3.5637393 1.1352284 1.673636 -2.2888811e+38
3.5637233 1.1288036 1.673636 -2.2888811e+38
3.5967364 1.1340189 1.6778789 -2.2755367e+38
3.6307502 1.1394593 1.6822503 -2.2755365e+38
3.6307337 1.1329069 1.6822503 -2.2754841e+38
3.5966876 1.1145561 1.6778789 -2.3020166e+38
3.5966713 1.1080686 1.6778789 -2.3153089e+38
3.5966551 1.101581 1.6778789 -2.3417898e+38
3.5966387 1.0950933 1.6778789 -2.3550823e+38
3.5966225 1.0886056 1.6778789 -2.3417385e+38
3.5966063 1.082118 1.6778789 -2.3284983e+38
3.6306186 1.0870403 1.6822503 -2.3418429e+38
3.6306021 1.080488 1.6822503 -2.3418429e+38
3.6656151 1.0855476 1.6867502 -2.3286028e+38
3.6655984 1.0789286 1.6867502 -2.3153626e+38
3.6655817 1.0723096 1.6867502 -2.3021225e+38
3.7005939 1.0771025 1.6912502 -2.2888819e+38
3.700577 1.070417 1.6912502 -2.2888298e+38
3.7005603 1.0637313 1.6912502 -2.2888813e+38
3.7005436 1.0570456 1.6912502 -2.2888811e+38
3.7005267 1.0503598 1.6912502 -2.288777e+38
3.70051 1.0436741 1.6912502 -2.3418938e+38
3.7004931 1.0369885 1.6912502 -2.3949579e+38
3.7004764 1.0303029 1.6912502 -2.5676525e+38
3.6654322 1.0127383 1.6867502 -2.7285149e+38
3.6303883 0.99530739 1.6822503 -3.183625e+38
3.6303718 0.98875505 1.6822503 nan
3.6303554 0.98220259 1.6822503 -2.7538486e+38
3.6653657 0.98626226 1.6867502 -1.8759363e+38
3.6303225 0.96909791 1.6822503 -2.1157178e+38
3.630306 0.96254545 1.6822503 -2.3419987e+38
3.6302896 0.95599324 1.6822503 -2.3820838e+38
3.6302731 0.9494409 1.6822503 -2.4221696e+38
3.6302567 0.94288844 1.6822503 -2.4755997e+38
3.6302402 0.9363361 1.6822503 -2.5153208e+38
3.6302238 0.9297837 1.6822503 -2.581938e+38
3.5961828 0.91344053 1.6778789 -2.6349511e+38
3.6301908 0.91667897 1.6822503 -2.7148084e+38
3.5002358 1.3330094 1.6591046 nan
3.5002201 1.3267065 1.6591046 nan
3.532238 1.3338243 1.6631578 nan
3.532222 1.3274604 1.6631578 nan
3.5322061 1.3210967 1.6631578 -3.0056148e+38
3.5321898 1.3147328 1.6631578 -2.2997265e+38
3.5321739 1.308369 1.6631578 -2.3943863e+38
3.5321579 1.3020052 1.6631578 -2.5010359e+38
3.5001092 1.2825866 1.6591046 -2.3280282e+38
3.5000935 1.2762837 1.6591046 -2.1552859e+38
3.468045 1.257048 1.6550512 -2.875307e+38
3.4680295 1.2508061 1.6550512 nan
3.4680138 1.2445642 1.6550512 nan
3.4369667 1.2259707 1.6511245 nan
3.4369512 1.219788 1.6511245 nan
3.4069059 1.2017661 1.6473246 nan
3.4068904 1.1956403 1.6473246 nan
3.3478169 1.1664562 1.6398512 nan
3.3477869 1.1544296 1.6398512 nan
3.3477263 1.1303763 1.6398512 nan
3.3477113 1.1243629 1.6398512 nan
3.3767238 1.1292417 1.6435245 nan
3.436765 1.1455939 1.6511245 nan
3.4677787 1.1509359 1.6550512 nan
3.5318224 1.1683657 1.6631578 nan
3.5318065 1.1620018 1.6631578 nan
3.5638199 1.1673521 1.6672112 -2.9806086e+38
3.5638039 1.1609273 1.6672112 -1.7414116e+38
3.5637877 1.1545026 1.6672112 -2.0624996e+38
3.5637717 1.148078 1.6672112 -2.3821364e+38
3.5967853 1.1534816 1.6713912 -2.3422066e+38
3.5967691 1.1469941 1.6713912 -2.3022259e+38
3.5967529 1.1405065 1.6713912 -2.2889334e+38
3.5967364 1.1340189 1.6713912 -2.275589e+38
3.6307502 1.1394593 1.6756978 -2.2622965e+38
3.6657646 1.145119 1.6801312 -2.2489519e+38
3.6307173 1.1263545 1.6756978 -2.2889322e+38
3.6307008 1.1198021 1.6756978 -2.3155689e+38
3.6306844 1.1132498 1.6756978 -2.3287573e+38
3.6306679 1.1066974 1.6756978 -2.3551865e+38
3.6306515 1.1001451 1.6756978 -2.3551867e+38
3.6656649 1.1054047 1.6801312 -2.3551348e+38
3.6656482 1.0987856 1.6801312 -2.368479e+38
3.6656315 1.0921667 1.6801312 -2.3684273e+38
3.6656151 1.0855476 1.6801312 -2.3419468e+38
3.6655984 1.0789286 1.6801312 -2.3154662e+38
3.7006106 1.0837883 1.6845645 -2.3022259e+38
3.7005939 1.0771025 1.6845645 -2.2889857e+38
3.700577 1.070417 1.6845645 -2.288934e+38
3.7365897 1.0753323 1.6891246 -2.2889855e+38
3.7365727 1.068578 1.6891246 -2.3021736e+38
3.7365558 1.0618237 1.6891246 -2.3021734e+38
3.7365389 1.0550694 1.6891246 -2.3419459e+38
3.7004931 1.0369885 1.6845645 -2.3818212e+38
3.7004764 1.0303029 1.6845645 -2.3548194e+38
3.6654322 1.0127383 1.6801312 -2.3286074e+38
3.6654155 1.0061193 1.6801312 -3.0766706e+38
3.6303718 0.98875505 1.6756978 nan
3.6303554 0.98220259 1.6756978 -2.8215059e+38
3.6303389 0.97565025 1.6756978 -1.8214182e+38
3.6303225 0.96909791 1.6756978 -2.0089126e+38
3.630306 0.96254545 1.6756978 -2.2092323e+38
3.6302896 0.95599324 1.6756978 -2.3423114e+38
3.6302731 0.9494409 1.6756978 -2.4755476e+38
3.6302567 0.94288844 1.6756978 -2.7819469e+38
3.6302402 0.9363361 1.6756978 -3.0735458e+38
3.6302238 0.9297837 1.6756978 -2.7812191e+38
3.5961828 0.91344053 1.6713912 -2.4886318e+38
3.5002358 1.3330094 1.6528016 nan
3.5002201 1.3267065 1.6528016 nan
3.5642717 1.3472449 1.6607864 nan
3.532222 1.3274604 1.6567941 nan
3.5322061 1.3210967 1.6567941 -3.2987242e+38
3.5321898 1.3147328 1.6567941 -2.7532759e+38
3.5321739 1.308369 1.6567941 -2.6344785e+38
3.5321579 1.3020052 1.6567941 -2.5145884e+38
3.5321419 1.2956415 1.6567941 -2.2619314e+38
3.5321259 1.2892777 1.6567941 -1.9960873e+38
3.5000775 1.2699809 1.6528016 -2.5684877e+38
3.5000618 1.2636782 1.6528016 -3.12864e+38
3.500046 1.2573754 1.6528016 nan
3.467998 1.2383224 1.6488093 nan
3.4369512 1.219788 1.6449417 nan
3.4369357 1.213605 1.6449417 nan
3.4068904 1.1956403 1.6411988 nan
3.3478169 1.1664562 1.6338378 nan
3.3477869 1.1544296 1.6338378 nan
3.3477263 1.1303763 1.6338378 nan
3.376739 1.1353103 1.6374559 nan
3.4067521 1.1405092 1.6411988 nan
3.4677944 1.1571778 1.6488093 nan
3.4998085 1.1628327 1.6528016 nan
3.5318224 1.1683657 1.6567941 nan
3.5318065 1.1620018 1.6567941 nan
3.5317905 1.1556381 1.6567941 -2.8712515e+38
3.5638039 1.1609273 1.6607864 -1.7687713e+38
3.5637877 1.1545026 1.6607864 -2.0902266e+38
3.5637717 1.148078 1.6607864 -2.3955327e+38
3.5967853 1.1534816 1.6649035 -2.3556031e+38
3.5967691 1.1469941 1.6649035 -2.3023819e+38
3.5967529 1.1405065 1.6649035 -2.2890896e+38
3.5967364 1.1340189 1.6649035 -2.2625046e+38
3.6307502 1.1394593 1.6691455 -2.2491083e+38
3.6307337 1.1329069 1.6691455 -2.2225752e+38
3.6307173 1.1263545 1.6691455 -2.2758997e+38
3.6307008 1.1198021 1.6691455 -2.3157248e+38
3.6306844 1.1132498 1.6691455 -2.3290175e+38
3.6306679 1.1066974 1.6691455 -2.3421021e+38
3.6306515 1.1001451 1.6691455 -2.368635e+38
3.6656649 1.1054047 1.6735121 -2.3818751e+38
3.6656482 1.0987856 1.6735121 -2.3951674e+38
3.6656315 1.0921667 1.6735121 -2.3950638e+38
3.6656151 1.0855476 1.6735121 -2.3551873e+38
3.7006276 1.090474 1.6778789 -2.3022259e+38
3.7006106 1.0837883 1.6778789 -2.3023817e+38
3.7005939 1.0771025 1.6778789 -2.2889855e+38
3.700577 1.070417 1.6778789 -2.2889336e+38
3.7005603 1.0637313 1.6778789 -2.2888813e+38
3.7365727 1.068578 1.6823702 -2.3020695e+38
3.7365558 1.0618237 1.6823702 -2.3153614e+38
3.7365389 1.0550694 1.6823702 -2.3418936e+38
3.7004931 1.0369885 1.6778789 -2.3548715e+38
3.7004764 1.0303029 1.6778789 -2.1412578e+38
3.6654322 1.0127383 1.6735121 -1.9301487e+38
3.6654155 1.0061193 1.6735121 -2.9712659e+38
3.6303718 0.98875505 1.6691455 nan
3.6303554 0.98220259 1.6691455 -2.8876584e+38
3.6303389 0.97565025 1.6691455 -1.7559423e+38
3.5962968 0.95885378 1.6649035 -1.9157584e+38
3.5962806 0.95236617 1.6649035 -2.0754215e+38
3.6302896 0.95599324 1.6691455 -2.302377e+38
3.5962479 0.93939096 1.6649035 -2.5296004e+38
3.6302567 0.94288844 1.6691455 -3.0897539e+38
3.5962152 0.92641568 1.6649035 nan
3.596199 0.91992813 1.6649035 -2.9806569e+38
3.5961828 0.91344053 1.6649035 -2.3291768e+38
3.5002358 1.3330094 1.6464988 nan
3.5002201 1.3267065 1.6464988 nan
3.5642717 1.3472449 1.6543617 nan
3.5642555 1.3408201 1.6543617 nan
3.5322061 1.3210967 1.6504302 -3.259163e+38
3.5321898 1.3147328 1.6504302 -2.7935184e+38
3.5321739 1.308369 1.6504302 -2.6476152e+38
3.5321579 1.3020052 1.6504302 -2.4880566e+38
3.5641749 1.3086964 1.6543617 -2.3150496e+38
3.5321259 1.2892777 1.6504302 -2.1417285e+38
3.5000775 1.2699809 1.6464988 -2.3288048e+38
3.532094 1.2765501 1.6504302 -2.5292353e+38
3.500046 1.2573754 1.6464988 -3.1024726e+38
3.50003 1.2510724 1.6464988 nan
3.4679823 1.2320805 1.6425674 nan
3.4369357 1.213605 1.6387588 nan
3.4369202 1.2074221 1.6387588 nan
3.3478169 1.1664562 1.6278245 nan
3.3477263 1.1303763 1.6278245 nan
3.4067674 1.1466349 1.6350731 nan
3.4367805 1.1517766 1.6387588 nan
3.4998245 1.1691356 1.6464988 nan
3.4998085 1.1628327 1.6464988 nan
3.5318224 1.1683657 1.6504302 nan
3.5318065 1.1620018 1.6504302 nan
3.5638199 1.1673521 1.6543617 -2.8069115e+38
3.5638039 1.1609273 1.6543617 -1.7546446e+38
3.5637877 1.1545026 1.6543617 -2.0757923e+38
3.5637717 1.148078 1.6543617 -2.3952735e+38
3.5967853 1.1534816 1.6584159 -2.3422072e+38
3.5967691 1.1469941 1.6584159 -2.302538e+38
3.5967529 1.1405065 1.6584159 -2.2757977e+38
3.5967364 1.1340189 1.6584159 -2.2627127e+38
3.6307502 1.1394593 1.6625931 -2.2491083e+38
3.6657646 1.145119 1.6668931 -2.2358677e+38
3.6307173 1.1263545 1.6625931 -2.2491596e+38
3.6307008 1.1198021 1.6625931 -2.2759003e+38
3.6306844 1.1132498 1.6625931 -2.3023295e+38
3.6306679 1.1066974 1.6625931 -2.3289141e+38
3.6306515 1.1001451 1.6625931 -2.3287581e+38
3.6656649 1.1054047 1.6668931 -2.3419985e+38
3.6656482 1.0987856 1.6668931 -2.3551867e+38
3.6656315 1.0921667 1.6668931 -2.3684794e+38
3.6656151 1.0855476 1.6668931 -2.3286028e+38
3.6655984 1.0789286 1.6668931 -2.2889855e+38
3.7006106 1.0837883 1.6711931 -2.2888815e+38
3.7005939 1.0771025 1.6711931 -2.2888296e+38
3.700577 1.070417 1.6711931 -2.2887774e+38
3.7005603 1.0637313 1.6711931 -2.2887253e+38
3.7365727 1.068578 1.6756159 -2.3019653e+38
3.7365558 1.0618237 1.6756159 -2.3019649e+38
3.7365389 1.0550694 1.6756159 -2.3284971e+38
3.7004931 1.0369885 1.6711931 -2.3550778e+38
3.7004764 1.0303029 1.6711931 -2.1146706e+38
3.6654322 1.0127383 1.6668931 -1.8612971e+38
3.6654155 1.0061193 1.6668931 -2.9165379e+38
3.5963457 0.97831661 1.6584159 nan
3.5963295 0.971829 1.6584159 -3.1284278e+38
3.596313 0.96534139 1.6584159 -2.2864385e+38
3.5962968 0.95885378 1.6584159 -2.2602107e+38
3.5962806 0.95236617 1.6584159 -2.2332622e+38
3.5962641 0.94587857 1.6584159 -2.8211856e+38
3.5962479 0.93939096 1.6584159 -3.3937554e+38
3.5962317 0.93290335 1.6584159 nan
3.5962152 0.92641568 1.6584159 nan
3.596199 0.91992813 1.6584159 nan
3.5961828 0.91344053 1.6584159 -3.0736487e+38
3.4682019 1.3194668 1.6363255 nan
3.5002201 1.3267065 1.640196 nan
3.5642717 1.3472449 1.6479368 nan
3.5642555 1.3408201 1.6479368 nan
3.5322061 1.3210967 1.6440665 -3.219131e+38
3.5321898 1.3147328 1.6440665 -2.8334995e+38
3.5321739 1.308369 1.6440665 -2.6478233e+38
3.5321579 1.3020052 1.6440665 -2.4615241e+38
3.5641749 1.3086964 1.6479368 -2.3817189e+38
3.5321259 1.2892777 1.6440665 -2.2884643e+38
3.53211 1.2829139 1.6440665 -2.1023194e+38
3.532094 1.2765501 1.6440665 -1.9171149e+38
3.500046 1.2573754 1.640196 -2.7163179e+38
3.50003 1.2510724 1.640196 nan
3.4679823 1.2320805 1.6363255 nan
3.4679668 1.2258387 1.6363255 nan
3.4369202 1.2074221 1.632576 nan
3.3477113 1.1243629 1.6218112 nan
3.4367805 1.1517766 1.632576 nan
3.4998245 1.1691356 1.640196 nan
3.4998085 1.1628327 1.640196 nan
3.5318224 1.1683657 1.6440665 nan
3.5318065 1.1620018 1.6440665 nan
3.5638199 1.1673521 1.6479368 -2.7516097e+38
3.5638039 1.1609273 1.6479368 -1.7287846e+38
3.5637877 1.1545026 1.6479368 -2.0630703e+38
3.5637717 1.148078 1.6479368 -2.3818763e+38
3.5967853 1.1534816 1.6519283 -2.3419468e+38
3.5967691 1.1469941 1.6519283 -2.2888292e+38
3.5967529 1.1405065 1.6519283 -2.2754326e+38
3.5967364 1.1340189 1.6519283 -2.2488996e+38
3.6307502 1.1394593 1.6560407 -2.2487955e+38
3.6307337 1.1329069 1.6560407 -2.2355552e+38
3.6307173 1.1263545 1.6560407 -2.2355033e+38
3.6307008 1.1198021 1.6560407 -2.2223152e+38
3.6306844 1.1132498 1.6560407 -2.2621925e+38
3.6656981 1.1186427 1.660274 -2.3020693e+38
3.6656816 1.1120238 1.660274 -2.3019655e+38
3.6656649 1.1054047 1.660274 -2.2886213e+38
3.6656482 1.0987856 1.660274 -2.3150503e+38
3.6656315 1.0921667 1.660274 -2.3283945e+38
3.7006443 1.0971597 1.6645074 -2.3018101e+38
3.7006276 1.090474 1.6645074 -2.2620369e+38
3.7006106 1.0837883 1.6645074 -2.2752771e+38
3.7005939 1.0771025 1.6645074 -2.275329e+38
3.700577 1.070417 1.6645074 -2.2885691e+38
3.7365897 1.0753323 1.6688616 -2.2885689e+38
3.7005436 1.0570456 1.6645074 -2.2885168e+38
3.7365558 1.0618237 1.6688616 -2.2885683e+38
3.7365389 1.0550694 1.6688616 -2.3283411e+38
3.7004931 1.0369885 1.6645074 -2.354663e+38
3.7004764 1.0303029 1.6645074 -2.0744836e+38
3.6654322 1.0127383 1.660274 -1.7962362e+38
3.6303883 0.99530739 1.6560407 -2.8636243e+38
3.5963457 0.97831661 1.6519283 nan
3.5963295 0.971829 1.6519283 -3.369668e+38
3.596313 0.96534139 1.6519283 -2.820624e+38
3.5962968 0.95885378 1.6519283 -2.6054449e+38
3.5962806 0.95236617 1.6519283 -2.3942269e+38
3.5962641 0.94587857 1.6519283 -3.3287412e+38
3.5962479 0.93939096 1.6519283 nan
3.5962317 0.93290335 1.6519283 nan
3.5962152 0.92641568 1.6519283 nan
3.596199 0.91992813 1.6519283 nan
3.5961828 0.91344053 1.6519283 nan
3.4682019 1.3194668 1.6300836 nan
3.532254 1.3401879 1.6377026 nan
3.5642717 1.3472449 1.6415122 nan
3.5642555 1.3408201 1.6415122 nan
3.5642393 1.3343954 1.6415122 -3.1258779e+38
3.5642233 1.3279707 1.6415122 -2.7001619e+38
3.5642071 1.321546 1.6415122 -2.5942912e+38
3.5321579 1.3020052 1.6377026 -2.4879012e+38
3.5641749 1.3086964 1.6415122 -2.4082516e+38
3.5321259 1.2892777 1.6377026 -2.3286022e+38
3.53211 1.2829139 1.6377026 -2.1952642e+38
3.532094 1.2765501 1.6377026 -2.0752197e+38
3.500046 1.2573754 1.633893 -2.4491184e+38
3.467998 1.2383224 1.6300836 -2.8226573e+38
3.4679823 1.2320805 1.6300836 -2.9160718e+38
3.4369357 1.213605 1.6263931 -2.99697e+38
3.4369202 1.2074221 1.6263931 nan
3.376739 1.1353103 1.6192503 nan
3.4367805 1.1517766 1.6263931 nan
3.4998245 1.1691356 1.633893 nan
3.4998085 1.1628327 1.633893 nan
3.5318224 1.1683657 1.6377026 nan
3.5318065 1.1620018 1.6377026 -3.0925024e+38
3.5638199 1.1673521 1.6415122 -2.4347199e+38
3.5638039 1.1609273 1.6415122 -1.7813284e+38
3.5637877 1.1545026 1.6415122 -2.0755308e+38
3.5637717 1.148078 1.6415122 -2.3816159e+38
3.5967853 1.1534816 1.6454407 -2.3417902e+38
3.5967691 1.1469941 1.6454407 -2.315049e+38
3.5967529 1.1405065 1.6454407 -2.2885673e+38
3.5967364 1.1340189 1.6454407 -2.2751712e+38
3.6307502 1.1394593 1.6494883 -2.2619825e+38
3.6657646 1.145119 1.6536551 -2.2485868e+38
3.6307173 1.1263545 1.6494883 -2.2353986e+38
3.6307008 1.1198021 1.6494883 -2.2352954e+38
3.6657147 1.1252618 1.6536551 -2.2486919e+38
3.6656981 1.1186427 1.6536551 -2.2752245e+38
3.6656816 1.1120238 1.6536551 -2.2752765e+38
3.6656649 1.1054047 1.6536551 -2.2752249e+38
3.6656482 1.0987856 1.6536551 -2.2617771e+38
3.6656315 1.0921667 1.6536551 -2.248381e+38
3.6656151 1.0855476 1.6536551 -2.2352964e+38
3.6655984 1.0789286 1.6536551 -2.2352962e+38
3.7006106 1.0837883 1.6578217 -2.24864e+38
3.7005939 1.0771025 1.6578217 -2.2619842e+38
3.700577 1.070417 1.6578217 -2.261932e+38
3.7005603 1.0637313 1.6578217 -2.2618799e+38
3.7005436 1.0570456 1.6578217 -2.2486394e+38
3.7005267 1.0503598 1.6578217 -2.2486392e+38
3.70051 1.0436741 1.6578217 -2.2619312e+38
3.7004931 1.0369885 1.6578217 -2.2885136e+38
3.7004764 1.0303029 1.6578217 -2.0615041e+38
3.6654322 1.0127383 1.6536551 -1.8343462e+38
3.6654155 1.0061193 1.6536551 -2.8226009e+38
3.5963457 0.97831661 1.6454407 nan
3.5963295 0.971829 1.6454407 nan
3.596313 0.96534139 1.6454407 -3.1272833e+38
3.5962968 0.95885378 1.6454407 -3.0590423e+38
3.5962806 0.95236617 1.6454407 -2.9778445e+38
3.5962641 0.94587857 1.6454407 nan
3.5962479 0.93939096 1.6454407 nan
3.5962317 0.93290335 1.6454407 nan
3.5962152 0.92641568 1.6454407 nan
3.596199 0.91992813 1.6454407 nan
3.5961828 0.91344053 1.6454407 nan
3.4682019 1.3194668 1.6238416 nan
3.5002201 1.3267065 1.6275902 nan
3.5642717 1.3472449 1.6350874 nan
3.5642555 1.3408201 1.6350874 nan
3.5642393 1.3343954 1.6350874 -3.0458123e+38
3.5642233 1.3279707 1.6350874 -2.554258e+38
3.5642071 1.321546 1.6350874 -2.5279336e+38
3.5321579 1.3020052 1.6313388 -2.5012975e+38
3.5641749 1.3086964 1.6350874 -2.4348367e+38
3.5321259 1.2892777 1.6313388 -2.3548762e+38
3.53211 1.2829139 1.6313388 -2.2882598e+38
3.532094 1.2765501 1.6313388 -2.2225268e+38
3.500046 1.2573754 1.6275902 -2.1822877e+38
3.467998 1.2383224 1.6238416 -2.1428262e+38
3.4679823 1.2320805 1.6238416 -2.2491125e+38
3.4679668 1.2258387 1.6238416 -2.3427299e+38
3.4369202 1.2074221 1.6202102 -2.9948828e+38
3.3478169 1.1664562 1.6097845 nan
3.376739 1.1353103 1.6131816 nan
3.4678102 1.1634197 1.6238416 nan
3.4998245 1.1691356 1.6275902 nan
3.5318384 1.1747295 1.6313388 nan
3.5318224 1.1683657 1.6313388 nan
3.5318065 1.1620018 1.6313388 -2.4119474e+38
3.5638199 1.1673521 1.6350874 -2.1267648e+38
3.5638039 1.1609273 1.6350874 -1.8354319e+38
3.5637877 1.1545026 1.6350874 -2.1026861e+38
3.5637717 1.148078 1.6350874 -2.3684794e+38
3.5967853 1.1534816 1.6389531 -2.3551348e+38
3.5967691 1.1469941 1.6389531 -2.3284973e+38
3.5967529 1.1405065 1.6389531 -2.3151004e+38
3.5967364 1.1340189 1.6389531 -2.3018598e+38
3.6307502 1.1394593 1.642936 -2.2752752e+38
3.6657646 1.145119 1.647036 -2.2486907e+38
3.6307173 1.1263545 1.642936 -2.2487428e+38
3.6307008 1.1198021 1.642936 -2.2353469e+38
3.6657147 1.1252618 1.647036 -2.235399e+38
3.6656981 1.1186427 1.647036 -2.2352952e+38
3.6656816 1.1120238 1.647036 -2.2485874e+38
3.6656649 1.1054047 1.647036 -2.2617763e+38
3.6656482 1.0987856 1.647036 -2.2216402e+38
3.6656315 1.0921667 1.647036 -2.1687305e+38
3.6656151 1.0855476 1.647036 -2.1821784e+38
3.6655984 1.0789286 1.647036 -2.1954704e+38
3.6655817 1.0723096 1.647036 -2.2220548e+38
3.6655653 1.0656905 1.647036 -2.2353471e+38
3.700577 1.070417 1.6511359 -2.2352952e+38
3.7005603 1.0637313 1.6511359 -2.2353469e+38
3.7005436 1.0570456 1.6511359 -2.2220544e+38
3.7005267 1.0503598 1.6511359 -2.19547e+38
3.70051 1.0436741 1.6511359 -2.2087623e+38
3.7004931 1.0369885 1.6511359 -2.2219497e+38
3.7004764 1.0303029 1.6511359 -2.0486818e+38
3.6654322 1.0127383 1.647036 -1.862905e+38
3.6303883 0.99530739 1.642936 -2.782257e+38
3.5963457 0.97831661 1.6389531 nan
