# .PCD v0.7 - Point Cloud Data file format
VERSION 0.7
FIELDS x y z rgb
SIZE 4 4 4 4
TYPE F F F F
COUNT 1 1 1 1
WIDTH 1069
HEIGHT 1
VIEWPOINT 0 0 0 1 0 0 0
POINTS 1069
DATA ascii
3.2390075 0.99382168 1.5097531 -2.5555617e+38
3.2389936 0.98801976 1.5097531 -2.5289246e+38
3.2389796 0.98221797 1.5097531 -2.5156321e+38
3.2389657 0.97641605 1.5097531 -2.5023396e+38
3.2389517 0.97061414 1.5097531 -2.5024435e+38
3.2389379 0.96481222 1.5097531 -2.5156317e+38
3.2389238 0.95901042 1.5097531 -2.528924e+38
3.23891 0.95320851 1.5097531 -2.5288202e+38
3.2388959 0.94740659 1.5097531 -2.5289763e+38
3.2388821 0.94160479 1.5097531 -2.5423207e+38
3.238868 0.93580288 1.5097531 -2.5424248e+38
3.2388542 0.93000096 1.5097531 -2.5423211e+38
3.2388401 0.92419904 1.5097531 -2.5557175e+38
3.2388263 0.91839713 1.5097531 -2.5955945e+38
3.2388122 0.91259533 1.5097531 -2.6489717e+38
3.2387984 0.90679342 1.5097531 -2.7152778e+38
3.265805 0.90959233 1.5121446 -2.7817919e+38
3.2657909 0.90373898 1.5121446 -2.7817406e+38
3.2937982 0.90669835 1.5146245 -2.7816376e+38
3.321805 0.90955096 1.5171045 -2.7951381e+38
3.3217907 0.90359098 1.5171045 -2.821775e+38
3.3217764 0.89763099 1.5171045 -2.8488792e+38
3.3497827 0.90027034 1.5195845 -2.8888597e+38
3.3217478 0.88571107 1.5171045 -2.928996e+38
3.3497539 0.88824373 1.5195845 -2.9690284e+38
3.0864615 1.1828815 1.4906912 -2.5806859e+38
3.0864482 1.1773709 1.4906912 -2.6071666e+38
3.0864351 1.1718605 1.4906912 -2.6336971e+38
3.0864217 1.16635 1.4906912 -2.6195718e+38
3.0864086 1.1608396 1.4906912 -2.5943421e+38
3.0863953 1.155329 1.4906912 -2.582301e+38
3.0863819 1.1498187 1.4906912 -2.5688006e+38
3.0863688 1.1443082 1.4906912 -2.5689041e+38
3.0863554 1.1387978 1.4906912 -2.5557678e+38
3.0863423 1.1332872 1.4906912 -2.5556643e+38
3.086329 1.1277767 1.4906912 -2.5556647e+38
3.1103396 1.1321515 1.4927711 -2.5556132e+38
3.1103263 1.1265953 1.4927711 -2.5556134e+38
3.1103129 1.121039 1.4927711 -2.5555096e+38
3.0862761 1.1057349 1.4906912 -2.5555096e+38
3.0862627 1.1002245 1.4906912 -2.5687497e+38
3.1102729 1.1043706 1.4927711 -2.5821459e+38
3.1102595 1.0988145 1.4927711 -2.6088343e+38
3.1102462 1.0932583 1.4927711 -2.6354194e+38
3.1102328 1.087702 1.4927711 -2.6486602e+38
3.1102195 1.0821458 1.4927711 -2.6488681e+38
3.1102061 1.0765897 1.4927711 -2.6489723e+38
3.1101928 1.0710335 1.4927711 -2.6490245e+38
3.1101794 1.0654774 1.4927711 -2.6491287e+38
3.1101661 1.0599213 1.4927711 -2.6490766e+38
3.1351759 1.0639952 1.4949379 -2.6490764e+38
3.1351626 1.0583915 1.4949379 -2.6492847e+38
3.135149 1.0527877 1.4949379 -2.6495449e+38
3.1101124 1.0376965 1.4927711 -2.6360967e+38
3.1100991 1.0321403 1.4927711 -2.6361484e+38
3.1100857 1.0265841 1.4927711 -2.6360441e+38
3.186141 1.0494356 1.4993578 -2.6359918e+38
3.1861272 1.0437347 1.4993578 -2.6226476e+38
3.1861136 1.0380337 1.4993578 -2.6227516e+38
3.1860998 1.0323328 1.4993578 -2.622492e+38
3.1860862 1.026632 1.4993578 -2.6090959e+38
3.1860723 1.020931 1.4993578 -2.5955957e+38
3.2120814 1.0246513 1.5016112 -2.6087838e+38
3.2120676 1.0189009 1.5016112 -2.6089391e+38
3.2120538 1.0131505 1.5016112 -2.5823542e+38
3.2120399 1.0073998 1.5016112 -2.5425292e+38
3.2120261 1.0016494 1.5016112 -2.5691657e+38
3.2120123 0.99589902 1.5016112 -2.582302e+38
3.2390215 0.9996236 1.5039512 -2.5689057e+38
3.2390075 0.99382168 1.5039512 -2.5555092e+38
3.2389936 0.98801976 1.5039512 -2.5288723e+38
3.2389796 0.98221797 1.5039512 -2.5022354e+38
3.2389657 0.97641605 1.5039512 -2.5021833e+38
3.2389517 0.97061414 1.5039512 -2.4887869e+38
3.2389379 0.96481222 1.5039512 -2.501923e+38
3.2389238 0.95901042 1.5039512 -2.5020273e+38
3.23891 0.95320851 1.5039512 -2.515164e+38
3.2388959 0.94740659 1.5039512 -2.5154238e+38
3.2388821 0.94160479 1.5039512 -2.5154762e+38
3.238868 0.93580288 1.5039512 -2.5153721e+38
3.2388542 0.93000096 1.5039512 -2.5018721e+38
3.2388401 0.92419904 1.5039512 -2.488788e+38
3.2388263 0.91839713 1.5039512 -2.528769e+38
3.2388122 0.91259533 1.5039512 -2.5554579e+38
3.2387984 0.90679342 1.5039512 -2.6349525e+38
3.265805 0.90959233 1.5062912 -2.7149147e+38
3.2657909 0.90373898 1.5062912 -2.7147078e+38
3.2937982 0.90669835 1.5087178 -2.7016239e+38
3.321805 0.90955096 1.5111445 -2.7546897e+38
3.3217907 0.90359098 1.5111445 -2.8082748e+38
3.3217764 0.89763099 1.5111445 -2.8482559e+38
3.3497827 0.90027034 1.5135711 -2.888652e+38
3.3217478 0.88571107 1.5111445 -2.9021001e+38
3.0864615 1.1828815 1.4851807 -2.460795e+38
3.0864482 1.1773709 1.4851807 -2.5008274e+38
3.0864351 1.1718605 1.4851807 -2.5408079e+38
3.0864217 1.16635 1.4851807 -2.5537882e+38
3.0864086 1.1608396 1.4851807 -2.5673945e+38
3.0863953 1.155329 1.4851807 -2.5680719e+38
3.0863819 1.1498187 1.4851807 -2.5549879e+38
3.0863688 1.1443082 1.4851807 -2.5422672e+38
3.0863554 1.1387978 1.4851807 -2.5426834e+38
3.0863423 1.1332872 1.4851807 -2.5557686e+38
3.086329 1.1277767 1.4851807 -2.5823536e+38
3.1103396 1.1321515 1.487215 -2.5822501e+38
3.1103263 1.1265953 1.487215 -2.5821984e+38
3.1103129 1.121039 1.487215 -2.5954387e+38
3.0862761 1.1057349 1.4851807 -2.6220233e+38
3.0862627 1.1002245 1.4851807 -2.6486596e+38
3.1102729 1.1043706 1.487215 -2.6753482e+38
3.1102595 1.0988145 1.487215 -2.6754001e+38
3.1102462 1.0932583 1.487215 -2.6886928e+38
3.1102328 1.087702 1.487215 -2.6622644e+38
3.1102195 1.0821458 1.487215 -2.6492322e+38
3.1102061 1.0765897 1.487215 -2.6491285e+38
3.1101928 1.0710335 1.487215 -2.649181e+38
3.1101794 1.0654774 1.487215 -2.662422e+38
3.1101661 1.0599213 1.487215 -2.6623695e+38
3.1351759 1.0639952 1.489334 -2.6624727e+38
3.1351626 1.0583915 1.489334 -2.6626291e+38
3.135149 1.0527877 1.489334 -2.6626295e+38
3.1101124 1.0376965 1.487215 -2.6625772e+38
3.1100991 1.0321403 1.487215 -2.6492843e+38
3.1601312 1.0453686 1.4914531 -2.6492839e+38
3.186141 1.0494356 1.4936569 -2.6358354e+38
3.1861272 1.0437347 1.4936569 -2.6357839e+38
3.1861136 1.0380337 1.4936569 -2.6224399e+38
3.1860998 1.0323328 1.4936569 -2.6222841e+38
3.1860862 1.026632 1.4936569 -2.6222322e+38
3.2120953 1.0304017 1.4958607 -2.622076e+38
3.2120814 1.0246513 1.4958607 -2.608887e+38
3.2120676 1.0189009 1.4958607 -2.5956982e+38
3.2120538 1.0131505 1.4958607 -2.5690613e+38
3.2120399 1.0073998 1.4958607 -2.5424769e+38
3.2120261 1.0016494 1.4958607 -2.5557173e+38
3.2120123 0.99589902 1.4958607 -2.5689053e+38
3.2390215 0.9996236 1.4981493 -2.5555088e+38
3.2390075 0.99382168 1.4981493 -2.5287163e+38
3.2389936 0.98801976 1.4981493 -2.5154236e+38
3.2389796 0.98221797 1.4981493 -2.488735e+38
3.2389657 0.97641605 1.4981493 -2.4886827e+38
3.2389517 0.97061414 1.4981493 -2.4751823e+38
3.2389379 0.96481222 1.4981493 -2.4752856e+38
3.2389238 0.95901042 1.4981493 -2.4752862e+38
3.23891 0.95320851 1.4981493 -2.488631e+38
3.2388959 0.94740659 1.4981493 -2.5020273e+38
3.2388821 0.94160479 1.4981493 -2.5152679e+38
3.238868 0.93580288 1.4981493 -2.528352e+38
3.2388542 0.93000096 1.4981493 -2.5284036e+38
3.2658615 0.93300551 1.5004379 -2.5150602e+38
3.2658474 0.92715228 1.5004379 -2.5419569e+38
3.2658331 0.92129892 1.5004379 -2.5686459e+38
3.2658191 0.91544557 1.5004379 -2.6484e+38
3.265805 0.90959233 1.5004379 -2.7148624e+38
3.2657909 0.90373898 1.5004379 -2.7282074e+38
3.2937982 0.90669835 1.5028112 -2.7547926e+38
3.321805 0.90955096 1.5051845 -2.7948258e+38
3.3217907 0.90359098 1.5051845 -2.8349109e+38
3.3217764 0.89763099 1.5051845 -2.8484634e+38
3.3497827 0.90027034 1.5075579 -2.8621194e+38
3.3217478 0.88571107 1.5051845 -2.8890155e+38
3.1104865 1.1932695 1.4816588 -2.3412158e+38
3.1104732 1.1877133 1.4816588 -2.3945407e+38
3.1104598 1.182157 1.4816588 -2.4477096e+38
3.0864217 1.16635 1.4796702 -2.5006191e+38
3.0864086 1.1608396 1.4796702 -2.5407574e+38
3.0863953 1.155329 1.4796702 -2.5410188e+38
3.0863819 1.1498187 1.4796702 -2.5417467e+38
3.0863688 1.1443082 1.4796702 -2.5290784e+38
3.0863554 1.1387978 1.4796702 -2.5158907e+38
3.0863423 1.1332872 1.4796702 -2.5556126e+38
3.086329 1.1277767 1.4796702 -2.595542e+38
3.1103396 1.1321515 1.4816588 -2.6087312e+38
3.1103263 1.1265953 1.4816588 -2.6087832e+38
3.0862892 1.1112454 1.4796702 -2.6486081e+38
3.0862761 1.1057349 1.4796702 -2.6752965e+38
3.0862627 1.1002245 1.4796702 -2.7152774e+38
3.1102729 1.1043706 1.4816588 -2.7552063e+38
3.1102595 1.0988145 1.4816588 -2.741966e+38
3.1102462 1.0932583 1.4816588 -2.7287258e+38
3.1102328 1.087702 1.4816588 -2.6890052e+38
3.1102195 1.0821458 1.4816588 -2.6358362e+38
3.1102061 1.0765897 1.4816588 -2.6490249e+38
3.1101928 1.0710335 1.4816588 -2.6490772e+38
3.1101794 1.0654774 1.4816588 -2.662318e+38
3.1101661 1.0599213 1.4816588 -2.6756618e+38
3.1351759 1.0639952 1.4837302 -2.6757652e+38
3.1101391 1.0488088 1.4816588 -2.6757656e+38
3.135149 1.0527877 1.4837302 -2.675662e+38
3.1101124 1.0376965 1.4816588 -2.6757137e+38
3.1100991 1.0321403 1.4816588 -2.6623691e+38
3.1601312 1.0453686 1.4858017 -2.6490245e+38
3.186141 1.0494356 1.4879559 -2.6488683e+38
3.1861272 1.0437347 1.4879559 -2.6355764e+38
3.1861136 1.0380337 1.4879559 -2.6222845e+38
3.1860998 1.0323328 1.4879559 -2.6089401e+38
3.2121091 1.0361521 1.4901102 -2.6221805e+38
3.2120953 1.0304017 1.4901102 -2.6354722e+38
3.2120814 1.0246513 1.4901102 -2.608887e+38
3.2120676 1.0189009 1.4901102 -2.5823018e+38
3.2390773 1.0228312 1.4923474 -2.5689051e+38
3.2390633 1.0170293 1.4923474 -2.5422688e+38
3.2390494 1.0112274 1.4923474 -2.5555094e+38
3.2390354 1.0054255 1.4923474 -2.5555092e+38
3.2660444 1.0090985 1.4945846 -2.5289244e+38
3.2390075 0.99382168 1.4923474 -2.5021837e+38
3.2389936 0.98801976 1.4923474 -2.4887871e+38
3.2389796 0.98221797 1.4923474 -2.4754429e+38
3.2389657 0.97641605 1.4923474 -2.4753908e+38
3.2389517 0.97061414 1.4923474 -2.4619943e+38
3.2389379 0.96481222 1.4923474 -2.4619939e+38
3.2389238 0.95901042 1.4923474 -2.4487541e+38
3.23891 0.95320851 1.4923474 -2.4753395e+38
3.2388959 0.94740659 1.4923474 -2.4886839e+38
3.2388821 0.94160479 1.4923474 -2.5152169e+38
3.238868 0.93580288 1.4923474 -2.5418011e+38
3.2388542 0.93000096 1.4923474 -2.5416969e+38
3.2388401 0.92419904 1.4923474 -2.541853e+38
3.2388263 0.91839713 1.4923474 -2.5686459e+38
3.2658331 0.92129892 1.4945846 -2.5819905e+38
3.2658191 0.91544557 1.4945846 -2.6484525e+38
3.265805 0.90959233 1.4945846 -2.7150188e+38
3.2938123 0.91260499 1.4969045 -2.7549485e+38
3.2937982 0.90669835 1.4969045 -2.7948777e+38
3.321805 0.90955096 1.4992245 -2.8215144e+38
3.3217907 0.90359098 1.4992245 -2.8483071e+38
3.3217764 0.89763099 1.4992245 -2.8485671e+38
3.3497827 0.90027034 1.5015445 -2.8356385e+38
3.3217478 0.88571107 1.4992245 -2.8759309e+38
3.1104732 1.1877133 1.4761026 -2.3679557e+38
3.1104598 1.182157 1.4761026 -2.4212287e+38
3.0864217 1.16635 1.4741597 -2.4741901e+38
3.0864086 1.1608396 1.4741597 -2.5274126e+38
3.0863953 1.155329 1.4741597 -2.5411214e+38
3.0863819 1.1498187 1.4741597 -2.5417979e+38
3.0863688 1.1443082 1.4741597 -2.5421625e+38
3.0863554 1.1387978 1.4741597 -2.5291307e+38
3.1103663 1.1432638 1.4761026 -2.5689564e+38
3.110353 1.1377076 1.4761026 -2.6087823e+38
3.1103396 1.1321515 1.4761026 -2.6087834e+38
3.1103263 1.1265953 1.4761026 -2.6220756e+38
3.0862892 1.1112454 1.4741597 -2.6354196e+38
3.0862761 1.1057349 1.4741597 -2.6487642e+38
3.0862627 1.1002245 1.4741597 -2.6886934e+38
3.1102729 1.1043706 1.4761026 -2.7419666e+38
3.1102595 1.0988145 1.4761026 -2.7286743e+38
3.1102462 1.0932583 1.4761026 -2.7154341e+38
3.1102328 1.087702 1.4761026 -2.7022457e+38
3.1102195 1.0821458 1.4761026 -2.6889017e+38
3.1102061 1.0765897 1.4761026 -2.6889536e+38
3.1101928 1.0710335 1.4761026 -2.6888502e+38
3.1101794 1.0654774 1.4761026 -2.6889542e+38
3.1101661 1.0599213 1.4761026 -2.688954e+38
3.1101527 1.054365 1.4761026 -2.6890058e+38
3.1101391 1.0488088 1.4761026 -2.689006e+38
3.135149 1.0527877 1.4781264 -2.688954e+38
3.1101124 1.0376965 1.4761026 -2.688954e+38
3.1351221 1.0415801 1.4781264 -2.6756096e+38
3.1601312 1.0453686 1.4801502 -2.6754535e+38
3.186141 1.0494356 1.482255 -2.6622125e+38
3.1861272 1.0437347 1.482255 -2.6487131e+38
3.1861136 1.0380337 1.482255 -2.635629e+38
3.1860998 1.0323328 1.482255 -2.6355249e+38
3.2121091 1.0361521 1.4843597 -2.648817e+38
3.2120953 1.0304017 1.4843597 -2.6620567e+38
3.2120814 1.0246513 1.4843597 -2.6488156e+38
3.2390912 1.0286329 1.4865454 -2.6354705e+38
3.2390773 1.0228312 1.4865454 -2.595489e+38
3.2390633 1.0170293 1.4865454 -2.5686972e+38
3.2390494 1.0112274 1.4865454 -2.555509e+38
3.2390354 1.0054255 1.4865454 -2.5421648e+38
3.2390215 0.9996236 1.4865454 -2.5155283e+38
3.2390075 0.99382168 1.4865454 -2.4887876e+38
3.2389936 0.98801976 1.4865454 -2.4754949e+38
3.2389796 0.98221797 1.4865454 -2.4620989e+38
3.2389657 0.97641605 1.4865454 -2.4354625e+38
3.2389517 0.97061414 1.4865454 -2.4221698e+38
3.2389379 0.96481222 1.4865454 -2.4354616e+38
3.2389238 0.95901042 1.4865454 -2.4355144e+38
3.23891 0.95320851 1.4865454 -2.4620998e+38
3.2388959 0.94740659 1.4865454 -2.4886847e+38
3.2388821 0.94160479 1.4865454 -2.5153216e+38
3.238868 0.93580288 1.4865454 -2.5419577e+38
3.2388542 0.93000096 1.4865454 -2.5552496e+38
3.2658615 0.93300551 1.4887311 -2.5685942e+38
3.2658474 0.92715228 1.4887311 -2.5819386e+38
3.2658331 0.92129892 1.4887311 -2.6086276e+38
3.2658191 0.91544557 1.4887311 -2.648557e+38
3.265805 0.90959233 1.4887311 -2.6885389e+38
3.2938123 0.91260499 1.4909978 -2.7284167e+38
3.2937982 0.90669835 1.4909978 -2.7816897e+38
3.321805 0.90955096 1.4932644 -2.7950339e+38
3.3217907 0.90359098 1.4932644 -2.8218263e+38
3.3217764 0.89763099 1.4932644 -2.8353265e+38
3.3217621 0.89167106 1.4932644 -2.8489827e+38
3.3217478 0.88571107 1.4932644 -2.8890155e+38
3.3217335 0.87975103 1.4932644 -2.9289446e+38
3.1104732 1.1877133 1.4705464 -2.3413709e+38
3.1104598 1.182157 1.4705464 -2.3811963e+38
3.1104465 1.1766008 1.4705464 -2.4475542e+38
3.1104331 1.1710447 1.4705464 -2.5141724e+38
3.0863953 1.155329 1.4686493 -2.5276215e+38
3.1104064 1.1599323 1.4705464 -2.5414861e+38
3.0863688 1.1443082 1.4686493 -2.5420068e+38
3.0863554 1.1387978 1.4686493 -2.5422672e+38
3.1103663 1.1432638 1.4705464 -2.5823006e+38
3.110353 1.1377076 1.4705464 -2.6220744e+38
3.1103396 1.1321515 1.4705464 -2.6221274e+38
3.1103263 1.1265953 1.4705464 -2.6221274e+38
3.1103129 1.121039 1.4705464 -2.6221276e+38
3.1102996 1.1154829 1.4705464 -2.6222316e+38
3.1102862 1.1099268 1.4705464 -2.6754011e+38
3.1102729 1.1043706 1.4705464 -2.7153822e+38
3.1102595 1.0988145 1.4705464 -2.7020901e+38
3.1102462 1.0932583 1.4705464 -2.6889019e+38
3.1102328 1.087702 1.4705464 -2.7155905e+38
3.1102195 1.0821458 1.4705464 -2.7288828e+38
3.1102061 1.0765897 1.4705464 -2.7289867e+38
3.1101928 1.0710335 1.4705464 -2.728883e+38
3.1101794 1.0654774 1.4705464 -2.7155909e+38
3.1101661 1.0599213 1.4705464 -2.7022987e+38
3.1101527 1.054365 1.4705464 -2.7023506e+38
3.1101391 1.0488088 1.4705464 -2.6890064e+38
3.135149 1.0527877 1.4725226 -2.6889544e+38
3.1351357 1.0471839 1.4725226 -2.688954e+38
3.1351221 1.0415801 1.4725226 -2.68885e+38
3.1601312 1.0453686 1.4744987 -2.6889536e+38
3.1601176 1.0397171 1.4744987 -2.6757133e+38
3.1861272 1.0437347 1.476554 -2.6623695e+38
3.1861136 1.0380337 1.476554 -2.6624735e+38
3.1860998 1.0323328 1.476554 -2.6490253e+38
3.2121091 1.0361521 1.4786093 -2.6755577e+38
3.2120953 1.0304017 1.4786093 -2.6887975e+38
3.2391052 1.0344348 1.4807435 -2.6887971e+38
3.2390912 1.0286329 1.4807435 -2.6753482e+38
3.2661006 1.0325118 1.4828779 -2.6353669e+38
3.2660866 1.0266585 1.4828779 -2.5821459e+38
3.2390494 1.0112274 1.4807435 -2.5555613e+38
3.2390354 1.0054255 1.4807435 -2.5289246e+38
3.2660444 1.0090985 1.4828779 -2.5022358e+38
3.2660303 1.0032452 1.4828779 -2.4623066e+38
3.2389936 0.98801976 1.4807435 -2.4490139e+38
3.2660022 0.99153858 1.4828779 -2.4354619e+38
3.2389657 0.97641605 1.4807435 -2.4087213e+38
3.2389517 0.97061414 1.4807435 -2.3822406e+38
3.2389379 0.96481222 1.4807435 -2.4087734e+38
3.2389238 0.95901042 1.4807435 -2.4221704e+38
3.23891 0.95320851 1.4807435 -2.4488077e+38
3.2388959 0.94740659 1.4807435 -2.4754965e+38
3.2388821 0.94160479 1.4807435 -2.5021334e+38
3.238868 0.93580288 1.4807435 -2.5287177e+38
3.2388542 0.93000096 1.4807435 -2.555354e+38
3.2658615 0.93300551 1.4828779 -2.5819386e+38
3.2658474 0.92715228 1.4828779 -2.6085231e+38
3.2658331 0.92129892 1.4828779 -2.6219195e+38
3.2658191 0.91544557 1.4828779 -2.6486083e+38
3.2938266 0.91851163 1.4850912 -2.6619535e+38
3.2938123 0.91260499 1.4850912 -2.7150717e+38
3.2937982 0.90669835 1.4850912 -2.7551043e+38
3.321805 0.90955096 1.4873044 -2.7684487e+38
3.3217907 0.90359098 1.4873044 -2.7819491e+38
3.3497972 0.90628368 1.4895178 -2.8219821e+38
3.3497827 0.90027034 1.4895178 -2.8488265e+38
3.3217478 0.88571107 1.4873044 -2.9020999e+38
3.3217335 0.87975103 1.4873044 -2.9423406e+38
3.1355128 1.2040901 1.4669188 -2.3146821e+38
3.1354992 1.1984862 1.4669188 -2.3413186e+38
3.1104598 1.182157 1.4649903 -2.3678521e+38
3.1104465 1.1766008 1.4649903 -2.4211258e+38
3.1104331 1.1710447 1.4649903 -2.4743996e+38
3.1104198 1.1654885 1.4649903 -2.5142773e+38
3.1104064 1.1599323 1.4649903 -2.5544669e+38
3.0863688 1.1443082 1.4631388 -2.5550912e+38
3.1103797 1.14882 1.4649903 -2.5554554e+38
3.1103663 1.1432638 1.4649903 -2.5954888e+38
3.110353 1.1377076 1.4649903 -2.6352627e+38
3.1103396 1.1321515 1.4649903 -2.622127e+38
3.1103263 1.1265953 1.4649903 -2.6221793e+38
3.1103129 1.121039 1.4649903 -2.608991e+38
3.1102996 1.1154829 1.4649903 -2.6090953e+38
3.1102862 1.1099268 1.4649903 -2.6489204e+38
3.1102729 1.1043706 1.4649903 -2.6755056e+38
3.1102595 1.0988145 1.4649903 -2.6755579e+38
3.1102462 1.0932583 1.4649903 -2.67561e+38
3.1102328 1.087702 1.4649903 -2.7022467e+38
3.1102195 1.0821458 1.4649903 -2.7288832e+38
3.1102061 1.0765897 1.4649903 -2.7155907e+38
3.1101928 1.0710335 1.4649903 -2.7022987e+38
3.1101794 1.0654774 1.4649903 -2.7022989e+38
3.1101661 1.0599213 1.4649903 -2.7155913e+38
3.1101527 1.054365 1.4649903 -2.7022991e+38
3.1101391 1.0488088 1.4649903 -2.6890068e+38
3.135149 1.0527877 1.4669188 -2.6757143e+38
3.1351357 1.0471839 1.4669188 -2.6624735e+38
3.1351221 1.0415801 1.4669188 -2.6625248e+38
3.1601312 1.0453686 1.4688474 -2.662681e+38
3.1601176 1.0397171 1.4688474 -2.6492334e+38
3.1861272 1.0437347 1.4708531 -2.6359932e+38
3.1861136 1.0380337 1.4708531 -2.6358894e+38
3.1860998 1.0323328 1.4708531 -2.6358373e+38
3.2121091 1.0361521 1.4728588 -2.6489734e+38
3.2120953 1.0304017 1.4728588 -2.6622135e+38
3.2391052 1.0344348 1.4749416 -2.6621093e+38
3.2390912 1.0286329 1.4749416 -2.662005e+38
3.2661006 1.0325118 1.4770246 -2.6220756e+38
3.2660866 1.0266585 1.4770246 -2.5688544e+38
3.2660725 1.0208052 1.4770246 -2.5422694e+38
3.2390354 1.0054255 1.4749416 -2.5156843e+38
3.2660444 1.0090985 1.4770246 -2.4757549e+38
3.2390075 0.99382168 1.4749416 -2.4490661e+38
3.2389936 0.98801976 1.4749416 -2.4356174e+38
3.2389796 0.98221797 1.4749416 -2.4353574e+38
3.2389657 0.97641605 1.4749416 -2.4087724e+38
3.2389517 0.97061414 1.4749416 -2.3955327e+38
3.2389379 0.96481222 1.4749416 -2.4088254e+38
3.2659459 0.9681254 1.4770246 -2.4355146e+38
3.23891 0.95320851 1.4749416 -2.4488596e+38
3.2388959 0.94740659 1.4749416 -2.4756003e+38
3.2388821 0.94160479 1.4749416 -2.5021853e+38
3.238868 0.93580288 1.4749416 -2.5420621e+38
3.2388542 0.93000096 1.4749416 -2.5553544e+38
3.2658615 0.93300551 1.4770246 -2.5818869e+38
3.2658474 0.92715228 1.4770246 -2.5953345e+38
3.2658331 0.92129892 1.4770246 -2.6086268e+38
3.2658191 0.91544557 1.4770246 -2.6220748e+38
3.2938266 0.91851163 1.4791845 -2.6487642e+38
3.2938123 0.91260499 1.4791845 -2.6886419e+38
3.2937982 0.90669835 1.4791845 -2.728623e+38
3.321805 0.90955096 1.4813445 -2.7552597e+38
3.3498118 0.91229701 1.4835045 -2.7820006e+38
3.3497972 0.90628368 1.4835045 -2.8087413e+38
3.3497827 0.90027034 1.4835045 -2.8355859e+38
3.3497684 0.89425701 1.4835045 -2.8757747e+38
3.3497539 0.88824373 1.4835045 -2.9293596e+38
3.3497396 0.8822304 1.4835045 -2.9957695e+38
3.1104865 1.1932695 1.459434 -2.3413186e+38
3.1354992 1.1984862 1.4613149 -2.3412669e+38
3.1104598 1.182157 1.459434 -2.3413713e+38
3.1104465 1.1766008 1.459434 -2.3813528e+38
3.1104331 1.1710447 1.459434 -2.4211266e+38
3.1104198 1.1654885 1.459434 -2.5005179e+38
3.1104064 1.1599323 1.459434 -2.5678111e+38
3.0863688 1.1443082 1.4576283 -2.5684873e+38
3.1103797 1.14882 1.459434 -2.5690073e+38
3.1103663 1.1432638 1.459434 -2.608989e+38
3.110353 1.1377076 1.459434 -2.6355223e+38
3.0863159 1.1222663 1.4576283 -2.6221789e+38
3.1103263 1.1265953 1.459434 -2.6089906e+38
3.1103129 1.121039 1.459434 -2.6090949e+38
3.1102996 1.1154829 1.459434 -2.5957509e+38
3.1102862 1.1099268 1.459434 -2.6223359e+38
3.1102729 1.1043706 1.459434 -2.6356285e+38
3.0862362 1.0892036 1.4576283 -2.6489732e+38
3.1102462 1.0932583 1.459434 -2.6623176e+38
3.1102328 1.087702 1.459434 -2.7021948e+38
3.1102195 1.0821458 1.459434 -2.7288313e+38
3.1102061 1.0765897 1.459434 -2.7021948e+38
3.1101928 1.0710335 1.459434 -2.6756622e+38
3.1101794 1.0654774 1.459434 -2.7022469e+38
3.1351895 1.069599 1.4613149 -2.7155394e+38
3.1351759 1.0639952 1.4613149 -2.7022993e+38
3.1351626 1.0583915 1.4613149 -2.6757145e+38
3.135149 1.0527877 1.4613149 -2.6623701e+38
3.1351357 1.0471839 1.4613149 -2.635889e+38
3.1601448 1.05102 1.4631959 -2.6359926e+38
3.1601312 1.0453686 1.4631959 -2.6226486e+38
3.1601176 1.0397171 1.4631959 -2.6092527e+38
3.1861272 1.0437347 1.4651521 -2.5959602e+38
3.1861136 1.0380337 1.4651521 -2.6092006e+38
3.1860998 1.0323328 1.4651521 -2.6091484e+38
3.2121091 1.0361521 1.4671082 -2.6222847e+38
3.2120953 1.0304017 1.4671082 -2.6221805e+38
3.2391052 1.0344348 1.4691397 -2.6353166e+38
3.2390912 1.0286329 1.4691397 -2.6486087e+38
3.2390773 1.0228312 1.4691397 -2.6087314e+38
3.2390633 1.0170293 1.4691397 -2.5555619e+38
3.2390494 1.0112274 1.4691397 -2.528925e+38
3.2390354 1.0054255 1.4691397 -2.489048e+38
3.2390215 0.9996236 1.4691397 -2.4625149e+38
3.2390075 0.99382168 1.4691397 -2.4357221e+38
3.2389936 0.98801976 1.4691397 -2.4355657e+38
3.2389796 0.98221797 1.4691397 -2.4220655e+38
3.2389657 0.97641605 1.4691397 -2.408669e+38
3.2389517 0.97061414 1.4691397 -2.3954812e+38
3.2389379 0.96481222 1.4691397 -2.4220661e+38
3.2659459 0.9681254 1.4711711 -2.4355148e+38
3.2659318 0.96227211 1.4711711 -2.4488596e+38
3.2388959 0.94740659 1.4691397 -2.4622559e+38
3.2388821 0.94160479 1.4691397 -2.5021849e+38
3.238868 0.93580288 1.4691397 -2.542166e+38
3.2658756 0.93885881 1.4711711 -2.5687507e+38
3.2938833 0.94213825 1.4732778 -2.582199e+38
3.2938693 0.93623167 1.4732778 -2.5955432e+38
3.293855 0.93032497 1.4732778 -2.595543e+38
3.2938409 0.92441827 1.4732778 -2.6089389e+38
3.2938266 0.91851163 1.4732778 -2.6222318e+38
3.2938123 0.91260499 1.4732778 -2.6621614e+38
3.2937982 0.90669835 1.4732778 -2.7020384e+38
3.3498261 0.91831028 1.4774911 -2.7419676e+38
3.3498118 0.91229701 1.4774911 -2.7687083e+38
3.3497972 0.90628368 1.4774911 -2.7953973e+38
3.3497827 0.90027034 1.4774911 -2.8223458e+38
3.3497684 0.89425701 1.4774911 -2.8625863e+38
3.3497539 0.88824373 1.4774911 -2.9026712e+38
3.3787606 0.89097118 1.479673 -2.9824253e+38
3.1355128 1.2040901 1.4557111 -2.0755247e+38
3.1354992 1.1984862 1.4557111 -2.0751098e+38
3.1354859 1.1928825 1.4557111 -2.0756296e+38
3.1104465 1.1766008 1.4538778 -2.1017994e+38
3.1104331 1.1710447 1.4538778 -2.1287484e+38
3.1104198 1.1654885 1.4538778 -2.274653e+38
3.1104064 1.1599323 1.4538778 -2.4216998e+38
3.110393 1.1543761 1.4538778 -2.4757007e+38
3.1103797 1.14882 1.4538778 -2.5429939e+38
3.1103663 1.1432638 1.4538778 -2.5825602e+38
3.110353 1.1377076 1.4538778 -2.622386e+38
3.0863159 1.1222663 1.4521178 -2.6222827e+38
3.1103263 1.1265953 1.4538778 -2.6090426e+38
3.1103129 1.121039 1.4538778 -2.6089908e+38
3.1102996 1.1154829 1.4538778 -2.6088355e+38
3.1102862 1.1099268 1.4538778 -2.6089397e+38
3.1102729 1.1043706 1.4538778 -2.6222324e+38
3.1102595 1.0988145 1.4538778 -2.6356807e+38
3.1102462 1.0932583 1.4538778 -2.6490253e+38
3.1102328 1.087702 1.4538778 -2.67561e+38
3.1102195 1.0821458 1.4538778 -2.7021948e+38
3.1102061 1.0765897 1.4538778 -2.7021948e+38
3.1101928 1.0710335 1.4538778 -2.7022467e+38
3.1101794 1.0654774 1.4538778 -2.7021948e+38
3.1351895 1.069599 1.4557111 -2.7154875e+38
3.1351759 1.0639952 1.4557111 -2.7022473e+38
3.1351626 1.0583915 1.4557111 -2.6890068e+38
3.160172 1.0623229 1.4575446 -2.6623699e+38
3.1601584 1.0566714 1.4575446 -2.6357853e+38
3.1601448 1.05102 1.4575446 -2.622545e+38
3.1861546 1.0551366 1.4594512 -2.6092008e+38
3.1601176 1.0397171 1.4575446 -2.5959083e+38
3.1861272 1.0437347 1.4594512 -2.5825639e+38
3.1861136 1.0380337 1.4594512 -2.5825118e+38
3.1860998 1.0323328 1.4594512 -2.5824596e+38
3.2121091 1.0361521 1.4613578 -2.5823037e+38
3.2120953 1.0304017 1.4613578 -2.5955436e+38
3.2391052 1.0344348 1.4633379 -2.5954394e+38
3.2390912 1.0286329 1.4633379 -2.6086797e+38
3.2390773 1.0228312 1.4633379 -2.5688546e+38
3.2390633 1.0170293 1.4633379 -2.5422696e+38
3.2390494 1.0112274 1.4633379 -2.5155806e+38
3.2390354 1.0054255 1.4633379 -2.4889441e+38
3.2390215 0.9996236 1.4633379 -2.4623076e+38
3.2390075 0.99382168 1.4633379 -2.4355667e+38
3.2389936 0.98801976 1.4633379 -2.4220659e+38
3.2389796 0.98221797 1.4633379 -2.42191e+38
3.2389657 0.97641605 1.4633379 -2.4086175e+38
3.2389517 0.97061414 1.4633379 -2.3954296e+38
3.2389379 0.96481222 1.4633379 -2.4088262e+38
3.2389238 0.95901042 1.4633379 -2.4222227e+38
3.23891 0.95320851 1.4633379 -2.435619e+38
3.2388959 0.94740659 1.4633379 -2.4490154e+38
3.2388821 0.94160479 1.4633379 -2.4889961e+38
3.238868 0.93580288 1.4633379 -2.5289773e+38
3.2658756 0.93885881 1.4653178 -2.5423741e+38
3.2658615 0.93300551 1.4653178 -2.5559266e+38
3.2658474 0.92715228 1.4653178 -2.5823558e+38
3.2658331 0.92129892 1.4653178 -2.5956996e+38
3.2938409 0.92441827 1.4673712 -2.6089395e+38
3.2938266 0.91851163 1.4673712 -2.6355245e+38
3.2938123 0.91260499 1.4673712 -2.6621095e+38
3.2937982 0.90669835 1.4673712 -2.7020386e+38
3.321805 0.90955096 1.4694245 -2.7419676e+38
3.3498118 0.91229701 1.4714779 -2.7819489e+38
3.3497972 0.90628368 1.4714779 -2.7955014e+38
3.3497827 0.90027034 1.4714779 -2.8091054e+38
3.3497684 0.89425701 1.4714779 -2.8493459e+38
3.3497539 0.88824373 1.4714779 -2.8894309e+38
3.4087822 0.90001327 1.4758046 -2.969133e+38
3.1355128 1.2040901 1.4501073 -1.7951373e+38
3.1354992 1.1984862 1.4501073 -1.8080144e+38
3.1354859 1.1928825 1.4501073 -1.8084835e+38
3.1354723 1.1872787 1.4501073 -1.8214143e+38
3.1104331 1.1710447 1.4483216 -1.8218285e+38
3.1104198 1.1654885 1.4483216 -2.0475364e+38
3.1104064 1.1599323 1.4483216 -2.2614118e+38
3.110393 1.1543761 1.4483216 -2.3962602e+38
3.1103797 1.14882 1.4483216 -2.515995e+38
3.1103663 1.1432638 1.4483216 -2.5690607e+38
3.110353 1.1377076 1.4483216 -2.6089898e+38
3.1103396 1.1321515 1.4483216 -2.6089904e+38
3.1103263 1.1265953 1.4483216 -2.6089906e+38
3.1103129 1.121039 1.4483216 -2.608887e+38
3.1102996 1.1154829 1.4483216 -2.6089391e+38
3.1102862 1.1099268 1.4483216 -2.6089915e+38
3.1102729 1.1043706 1.4483216 -2.5957515e+38
3.1102595 1.0988145 1.4483216 -2.6090963e+38
3.1102462 1.0932583 1.4483216 -2.6223888e+38
3.1102328 1.087702 1.4483216 -2.6489738e+38
3.1102195 1.0821458 1.4483216 -2.662318e+38
3.1102061 1.0765897 1.4483216 -2.6889027e+38
3.1101928 1.0710335 1.4483216 -2.7154354e+38
3.1101794 1.0654774 1.4483216 -2.7153315e+38
3.1351895 1.069599 1.4501073 -2.7154354e+38
3.1351759 1.0639952 1.4501073 -2.7153836e+38
3.1351626 1.0583915 1.4501073 -2.702195e+38
3.160172 1.0623229 1.4518931 -2.6756622e+38
3.1601584 1.0566714 1.4518931 -2.6357334e+38
3.1601448 1.05102 1.4518931 -2.6090969e+38
3.1601312 1.0453686 1.4518931 -2.5825641e+38
3.1601176 1.0397171 1.4518931 -2.5693756e+38
3.1861272 1.0437347 1.4537503 -2.5559791e+38
3.1861136 1.0380337 1.4537503 -2.5558751e+38
3.1860998 1.0323328 1.4537503 -2.555771e+38
3.2121091 1.0361521 1.4556074 -2.5555629e+38
3.2120953 1.0304017 1.4556074 -2.5556144e+38
3.2391052 1.0344348 1.457536 -2.5688025e+38
3.2390912 1.0286329 1.457536 -2.5688023e+38
3.2390773 1.0228312 1.457536 -2.5422175e+38
3.2390633 1.0170293 1.457536 -2.5156325e+38
3.2390494 1.0112274 1.457536 -2.502236e+38
3.2390354 1.0054255 1.457536 -2.488892e+38
3.2390215 0.9996236 1.457536 -2.4622555e+38
3.2390075 0.99382168 1.457536 -2.4221185e+38
3.2389936 0.98801976 1.457536 -2.4218063e+38
3.2660022 0.99153858 1.4594646 -2.4218582e+38
3.2659881 0.98568541 1.4594646 -2.4084621e+38
3.265974 0.97983211 1.4594646 -2.3821374e+38
3.26596 0.9739787 1.4594646 -2.3955856e+38
3.2659459 0.9681254 1.4594646 -2.3956897e+38
3.2659318 0.96227211 1.4594646 -2.4223266e+38
3.2659178 0.95641869 1.4594646 -2.4357746e+38
3.2659037 0.9505654 1.4594646 -2.4757036e+38
3.2658896 0.9447121 1.4594646 -2.5156847e+38
3.2938976 0.94804484 1.4614645 -2.5291331e+38
3.2938833 0.94213825 1.4614645 -2.5291856e+38
3.2938693 0.93623167 1.4614645 -2.5690114e+38
3.293855 0.93032497 1.4614645 -2.5956475e+38
3.2938409 0.92441827 1.4614645 -2.6222318e+38
3.2938266 0.91851163 1.4614645 -2.6354726e+38
3.2938123 0.91260499 1.4614645 -2.6620056e+38
3.2937982 0.90669835 1.4614645 -2.6886942e+38
3.321805 0.90955096 1.4634645 -2.7418638e+38
3.3498118 0.91229701 1.4654645 -2.7819489e+38
3.3497972 0.90628368 1.4654645 -2.7821574e+38
3.3497827 0.90027034 1.4654645 -2.7826772e+38
3.3497684 0.89425701 1.4654645 -2.8229699e+38
3.3497539 0.88824373 1.4654645 -2.8628465e+38
3.3497396 0.8822304 1.4654645 -2.9557886e+38
3.1354992 1.1984862 1.4445035 -2.739872e+38
3.1104598 1.182157 1.4427655 -2.7782983e+38
3.1354723 1.1872787 1.4445035 -2.7265343e+38
3.1104331 1.1710447 1.4427655 -2.6852523e+38
3.1354454 1.1760712 1.4445035 -2.7662487e+38
3.1104064 1.1599323 1.4427655 -2.8448162e+38
3.110393 1.1543761 1.4427655 -2.7410303e+38
3.1103797 1.14882 1.4427655 -2.6353669e+38
3.1103663 1.1432638 1.4427655 -2.6489186e+38
3.110353 1.1377076 1.4427655 -2.6488669e+38
3.1103396 1.1321515 1.4427655 -2.6355748e+38
3.1103263 1.1265953 1.4427655 -2.6223348e+38
3.1103129 1.121039 1.4427655 -2.6089908e+38
3.1102996 1.1154829 1.4427655 -2.608991e+38
3.1102862 1.1099268 1.4427655 -2.609043e+38
3.1102729 1.1043706 1.4427655 -2.5957515e+38
3.0862362 1.0892036 1.4410969 -2.6090963e+38
3.1102462 1.0932583 1.4427655 -2.622389e+38
3.0862098 1.0781826 1.4410969 -2.6356815e+38
3.1102195 1.0821458 1.4427655 -2.6491297e+38
3.1102061 1.0765897 1.4427655 -2.6622662e+38
3.1101928 1.0710335 1.4427655 -2.6755066e+38
3.1101794 1.0654774 1.4427655 -2.6755066e+38
3.1351895 1.069599 1.4445035 -2.6756104e+38
3.1351759 1.0639952 1.4445035 -2.6755585e+38
3.1351626 1.0583915 1.4445035 -2.6622662e+38
3.160172 1.0623229 1.4462416 -2.6490257e+38
3.1351357 1.0471839 1.4445035 -2.6490257e+38
3.1601448 1.05102 1.4462416 -2.6091486e+38
3.1601312 1.0453686 1.4462416 -2.5825122e+38
3.1601176 1.0397171 1.4462416 -2.5825639e+38
3.1861272 1.0437347 1.4480493 -2.5957521e+38
3.1861136 1.0380337 1.4480493 -2.5824075e+38
3.1860998 1.0323328 1.4480493 -2.568959e+38
3.2121091 1.0361521 1.4498569 -2.5689586e+38
3.2120953 1.0304017 1.4498569 -2.5690102e+38
3.2391052 1.0344348 1.4517341 -2.5689059e+38
3.2390912 1.0286329 1.4517341 -2.5821459e+38
3.2390773 1.0228312 1.4517341 -2.5422167e+38
3.2390633 1.0170293 1.4517341 -2.51558e+38
3.2660725 1.0208052 1.4536111 -2.5022356e+38
3.2390354 1.0054255 1.4517341 -2.4755993e+38
3.2390215 0.9996236 1.4517341 -2.4488073e+38
3.2390075 0.99382168 1.4517341 -2.4219625e+38
3.2389936 0.98801976 1.4517341 -2.42191e+38
3.2389796 0.98221797 1.4517341 -2.4351505e+38
3.2659881 0.98568541 1.4536111 -2.40867e+38
3.265974 0.97983211 1.4536111 -2.3954816e+38
3.26596 0.9739787 1.4536111 -2.4089296e+38
3.2659459 0.9681254 1.4536111 -2.4223779e+38
3.2659318 0.96227211 1.4536111 -2.4490146e+38
3.2659178 0.95641869 1.4536111 -2.4624109e+38
3.2659037 0.9505654 1.4536111 -2.4889954e+38
3.2658896 0.9447121 1.4536111 -2.5156843e+38
3.2658756 0.93885881 1.4536111 -2.5024441e+38
3.2938833 0.94213825 1.4555578 -2.5024449e+38
3.2658474 0.92715228 1.4536111 -2.5423745e+38
3.293855 0.93032497 1.4555578 -2.5690108e+38
3.2938409 0.92441827 1.4555578 -2.5955951e+38
3.2938266 0.91851163 1.4555578 -2.6088359e+38
3.2938123 0.91260499 1.4555578 -2.6354728e+38
3.2937982 0.90669835 1.4555578 -2.6621616e+38
3.321805 0.90955096 1.4575045 -2.7020906e+38
3.3217907 0.90359098 1.4575045 -2.7554165e+38
3.3497972 0.90628368 1.4594512 -2.7689692e+38
3.3497827 0.90027034 1.4594512 -2.7828334e+38
3.3497684 0.89425701 1.4594512 -2.8228149e+38
3.3497539 0.88824373 1.4594512 -2.8628469e+38
3.3497396 0.8822304 1.4594512 -2.9425998e+38
3.1354859 1.1928825 1.4388998 nan
3.1354723 1.1872787 1.4388998 nan
3.1104331 1.1710447 1.4372092 nan
3.1354454 1.1760712 1.4388998 nan
3.1104064 1.1599323 1.4372092 nan
3.110393 1.1543761 1.4372092 -3.0877216e+38
3.1103797 1.14882 1.4372092 -2.7553617e+38
3.1103663 1.1432638 1.4372092 -2.728984e+38
3.110353 1.1377076 1.4372092 -2.6887958e+38
3.1103396 1.1321515 1.4372092 -2.6621076e+38
3.1103263 1.1265953 1.4372092 -2.622231e+38
3.1103129 1.121039 1.4372092 -2.6222831e+38
3.1102996 1.1154829 1.4372092 -2.6090428e+38
3.1102862 1.1099268 1.4372092 -2.609043e+38
3.1102729 1.1043706 1.4372092 -2.5957513e+38
3.0862362 1.0892036 1.4355865 -2.6090442e+38
3.1102462 1.0932583 1.4372092 -2.6089405e+38
3.0862098 1.0781826 1.4355865 -2.622233e+38
3.1102195 1.0821458 1.4372092 -2.622285e+38
3.1102061 1.0765897 1.4372092 -2.622233e+38
3.1101928 1.0710335 1.4372092 -2.622285e+38
3.1352029 1.0752028 1.4388998 -2.6355774e+38
3.1351895 1.069599 1.4388998 -2.6356294e+38
3.1351759 1.0639952 1.4388998 -2.6356292e+38
3.1601856 1.0679742 1.4405903 -2.622389e+38
3.160172 1.0623229 1.4405903 -2.6357332e+38
3.1601584 1.0566714 1.4405903 -2.6490255e+38
3.1601448 1.05102 1.4405903 -2.6224928e+38
3.1861546 1.0551366 1.4423482 -2.582512e+38
3.186141 1.0494356 1.4423482 -2.6090963e+38
3.1861272 1.0437347 1.4423482 -2.6223365e+38
3.1861136 1.0380337 1.4423482 -2.609044e+38
3.1860998 1.0323328 1.4423482 -2.5824071e+38
3.1860862 1.026632 1.4423482 -2.582355e+38
3.2120953 1.0304017 1.4441063 -2.5823026e+38
3.2120814 1.0246513 1.4441063 -2.5821984e+38
3.2390912 1.0286329 1.4459321 -2.5820941e+38
3.2390773 1.0228312 1.4459321 -2.5554573e+38
3.2390633 1.0170293 1.4459321 -2.5155281e+38
3.2660725 1.0208052 1.4477578 -2.4888914e+38
3.2660584 1.0149519 1.4477578 -2.462203e+38
3.2660444 1.0090985 1.4477578 -2.4354627e+38
3.2660303 1.0032452 1.4477578 -2.4087219e+38
3.2389936 0.98801976 1.4459321 -2.4220138e+38
3.2660022 0.99153858 1.4477578 -2.4353063e+38
3.2659881 0.98568541 1.4477578 -2.42217e+38
3.265974 0.97983211 1.4477578 -2.4088777e+38
3.26596 0.9739787 1.4477578 -2.4355142e+38
3.2659459 0.9681254 1.4477578 -2.4489103e+38
3.2659318 0.96227211 1.4477578 -2.475547e+38
3.2659178 0.95641869 1.4477578 -2.4888912e+38
3.2659037 0.9505654 1.4477578 -2.5021318e+38
3.2658896 0.9447121 1.4477578 -2.5022879e+38
3.2658756 0.93885881 1.4477578 -2.4890478e+38
3.2938833 0.94213825 1.4496511 -2.475808e+38
3.2938693 0.93623167 1.4496511 -2.5157372e+38
3.293855 0.93032497 1.4496511 -2.5423218e+38
3.2938409 0.92441827 1.4496511 -2.5689065e+38
3.2938266 0.91851163 1.4496511 -2.5822509e+38
3.2938123 0.91260499 1.4496511 -2.6088878e+38
3.2937982 0.90669835 1.4496511 -2.6222843e+38
3.321805 0.90955096 1.4515445 -2.6754541e+38
3.3217907 0.90359098 1.4515445 -2.7287796e+38
3.3497972 0.90628368 1.4534378 -2.7555207e+38
3.3497827 0.90027034 1.4534378 -2.7692809e+38
3.3497684 0.89425701 1.4534378 -2.8226064e+38
3.3497539 0.88824373 1.4534378 -2.8627424e+38
3.3787606 0.89097118 1.4553988 -2.9292034e+38
3.1104598 1.182157 1.431653 nan
3.1354723 1.1872787 1.433296 nan
3.1354589 1.181675 1.433296 nan
3.1354454 1.1760712 1.433296 nan
3.1104064 1.1599323 1.431653 nan
3.110393 1.1543761 1.431653 -3.2348727e+38
3.1103797 1.14882 1.431653 -2.7554146e+38
3.1353915 1.1536559 1.433296 -2.7421207e+38
3.110353 1.1377076 1.431653 -2.7418094e+38
3.1103396 1.1321515 1.431653 -2.7019328e+38
3.1103263 1.1265953 1.431653 -2.662004e+38
3.1103129 1.121039 1.431653 -2.6355233e+38
3.1102996 1.1154829 1.431653 -2.622335e+38
3.1102862 1.1099268 1.431653 -2.6090949e+38
3.0862496 1.094714 1.4300759 -2.6090434e+38
3.0862362 1.0892036 1.4300759 -2.6089399e+38
3.1102462 1.0932583 1.431653 -2.5954402e+38
3.0862098 1.0781826 1.4300759 -2.6088884e+38
3.1102195 1.0821458 1.431653 -2.6088882e+38
3.1102061 1.0765897 1.431653 -2.6089399e+38
3.1101928 1.0710335 1.431653 -2.6089403e+38
3.1352029 1.0752028 1.433296 -2.5956483e+38
3.1351895 1.069599 1.433296 -2.5956481e+38
3.1351759 1.0639952 1.433296 -2.5957517e+38
3.1601856 1.0679742 1.4349388 -2.595804e+38
3.160172 1.0623229 1.4349388 -2.6090446e+38
3.1601584 1.0566714 1.4349388 -2.622285e+38
3.1861684 1.0608375 1.4366474 -2.6223369e+38
3.1861546 1.0551366 1.4366474 -2.6089925e+38
3.186141 1.0494356 1.4366474 -2.6223365e+38
3.1861272 1.0437347 1.4366474 -2.6356287e+38
3.1861136 1.0380337 1.4366474 -2.6223363e+38
3.1860998 1.0323328 1.4366474 -2.6223361e+38
3.2121091 1.0361521 1.4383559 -2.6088876e+38
3.2120953 1.0304017 1.4383559 -2.6089393e+38
3.2391052 1.0344348 1.4401302 -2.595439e+38
3.2390912 1.0286329 1.4401302 -2.5952828e+38
3.2390773 1.0228312 1.4401302 -2.5554055e+38
3.2390633 1.0170293 1.4401302 -2.5287686e+38
3.2660725 1.0208052 1.4419045 -2.5154758e+38
3.2660584 1.0149519 1.4419045 -2.5019758e+38
3.2390215 0.9996236 1.4401302 -2.461943e+38
3.2390075 0.99382168 1.4401302 -2.4219102e+38
3.2660162 0.997392 1.4419045 -2.4086696e+38
3.2660022 0.99153858 1.4419045 -2.4087736e+38
3.2659881 0.98568541 1.4419045 -2.4088777e+38
3.265974 0.97983211 1.4419045 -2.4089296e+38
3.26596 0.9739787 1.4419045 -2.4355659e+38
3.2659459 0.9681254 1.4419045 -2.4489101e+38
3.2659318 0.96227211 1.4419045 -2.4754947e+38
3.2659178 0.95641869 1.4419045 -2.5153717e+38
3.293926 0.95985812 1.4437445 -2.5020796e+38
3.2939117 0.95395154 1.4437445 -2.5021839e+38
3.2938976 0.94804484 1.4437445 -2.4889956e+38
3.2938833 0.94213825 1.4437445 -2.4757036e+38
3.2938693 0.93623167 1.4437445 -2.489048e+38
3.293855 0.93032497 1.4437445 -2.5156849e+38
3.2938409 0.92441827 1.4437445 -2.5290293e+38
3.2938266 0.91851163 1.4437445 -2.5557181e+38
3.2938123 0.91260499 1.4437445 -2.5690106e+38
3.2937982 0.90669835 1.4437445 -2.5956996e+38
3.321805 0.90955096 1.4455845 -2.6488174e+38
3.3217907 0.90359098 1.4455845 -2.702091e+38
3.3497972 0.90628368 1.4474245 -2.7289877e+38
3.3497827 0.90027034 1.4474245 -2.7692284e+38
3.3497684 0.89425701 1.4474245 -2.7961768e+38
3.3497539 0.88824373 1.4474245 -2.8230729e+38
3.3497396 0.8822304 1.4474245 -2.9027225e+38
3.1354723 1.1872787 1.4276922 nan
3.1354589 1.181675 1.4276922 nan
3.1354454 1.1760712 1.4276922 nan
3.1104064 1.1599323 1.4260969 nan
3.110393 1.1543761 1.4260969 -3.3804627e+38
3.1354051 1.1592597 1.4276922 -2.7421733e+38
3.1103663 1.1432638 1.4260969 -2.7689134e+38
3.110353 1.1377076 1.4260969 -2.7818941e+38
3.1353645 1.1424484 1.4276922 -2.7418617e+38
3.1103263 1.1265953 1.4260969 -2.6886924e+38
3.1353376 1.1312407 1.4276922 -2.6621078e+38
3.1102996 1.1154829 1.4260969 -2.622335e+38
3.1102862 1.1099268 1.4260969 -2.6224393e+38
3.1102729 1.1043706 1.4260969 -2.6223359e+38
3.1102595 1.0988145 1.4260969 -2.6089399e+38
3.0862231 1.083693 1.4245654 -2.5823035e+38
3.0862098 1.0781826 1.4245654 -2.5955957e+38
3.1102195 1.0821458 1.4260969 -2.5955955e+38
3.1102061 1.0765897 1.4260969 -2.5955953e+38
3.1101928 1.0710335 1.4260969 -2.582303e+38
3.1101794 1.0654774 1.4260969 -2.568959e+38
3.1351895 1.069599 1.4276922 -2.5557708e+38
3.1351759 1.0639952 1.4276922 -2.5691152e+38
3.1601856 1.0679742 1.4292873 -2.5691154e+38
3.160172 1.0623229 1.4292873 -2.582356e+38
3.1601584 1.0566714 1.4292873 -2.5957002e+38
3.1861684 1.0608375 1.4309464 -2.622285e+38
3.1861546 1.0551366 1.4309464 -2.6355768e+38
3.2121644 1.059154 1.4326055 -2.6489208e+38
3.2121506 1.0534036 1.4326055 -2.6488685e+38
3.2121367 1.0476532 1.4326055 -2.6488162e+38
3.2121229 1.0419025 1.4326055 -2.64866e+38
3.2121091 1.0361521 1.4326055 -2.6352635e+38
3.2391191 1.0402367 1.4343283 -2.6220231e+38
3.2391052 1.0344348 1.4343283 -2.6085749e+38
3.2661147 1.0383651 1.4360511 -2.5952824e+38
3.2390773 1.0228312 1.4343283 -2.5686457e+38
3.2390633 1.0170293 1.4343283 -2.5421124e+38
3.2660725 1.0208052 1.4360511 -2.542164e+38
3.2660584 1.0149519 1.4360511 -2.5285597e+38
3.2660444 1.0090985 1.4360511 -2.4751827e+38
3.2660303 1.0032452 1.4360511 -2.4219096e+38
3.2660162 0.997392 1.4360511 -2.3952731e+38
3.2660022 0.99153858 1.4360511 -2.3688445e+38
3.2659881 0.98568541 1.4360511 -2.3955333e+38
3.265974 0.97983211 1.4360511 -2.4089813e+38
3.26596 0.9739787 1.4360511 -2.4356178e+38
3.2659459 0.9681254 1.4360511 -2.448858e+38
3.2659318 0.96227211 1.4360511 -2.488631e+38
3.2659178 0.95641869 1.4360511 -2.5285599e+38
3.293926 0.95985812 1.4378378 -2.5152681e+38
3.2939117 0.95395154 1.4378378 -2.4888397e+38
3.2938976 0.94804484 1.4378378 -2.4756516e+38
3.2938833 0.94213825 1.4378378 -2.4624113e+38
3.2938693 0.93623167 1.4378378 -2.4757038e+38
3.293855 0.93032497 1.4378378 -2.489048e+38
3.2938409 0.92441827 1.4378378 -2.5023924e+38
3.2938266 0.91851163 1.4378378 -2.515737e+38
3.2938123 0.91260499 1.4378378 -2.54227e+38
3.2937982 0.90669835 1.4378378 -2.5689588e+38
3.321805 0.90955096 1.4396245 -2.6220764e+38
3.3217907 0.90359098 1.4396245 -2.6755056e+38
3.3217764 0.89763099 1.4396245 -2.7156427e+38
3.3217621 0.89167106 1.4396245 -2.7559874e+38
3.3217478 0.88571107 1.4396245 -2.7697995e+38
3.3217335 0.87975103 1.4396245 -2.7831435e+38
3.3217192 0.87379104 1.4396245 -2.8762414e+38
3.1604981 1.1979567 1.423636 nan
3.1604846 1.1923053 1.423636 nan
3.160471 1.186654 1.423636 nan
3.135432 1.1704674 1.4220883 nan
3.110393 1.1543761 1.4205407 -3.3812393e+38
3.1354051 1.1592597 1.4220883 -2.7284648e+38
3.1353915 1.1536559 1.4220883 -2.7555175e+38
3.110353 1.1377076 1.4205407 -2.768654e+38
3.1103396 1.1321515 1.4205407 -2.7287252e+38
3.1103263 1.1265953 1.4205407 -2.6886924e+38
3.1353376 1.1312407 1.4220883 -2.6621596e+38
3.1102996 1.1154829 1.4205407 -2.6222833e+38
3.1102862 1.1099268 1.4205407 -2.6090434e+38
3.1102729 1.1043706 1.4205407 -2.5823552e+38
3.1102595 1.0988145 1.4205407 -2.569115e+38
3.1102462 1.0932583 1.4205407 -2.5424783e+38
3.1102328 1.087702 1.4205407 -2.5557702e+38
3.1102195 1.0821458 1.4205407 -2.55577e+38
3.1102061 1.0765897 1.4205407 -2.5690102e+38
3.1101928 1.0710335 1.4205407 -2.5689582e+38
3.1352029 1.0752028 1.4220883 -2.5690102e+38
3.1351895 1.069599 1.4220883 -2.5557704e+38
3.1351759 1.0639952 1.4220883 -2.5690631e+38
3.1601856 1.0679742 1.423636 -2.5955959e+38
3.160172 1.0623229 1.423636 -2.5956481e+38
3.1601584 1.0566714 1.423636 -2.5957521e+38
3.1861684 1.0608375 1.4252454 -2.6090444e+38
3.1861546 1.0551366 1.4252454 -2.6222845e+38
3.186141 1.0494356 1.4252454 -2.6222841e+38
3.1861272 1.0437347 1.4252454 -2.6355758e+38
3.2121367 1.0476532 1.426855 -2.6354192e+38
3.2121229 1.0419025 1.426855 -2.6351073e+38
3.2121091 1.0361521 1.426855 -2.6219182e+38
3.2391191 1.0402367 1.4285264 -2.6086262e+38
3.2391052 1.0344348 1.4285264 -2.5953339e+38
3.2661147 1.0383651 1.4301978 -2.5819897e+38
3.2390773 1.0228312 1.4285264 -2.5554049e+38
3.2660866 1.0266585 1.4301978 -2.52882e+38
3.2660725 1.0208052 1.4301978 -2.5286638e+38
3.2660584 1.0149519 1.4301978 -2.5150594e+38
3.2660444 1.0090985 1.4301978 -2.47513e+38
3.2660303 1.0032452 1.4301978 -2.421857e+38
3.2660162 0.997392 1.4301978 -2.4086167e+38
3.2660022 0.99153858 1.4301978 -2.3821885e+38
3.2940111 0.99529809 1.4319311 -2.395585e+38
3.293997 0.98939139 1.4319311 -2.3957408e+38
3.2939827 0.9834848 1.4319311 -2.4222734e+38
3.2939687 0.97757822 1.4319311 -2.4489099e+38
3.2939544 0.97167152 1.4319311 -2.4753904e+38
3.2939403 0.96576482 1.4319311 -2.5152157e+38
3.293926 0.95985812 1.4319311 -2.5020275e+38
3.2939117 0.95395154 1.4319311 -2.4887878e+38
3.2938976 0.94804484 1.4319311 -2.4755997e+38
3.2938833 0.94213825 1.4319311 -2.4623594e+38
3.2938693 0.93623167 1.4319311 -2.4757036e+38
3.293855 0.93032497 1.4319311 -2.4890478e+38
3.2938409 0.92441827 1.4319311 -2.5156843e+38
3.2938266 0.91851163 1.4319311 -2.5422694e+38
3.2938123 0.91260499 1.4319311 -2.555614e+38
3.2937982 0.90669835 1.4319311 -2.5821988e+38
3.321805 0.90955096 1.4336646 -2.635472e+38
3.3217907 0.90359098 1.4336646 -2.6887973e+38
3.3217764 0.89763099 1.4336646 -2.728882e+38
3.3217621 0.89167106 1.4336646 -2.7692272e+38
3.3217478 0.88571107 1.4336646 -2.7828837e+38
3.2937131 0.87125838 1.4319311 -2.7964354e+38
3.3217192 0.87379104 1.4336646 -2.8629485e+38
3.1604981 1.1979567 1.4179845 -2.9409792e+38
3.1604846 1.1923053 1.4179845 nan
3.160471 1.186654 1.4179845 nan
3.135432 1.1704674 1.4164845 nan
3.110393 1.1543761 1.4149845 -3.3811868e+38
3.1103797 1.14882 1.4149845 -2.7161584e+38
3.1353915 1.1536559 1.4164845 -2.7427961e+38
3.110353 1.1377076 1.4149845 -2.7557252e+38
3.1103396 1.1321515 1.4149845 -2.729037e+38
3.1103263 1.1265953 1.4149845 -2.6889524e+38
3.1353376 1.1312407 1.4164845 -2.6623159e+38
3.1102996 1.1154829 1.4149845 -2.6223876e+38
3.1102862 1.1099268 1.4149845 -2.5824592e+38
3.1102729 1.1043706 1.4149845 -2.5426345e+38
3.1102595 1.0988145 1.4149845 -2.5292905e+38
3.1102462 1.0932583 1.4149845 -2.5026536e+38
3.1102328 1.087702 1.4149845 -2.5158936e+38
3.1102195 1.0821458 1.4149845 -2.5158934e+38
3.1102061 1.0765897 1.4149845 -2.5424256e+38
3.1101928 1.0710335 1.4149845 -2.5557181e+38
3.1352029 1.0752028 1.4164845 -2.5557183e+38
3.1351895 1.069599 1.4164845 -2.5557185e+38
3.1351759 1.0639952 1.4164845 -2.5822515e+38
3.1601856 1.0679742 1.4179845 -2.6089401e+38
3.160172 1.0623229 1.4179845 -2.5956481e+38
3.1601584 1.0566714 1.4179845 -2.5824079e+38
3.1861684 1.0608375 1.4195445 -2.5958044e+38
3.1861546 1.0551366 1.4195445 -2.5957521e+38
3.186141 1.0494356 1.4195445 -2.6089921e+38
3.2121506 1.0534036 1.4211044 -2.6089395e+38
3.2121367 1.0476532 1.4211044 -2.6221274e+38
3.2121229 1.0419025 1.4211044 -2.6220227e+38
3.2121091 1.0361521 1.4211044 -2.6087298e+38
3.2391191 1.0402367 1.4227245 -2.5953858e+38
3.2391052 1.0344348 1.4227245 -2.5820937e+38
3.2661147 1.0383651 1.4243445 -2.5554573e+38
3.2390773 1.0228312 1.4227245 -2.5421128e+38
3.2390633 1.0170293 1.4227245 -2.5154238e+38
3.2660725 1.0208052 1.4243445 -2.5152155e+38
3.2660584 1.0149519 1.4243445 -2.5017667e+38
3.2660444 1.0090985 1.4243445 -2.4617854e+38
3.2660303 1.0032452 1.4243445 -2.4218049e+38
3.2660162 0.997392 1.4243445 -2.4085126e+38
3.2660022 0.99153858 1.4243445 -2.3954286e+38
3.2940111 0.99529809 1.4260244 -2.3955331e+38
3.293997 0.98939139 1.4260244 -2.3823447e+38
3.2939827 0.9834848 1.4260244 -2.4088775e+38
3.2939687 0.97757822 1.4260244 -2.4355138e+38
3.2939544 0.97167152 1.4260244 -2.4621503e+38
3.2939403 0.96576482 1.4260244 -2.4887352e+38
3.293926 0.95985812 1.4260244 -2.4887873e+38
3.2939117 0.95395154 1.4260244 -2.4755472e+38
3.2938976 0.94804484 1.4260244 -2.4755995e+38
3.2938833 0.94213825 1.4260244 -2.4623592e+38
3.2658474 0.92715228 1.4243445 -2.4756514e+38
3.293855 0.93032497 1.4260244 -2.4889956e+38
3.2658191 0.91544557 1.4243445 -2.5289246e+38
3.2938266 0.91851163 1.4260244 -2.5555617e+38
3.2938123 0.91260499 1.4260244 -2.5689065e+38
3.2937982 0.90669835 1.4260244 -2.5821994e+38
3.321805 0.90955096 1.4277045 -2.6354209e+38
3.3217907 0.90359098 1.4277045 -2.688694e+38
3.3217764 0.89763099 1.4277045 -2.7419153e+38
3.3217621 0.89167106 1.4277045 -2.7823119e+38
3.2937272 0.87716508 1.4260244 -2.7960204e+38
3.2937131 0.87125838 1.4260244 -2.7963318e+38
3.2656784 0.85691243 1.4243445 -2.8364163e+38
3.2656643 0.85105908 1.4243445 -2.8762923e+38
3.1354589 1.181675 1.4108807 -2.79471e+38
3.1354454 1.1760712 1.4108807 -3.2085942e+38
3.1104064 1.1599323 1.4094284 nan
3.110393 1.1543761 1.4094284 -3.1955616e+38
3.1103797 1.14882 1.4094284 -2.7564503e+38
3.1103663 1.1432638 1.4094284 -2.7427438e+38
3.110353 1.1377076 1.4094284 -2.7291923e+38
3.1103396 1.1321515 1.4094284 -2.7157447e+38
3.1103263 1.1265953 1.4094284 -2.7022968e+38
3.1353376 1.1312407 1.4108807 -2.6623683e+38
3.1353242 1.1256369 1.4108807 -2.6356803e+38
3.1353106 1.1200331 1.4108807 -2.5825635e+38
3.1102729 1.1043706 1.4094284 -2.5427907e+38
3.1102595 1.0988145 1.4094284 -2.5160504e+38
3.1102462 1.0932583 1.4094284 -2.5027577e+38
3.1102328 1.087702 1.4094284 -2.5026534e+38
3.1102195 1.0821458 1.4094284 -2.5158934e+38
