# .PCD v0.7 - Point Cloud Data file format
VERSION 0.7
FIELDS x y z rgb
SIZE 4 4 4 4
TYPE F F F F
COUNT 1 1 1 1
WIDTH 1361
HEIGHT 1
VIEWPOINT 0 0 0 1 0 0 0
POINTS 1361
DATA ascii
7.3592663 -1.1679691 1.7692549 nan
7.3557558 -1.1717559 1.7692549 nan
7.3522453 -1.1755428 1.7692549 nan
7.3487349 -1.1793299 1.7692549 nan
7.3452244 -1.1831167 1.7692549 nan
7.3640723 -1.1951454 1.7735503 nan
7.3605332 -1.198963 1.7735503 nan
7.3346925 -1.1944776 1.7692549 nan
7.3534551 -1.2065983 1.7735503 nan
7.3276715 -1.2020514 1.7692549 nan
7.3241606 -1.2058383 1.7692549 nan
7.3206501 -1.2096252 1.7692549 nan
7.3171396 -1.2134122 1.7692549 nan
7.3357596 -1.2256867 1.7735503 nan
7.3322206 -1.2295043 1.7735503 nan
7.3286815 -1.2333219 1.7735503 nan
7.3251424 -1.2371397 1.7735503 nan
7.3426194 -1.2491765 1.7776502 nan
7.3390532 -1.2530235 1.7776502 nan
7.506897 -0.88810039 1.7482378 nan
7.5034924 -0.89177275 1.7482378 nan
7.4557586 -0.88442731 1.7405045 nan
7.4313736 -0.88278377 1.7368312 nan
7.4070387 -0.8810873 1.7331579 nan
7.4037352 -0.88465071 1.7331579 nan
7.4004316 -0.88821411 1.7331579 nan
7.3971281 -0.89177763 1.7331579 nan
7.3938251 -0.89534104 1.7331579 nan
7.411406 -0.90432358 1.7368312 nan
7.4080782 -0.90791368 1.7368312 nan
7.4047499 -0.91150355 1.7368312 nan
7.4222326 -0.92059243 1.7405045 nan
7.3980942 -0.91868353 1.7368312 nan
7.4155273 -0.92782545 1.7405045 nan
7.391438 -0.9258635 1.7368312 nan
7.4088221 -0.93505859 1.7405045 nan
7.4054699 -0.93867505 1.7405045 nan
7.381454 -0.93663335 1.7368312 nan
7.3987646 -0.94590807 1.7405045 nan
7.395412 -0.94952464 1.7405045 nan
7.3920593 -0.95314109 1.7405045 nan
7.3887067 -0.95675755 1.7405045 nan
7.385354 -0.96037412 1.7405045 nan
7.3614864 -0.95817316 1.7368312 nan
7.3581581 -0.96176314 1.7368312 nan
7.3548303 -0.96535313 1.7368312 nan
7.3310609 -0.96304619 1.7331579 nan
7.3277574 -0.9666096 1.7331579 nan
7.3244538 -0.970173 1.7331579 nan
7.3211508 -0.97373641 1.7331579 nan
7.3178473 -0.97729993 1.7331579 nan
7.3145437 -0.98086333 1.7331579 nan
7.3112402 -0.98442674 1.7331579 nan
7.3079371 -0.98799014 1.7331579 nan
7.3248782 -0.99766278 1.7368312 nan
7.3013306 -0.99511707 1.7331579 nan
7.318222 -1.0048428 1.7368312 nan
7.3350654 -1.0146217 1.7405045 nan
7.3529196 -1.0247809 1.7443712 nan
7.3495407 -1.0284252 1.7443712 nan
7.3461623 -1.0320697 1.7443712 nan
7.3427839 -1.0357141 1.7443712 nan
7.3394051 -1.0393586 1.7443712 nan
7.3360271 -1.0430031 1.7443712 nan
7.3326483 -1.0466474 1.7443712 nan
7.3292699 -1.050292 1.7443712 nan
7.3258915 -1.0539364 1.7443712 nan
7.3225126 -1.0575809 1.7443712 nan
7.3191347 -1.0612253 1.7443712 nan
7.3157558 -1.0648698 1.7443712 nan
7.3123775 -1.0685142 1.7443712 nan
7.3298693 -1.0790645 1.7482378 nan
7.3264647 -1.0827368 1.7482378 nan
7.32306 -1.0864093 1.7482378 nan
7.3196559 -1.0900817 1.7482378 nan
7.3162518 -1.0937541 1.7482378 nan
7.3128471 -1.0974264 1.7482378 nan
7.3301573 -1.1081722 1.7521045 nan
7.3267269 -1.1118726 1.7521045 nan
7.3439593 -1.1227021 1.7559712 nan
7.3405032 -1.1264304 1.7559712 nan
7.3586884 -1.1377029 1.7600312 nan
7.3552051 -1.1414605 1.7600312 nan
7.3733091 -1.1528213 1.7640913 nan
7.3697987 -1.1566082 1.7640913 nan
7.3662877 -1.1603953 1.7640913 nan
7.3627772 -1.1641822 1.7640913 nan
7.3592663 -1.1679691 1.7640913 nan
7.3557558 -1.1717559 1.7640913 nan
7.3522453 -1.1755428 1.7640913 nan
7.3487349 -1.1793299 1.7640913 nan
7.3452244 -1.1831167 1.7640913 nan
7.3640723 -1.1951454 1.7683445 nan
7.3605332 -1.198963 1.7683445 nan
7.3569942 -1.2027807 1.7683445 nan
7.3534551 -1.2065983 1.7683445 nan
7.3276715 -1.2020514 1.7640913 nan
7.3241606 -1.2058383 1.7640913 nan
7.3428378 -1.2180513 1.7683445 nan
7.3392987 -1.221869 1.7683445 nan
7.3357596 -1.2256867 1.7683445 nan
7.3322206 -1.2295043 1.7683445 nan
7.3286815 -1.2333219 1.7683445 nan
7.3251424 -1.2371397 1.7683445 nan
7.3426194 -1.2491765 1.7724044 nan
7.3390532 -1.2530235 1.7724044 nan
7.506897 -0.88810039 1.7432302 nan
7.5034924 -0.89177275 1.7432302 nan
7.4347019 -0.8791939 1.731936 nan
7.4103417 -0.8775239 1.7282988 nan
7.4070387 -0.8810873 1.7282988 nan
7.4037352 -0.88465071 1.7282988 nan
7.4004316 -0.88821411 1.7282988 nan
7.3971281 -0.89177763 1.7282988 nan
7.3938251 -0.89534104 1.7282988 nan
7.411406 -0.90432358 1.731936 nan
7.4080782 -0.90791368 1.731936 nan
7.4047499 -0.91150355 1.731936 nan
7.401422 -0.91509354 1.731936 nan
7.3980942 -0.91868353 1.731936 nan
7.3947659 -0.9222734 1.731936 nan
7.391438 -0.9258635 1.731936 nan
7.3881102 -0.92945349 1.731936 nan
7.3847818 -0.93304336 1.731936 nan
7.381454 -0.93663335 1.731936 nan
7.3781261 -0.94022334 1.731936 nan
7.395412 -0.94952464 1.7355731 nan
7.3920593 -0.95314109 1.7355731 nan
7.3887067 -0.95675755 1.7355731 nan
7.385354 -0.96037412 1.7355731 nan
7.3820014 -0.96399057 1.7355731 nan
7.3581581 -0.96176314 1.731936 nan
7.3548303 -0.96535313 1.731936 nan
7.3515024 -0.96894312 1.731936 nan
7.3277574 -0.9666096 1.7282988 nan
7.3448462 -0.97612309 1.731936 nan
7.3211508 -0.97373641 1.7282988 nan
7.3178473 -0.97729993 1.7282988 nan
7.3145437 -0.98086333 1.7282988 nan
7.3112402 -0.98442674 1.7282988 nan
7.3079371 -0.98799014 1.7282988 nan
7.3248782 -0.99766278 1.731936 nan
7.3013306 -0.99511707 1.7282988 nan
7.318222 -1.0048428 1.731936 nan
7.3350654 -1.0146217 1.7355731 nan
7.3529196 -1.0247809 1.7394017 nan
7.3495407 -1.0284252 1.7394017 nan
7.3250074 -1.0254713 1.7355731 nan
7.3216553 -1.0290878 1.7355731 nan
7.3394051 -1.0393586 1.7394017 nan
7.3360271 -1.0430031 1.7394017 nan
7.3326483 -1.0466474 1.7394017 nan
7.3292699 -1.050292 1.7394017 nan
7.3258915 -1.0539364 1.7394017 nan
7.3225126 -1.0575809 1.7394017 nan
7.3191347 -1.0612253 1.7394017 nan
7.3157558 -1.0648698 1.7394017 nan
7.3123775 -1.0685142 1.7394017 nan
7.3298693 -1.0790645 1.7432302 nan
7.3264647 -1.0827368 1.7432302 nan
7.32306 -1.0864093 1.7432302 nan
7.3196559 -1.0900817 1.7432302 nan
7.337018 -1.1007715 1.7470589 nan
7.3128471 -1.0974264 1.7432302 nan
7.3301573 -1.1081722 1.7470589 nan
7.3474154 -1.1189739 1.7508874 nan
7.3439593 -1.1227021 1.7508874 nan
7.3621716 -1.1339453 1.7549074 nan
7.3586884 -1.1377029 1.7549074 nan
7.3552051 -1.1414605 1.7549074 nan
7.3733091 -1.1528213 1.7589273 nan
7.3697987 -1.1566082 1.7589273 nan
7.3662877 -1.1603953 1.7589273 nan
7.3627772 -1.1641822 1.7589273 nan
7.3592663 -1.1679691 1.7589273 nan
7.3557558 -1.1717559 1.7589273 nan
7.3746891 -1.1836925 1.7631388 nan
7.3487349 -1.1793299 1.7589273 nan
7.3452244 -1.1831167 1.7589273 nan
7.3640723 -1.1951454 1.7631388 nan
7.3605332 -1.198963 1.7631388 nan
7.3569942 -1.2027807 1.7631388 nan
7.3534551 -1.2065983 1.7631388 nan
7.3276715 -1.2020514 1.7589273 nan
7.3241606 -1.2058383 1.7589273 nan
7.3428378 -1.2180513 1.7631388 nan
7.3392987 -1.221869 1.7631388 nan
7.3357596 -1.2256867 1.7631388 nan
7.3322206 -1.2295043 1.7631388 nan
7.3286815 -1.2333219 1.7631388 nan
7.3461857 -1.2453294 1.7671587 nan
7.3426194 -1.2491765 1.7671587 nan
7.3390532 -1.2530235 1.7671587 nan
7.3354874 -1.2568705 1.7671587 nan
7.506897 -0.88810039 1.7382226 nan
7.5034924 -0.89177275 1.7382226 nan
7.4347019 -0.8791939 1.7270408 nan
7.4103417 -0.8775239 1.7234397 nan
7.4070387 -0.8810873 1.7234397 nan
7.4037352 -0.88465071 1.7234397 nan
7.4004316 -0.88821411 1.7234397 nan
7.3971281 -0.89177763 1.7234397 nan
7.3938251 -0.89534104 1.7234397 nan
7.411406 -0.90432358 1.7270408 nan
7.4080782 -0.90791368 1.7270408 nan
7.4047499 -0.91150355 1.7270408 nan
7.401422 -0.91509354 1.7270408 nan
7.3980942 -0.91868353 1.7270408 nan
7.3947659 -0.9222734 1.7270408 nan
7.391438 -0.9258635 1.7270408 nan
7.3881102 -0.92945349 1.7270408 nan
7.3847818 -0.93304336 1.7270408 nan
7.381454 -0.93663335 1.7270408 nan
7.3781261 -0.94022334 1.7270408 nan
7.395412 -0.94952464 1.7306416 nan
7.3920593 -0.95314109 1.7306416 nan
7.3887067 -0.95675755 1.7306416 nan
7.385354 -0.96037412 1.7306416 nan
7.3820014 -0.96399057 1.7306416 nan
7.3581581 -0.96176314 1.7270408 nan
7.3548303 -0.96535313 1.7270408 nan
7.3310609 -0.96304619 1.7234397 nan
7.3277574 -0.9666096 1.7234397 nan
7.3448462 -0.97612309 1.7270408 nan
7.3211508 -0.97373641 1.7234397 nan
7.3178473 -0.97729993 1.7234397 nan
7.3145437 -0.98086333 1.7234397 nan
7.3112402 -0.98442674 1.7234397 nan
7.3079371 -0.98799014 1.7234397 nan
7.3248782 -0.99766278 1.7270408 nan
7.3215504 -1.0012529 1.7270408 nan
7.318222 -1.0048428 1.7270408 nan
7.3350654 -1.0146217 1.7306416 nan
7.3529196 -1.0247809 1.7344321 nan
7.3495407 -1.0284252 1.7344321 nan
7.3250074 -1.0254713 1.7306416 nan
7.3427839 -1.0357141 1.7344321 nan
7.3394051 -1.0393586 1.7344321 nan
7.3571043 -1.0496854 1.7382226 nan
7.3326483 -1.0466474 1.7344321 nan
7.3292699 -1.050292 1.7344321 nan
7.3258915 -1.0539364 1.7344321 nan
7.3225126 -1.0575809 1.7344321 nan
7.3191347 -1.0612253 1.7344321 nan
7.3157558 -1.0648698 1.7344321 nan
7.3332734 -1.0753921 1.7382226 nan
7.3089991 -1.0721587 1.7344321 nan
7.3264647 -1.0827368 1.7382226 nan
7.32306 -1.0864093 1.7382226 nan
7.3404479 -1.0970713 1.7420131 nan
7.337018 -1.1007715 1.7420131 nan
7.3335876 -1.1044719 1.7420131 nan
7.3301573 -1.1081722 1.7420131 nan
7.3474154 -1.1189739 1.7458036 nan
7.3439593 -1.1227021 1.7458036 nan
7.3621716 -1.1339453 1.7497835 nan
7.3586884 -1.1377029 1.7497835 nan
7.3552051 -1.1414605 1.7497835 nan
7.3733091 -1.1528213 1.7537636 nan
7.3697987 -1.1566082 1.7537636 nan
7.3662877 -1.1603953 1.7537636 nan
7.3627772 -1.1641822 1.7537636 nan
7.3592663 -1.1679691 1.7537636 nan
7.3557558 -1.1717559 1.7537636 nan
7.3746891 -1.1836925 1.7579331 nan
7.3487349 -1.1793299 1.7537636 nan
7.3452244 -1.1831167 1.7537636 nan
7.3640723 -1.1951454 1.7579331 nan
7.3605332 -1.198963 1.7579331 nan
7.3569942 -1.2027807 1.7579331 nan
7.3534551 -1.2065983 1.7579331 nan
7.3276715 -1.2020514 1.7537636 nan
7.3463769 -1.2142336 1.7579331 nan
7.3428378 -1.2180513 1.7579331 nan
7.3392987 -1.221869 1.7579331 nan
7.3357596 -1.2256867 1.7579331 nan
7.3322206 -1.2295043 1.7579331 nan
7.3286815 -1.2333219 1.7579331 nan
7.3251424 -1.2371397 1.7579331 nan
7.3426194 -1.2491765 1.7619131 nan
7.3390532 -1.2530235 1.7619131 nan
7.506897 -0.88810039 1.733215 nan
7.5034924 -0.89177275 1.733215 nan
7.4347019 -0.8791939 1.7221454 nan
7.4103417 -0.8775239 1.7185807 nan
7.4070387 -0.8810873 1.7185807 nan
7.4037352 -0.88465071 1.7185807 nan
7.4004316 -0.88821411 1.7185807 nan
7.3971281 -0.89177763 1.7185807 nan
7.3938251 -0.89534104 1.7185807 nan
7.411406 -0.90432358 1.7221454 nan
7.4080782 -0.90791368 1.7221454 nan
7.4047499 -0.91150355 1.7221454 nan
7.401422 -0.91509354 1.7221454 nan
7.3980942 -0.91868353 1.7221454 nan
7.3947659 -0.9222734 1.7221454 nan
7.3707013 -0.92028511 1.7185807 nan
7.3673978 -0.92384839 1.7185807 nan
7.3847818 -0.93304336 1.7221454 nan
7.381454 -0.93663335 1.7221454 nan
7.3781261 -0.94022334 1.7221454 nan
7.395412 -0.94952464 1.7257103 nan
7.3920593 -0.95314109 1.7257103 nan
7.3681421 -0.95099318 1.7221454 nan
7.385354 -0.96037412 1.7257103 nan
7.3820014 -0.96399057 1.7257103 nan
7.3786488 -0.96760714 1.7257103 nan
7.3548303 -0.96535313 1.7221454 nan
7.3515024 -0.96894312 1.7221454 nan
7.3481741 -0.97253311 1.7221454 nan
7.3448462 -0.97612309 1.7221454 nan
7.3415184 -0.97971296 1.7221454 nan
7.3178473 -0.97729993 1.7185807 nan
7.3145437 -0.98086333 1.7185807 nan
7.3112402 -0.98442674 1.7185807 nan
7.3079371 -0.98799014 1.7185807 nan
7.3248782 -0.99766278 1.7221454 nan
7.3013306 -0.99511707 1.7185807 nan
7.318222 -1.0048428 1.7221454 nan
7.3148947 -1.0084327 1.7221454 nan
7.3317127 -1.0182382 1.7257103 nan
7.3283601 -1.0218548 1.7257103 nan
7.3250074 -1.0254713 1.7257103 nan
7.3216553 -1.0290878 1.7257103 nan
7.3394051 -1.0393586 1.7294626 nan
7.3360271 -1.0430031 1.7294626 nan
7.3326483 -1.0466474 1.7294626 nan
7.3292699 -1.050292 1.7294626 nan
7.3048921 -1.0471704 1.7257103 nan
7.3225126 -1.0575809 1.7294626 nan
7.3191347 -1.0612253 1.7294626 nan
7.3157558 -1.0648698 1.7294626 nan
7.3332734 -1.0753921 1.733215 nan
7.3089991 -1.0721587 1.7294626 nan
7.3264647 -1.0827368 1.733215 nan
7.32306 -1.0864093 1.733215 nan
7.3196559 -1.0900817 1.733215 nan
7.3162518 -1.0937541 1.733215 nan
7.3335876 -1.1044719 1.7369673 nan
7.3301573 -1.1081722 1.7369673 nan
7.3474154 -1.1189739 1.7407198 nan
7.3439593 -1.1227021 1.7407198 nan
7.3621716 -1.1339453 1.7446598 nan
7.3586884 -1.1377029 1.7446598 nan
7.3552051 -1.1414605 1.7446598 nan
7.3733091 -1.1528213 1.7485998 nan
7.3697987 -1.1566082 1.7485998 nan
7.3662877 -1.1603953 1.7485998 nan
7.3627772 -1.1641822 1.7485998 nan
7.3592663 -1.1679691 1.7485998 nan
7.3557558 -1.1717559 1.7485998 nan
7.3746891 -1.1836925 1.7527274 nan
7.3487349 -1.1793299 1.7485998 nan
7.3676109 -1.1913276 1.7527274 nan
7.3417139 -1.1869037 1.7485998 nan
7.3605332 -1.198963 1.7527274 nan
7.3569942 -1.2027807 1.7527274 nan
7.3534551 -1.2065983 1.7527274 nan
7.3276715 -1.2020514 1.7485998 nan
7.3463769 -1.2142336 1.7527274 nan
7.3428378 -1.2180513 1.7527274 nan
7.3392987 -1.221869 1.7527274 nan
7.3357596 -1.2256867 1.7527274 nan
7.3322206 -1.2295043 1.7527274 nan
7.3286815 -1.2333219 1.7527274 nan
7.3251424 -1.2371397 1.7527274 nan
7.3426194 -1.2491765 1.7566674 nan
7.3390532 -1.2530235 1.7566674 nan
7.3354874 -1.2568705 1.7566674 nan
7.5291138 -0.8935535 1.7319217 nan
7.5256834 -0.89725375 1.7319217 nan
7.4557586 -0.88442731 1.7207788 nan
7.4313736 -0.88278377 1.7172502 nan
7.4280457 -0.88637376 1.7172502 nan
7.4247179 -0.88996375 1.7172502 nan
7.4213896 -0.89355373 1.7172502 nan
7.4180617 -0.89714372 1.7172502 nan
7.4147339 -0.90073359 1.7172502 nan
7.4322901 -0.90974295 1.7207788 nan
7.4080782 -0.90791368 1.7172502 nan
7.4047499 -0.91150355 1.7172502 nan
7.401422 -0.91509354 1.7172502 nan
7.3980942 -0.91868353 1.7172502 nan
7.3947659 -0.9222734 1.7172502 nan
7.391438 -0.9258635 1.7172502 nan
7.3881102 -0.92945349 1.7172502 nan
7.3847818 -0.93304336 1.7172502 nan
7.381454 -0.93663335 1.7172502 nan
7.3781261 -0.94022334 1.7172502 nan
7.3747978 -0.94381332 1.7172502 nan
7.37147 -0.94740331 1.7172502 nan
7.3681421 -0.95099318 1.7172502 nan
7.385354 -0.96037412 1.7207788 nan
7.3820014 -0.96399057 1.7207788 nan
7.3786488 -0.96760714 1.7207788 nan
7.3752966 -0.97122371 1.7207788 nan
7.3515024 -0.96894312 1.7172502 nan
7.3481741 -0.97253311 1.7172502 nan
7.3652387 -0.98207319 1.7207788 nan
7.3415184 -0.97971296 1.7172502 nan
7.3381901 -0.98330295 1.7172502 nan
7.3348622 -0.98689294 1.7172502 nan
7.3315344 -0.99048293 1.7172502 nan
7.3282061 -0.99407291 1.7172502 nan
7.3248782 -0.99766278 1.7172502 nan
7.3013306 -0.99511707 1.7137216 nan
7.298027 -0.99868047 1.7137216 nan
7.3148947 -1.0084327 1.7172502 nan
7.3115664 -1.0120227 1.7172502 nan
7.308238 -1.0156127 1.7172502 nan
7.3250074 -1.0254713 1.7207788 nan
7.3216553 -1.0290878 1.7207788 nan
7.3394051 -1.0393586 1.724493 nan
7.3360271 -1.0430031 1.724493 nan
7.3326483 -1.0466474 1.724493 nan
7.3292699 -1.050292 1.724493 nan
7.3258915 -1.0539364 1.724493 nan
7.3225126 -1.0575809 1.724493 nan
7.3191347 -1.0612253 1.724493 nan
7.3366776 -1.0717198 1.7282073 nan
7.3332734 -1.0753921 1.7282073 nan
7.3298693 -1.0790645 1.7282073 nan
7.3264647 -1.0827368 1.7282073 nan
7.32306 -1.0864093 1.7282073 nan
7.3404479 -1.0970713 1.7319217 nan
7.3162518 -1.0937541 1.7282073 nan
7.3335876 -1.1044719 1.7319217 nan
7.3301573 -1.1081722 1.7319217 nan
7.3474154 -1.1189739 1.735636 nan
7.3439593 -1.1227021 1.735636 nan
7.3621716 -1.1339453 1.7395359 nan
7.3586884 -1.1377029 1.7395359 nan
7.3552051 -1.1414605 1.7395359 nan
7.3733091 -1.1528213 1.7434359 nan
7.3697987 -1.1566082 1.7434359 nan
7.3662877 -1.1603953 1.7434359 nan
7.3627772 -1.1641822 1.7434359 nan
7.3592663 -1.1679691 1.7434359 nan
7.3557558 -1.1717559 1.7434359 nan
7.3746891 -1.1836925 1.7475216 nan
7.37115 -1.18751 1.7475216 nan
7.3676109 -1.1913276 1.7475216 nan
7.3640723 -1.1951454 1.7475216 nan
7.3605332 -1.198963 1.7475216 nan
7.3569942 -1.2027807 1.7475216 nan
7.3534551 -1.2065983 1.7475216 nan
7.3276715 -1.2020514 1.7434359 nan
7.3463769 -1.2142336 1.7475216 nan
7.3428378 -1.2180513 1.7475216 nan
7.3392987 -1.221869 1.7475216 nan
7.3357596 -1.2256867 1.7475216 nan
7.3322206 -1.2295043 1.7475216 nan
7.3286815 -1.2333219 1.7475216 nan
7.3461857 -1.2453294 1.7514217 nan
7.3426194 -1.2491765 1.7514217 nan
7.3390532 -1.2530235 1.7514217 nan
7.3354874 -1.2568705 1.7514217 nan
7.3548489 -1.2698157 1.7556931 nan
7.5291138 -0.8935535 1.7268759 nan
7.5256834 -0.89725375 1.7268759 nan
7.4779234 -0.88993621 1.7195235 nan
7.4313736 -0.88278377 1.712355 nan
7.4490533 -0.89166045 1.7158474 nan
7.4457006 -0.8952769 1.7158474 nan
7.442348 -0.89889336 1.7158474 nan
7.4389954 -0.90250993 1.7158474 nan
7.4356432 -0.90612638 1.7158474 nan
7.4322901 -0.90974295 1.7158474 nan
7.4289379 -0.91335952 1.7158474 nan
7.4255853 -0.91697598 1.7158474 nan
7.401422 -0.91509354 1.712355 nan
7.3980942 -0.91868353 1.712355 nan
7.3740044 -0.91672158 1.7088625 nan
7.391438 -0.9258635 1.712355 nan
7.3673978 -0.92384839 1.7088625 nan
7.3847818 -0.93304336 1.712355 nan
7.381454 -0.93663335 1.712355 nan
7.3781261 -0.94022334 1.712355 nan
7.3747978 -0.94381332 1.712355 nan
7.37147 -0.94740331 1.712355 nan
7.3681421 -0.95099318 1.712355 nan
7.385354 -0.96037412 1.7158474 nan
7.3820014 -0.96399057 1.7158474 nan
7.3786488 -0.96760714 1.7158474 nan
7.3752966 -0.97122371 1.7158474 nan
7.3719435 -0.97484016 1.7158474 nan
7.3685913 -0.97845662 1.7158474 nan
7.3652387 -0.98207319 1.7158474 nan
7.361886 -0.98568964 1.7158474 nan
7.3381901 -0.98330295 1.712355 nan
7.3348622 -0.98689294 1.712355 nan
7.3315344 -0.99048293 1.712355 nan
7.3282061 -0.99407291 1.712355 nan
7.3248782 -0.99766278 1.712355 nan
7.3013306 -0.99511707 1.7088625 nan
7.298027 -0.99868047 1.7088625 nan
7.3148947 -1.0084327 1.712355 nan
7.3115664 -1.0120227 1.712355 nan
7.308238 -1.0156127 1.712355 nan
7.3250074 -1.0254713 1.7158474 nan
7.3216553 -1.0290878 1.7158474 nan
7.3394051 -1.0393586 1.7195235 nan
7.3360271 -1.0430031 1.7195235 nan
7.3326483 -1.0466474 1.7195235 nan
7.3292699 -1.050292 1.7195235 nan
7.3258915 -1.0539364 1.7195235 nan
7.3225126 -1.0575809 1.7195235 nan
7.3400822 -1.0680473 1.7231997 nan
7.3157558 -1.0648698 1.7195235 nan
7.3332734 -1.0753921 1.7231997 nan
7.3298693 -1.0790645 1.7231997 nan
7.3264647 -1.0827368 1.7231997 nan
7.32306 -1.0864093 1.7231997 nan
7.3404479 -1.0970713 1.7268759 nan
7.337018 -1.1007715 1.7268759 nan
7.3335876 -1.1044719 1.7268759 nan
7.3301573 -1.1081722 1.7268759 nan
7.3474154 -1.1189739 1.7305522 nan
7.3439593 -1.1227021 1.7305522 nan
7.3621716 -1.1339453 1.7344122 nan
7.3586884 -1.1377029 1.7344122 nan
7.3552051 -1.1414605 1.7344122 nan
7.3733091 -1.1528213 1.7382722 nan
7.3697987 -1.1566082 1.7382722 nan
7.3662877 -1.1603953 1.7382722 nan
7.3627772 -1.1641822 1.7382722 nan
7.3592663 -1.1679691 1.7382722 nan
7.3557558 -1.1717559 1.7382722 nan
7.3522453 -1.1755428 1.7382722 nan
7.37115 -1.18751 1.742316 nan
7.3676109 -1.1913276 1.742316 nan
7.3417139 -1.1869037 1.7382722 nan
7.3382034 -1.1906905 1.7382722 nan
7.3346925 -1.1944776 1.7382722 nan
7.3534551 -1.2065983 1.742316 nan
7.3276715 -1.2020514 1.7382722 nan
7.3463769 -1.2142336 1.742316 nan
7.3428378 -1.2180513 1.742316 nan
7.3392987 -1.221869 1.742316 nan
7.3357596 -1.2256867 1.742316 nan
7.3322206 -1.2295043 1.742316 nan
7.3286815 -1.2333219 1.742316 nan
7.3461857 -1.2453294 1.746176 nan
7.3426194 -1.2491765 1.746176 nan
7.3390532 -1.2530235 1.746176 nan
7.3354874 -1.2568705 1.746176 nan
7.5291138 -0.8935535 1.7218302 nan
7.5256834 -0.89725375 1.7218302 nan
7.4779234 -0.88993621 1.7145541 nan
7.4524059 -0.88804388 1.7109159 nan
7.4490533 -0.89166045 1.7109159 nan
7.4457006 -0.8952769 1.7109159 nan
7.442348 -0.89889336 1.7109159 nan
7.4389954 -0.90250993 1.7109159 nan
7.4356432 -0.90612638 1.7109159 nan
7.4322901 -0.90974295 1.7109159 nan
7.4289379 -0.91335952 1.7109159 nan
7.4255853 -0.91697598 1.7109159 nan
7.401422 -0.91509354 1.7074597 nan
7.3773079 -0.91315818 1.7040036 nan
7.3740044 -0.91672158 1.7040036 nan
7.3707013 -0.92028511 1.7040036 nan
7.3673978 -0.92384839 1.7040036 nan
7.3640947 -0.92741191 1.7040036 nan
7.3607912 -0.93097532 1.7040036 nan
7.3781261 -0.94022334 1.7074597 nan
7.3747978 -0.94381332 1.7074597 nan
7.37147 -0.94740331 1.7074597 nan
7.3681421 -0.95099318 1.7074597 nan
7.385354 -0.96037412 1.7109159 nan
7.3820014 -0.96399057 1.7109159 nan
7.3786488 -0.96760714 1.7109159 nan
7.3752966 -0.97122371 1.7109159 nan
7.3719435 -0.97484016 1.7109159 nan
7.3685913 -0.97845662 1.7109159 nan
7.3867044 -0.98833632 1.7145541 nan
7.361886 -0.98568964 1.7109159 nan
7.3585334 -0.98930621 1.7109159 nan
7.3348622 -0.98689294 1.7074597 nan
7.3315344 -0.99048293 1.7074597 nan
7.3282061 -0.99407291 1.7074597 nan
7.3248782 -0.99766278 1.7074597 nan
7.3215504 -1.0012529 1.7074597 nan
7.318222 -1.0048428 1.7074597 nan
7.3148947 -1.0084327 1.7074597 nan
7.3115664 -1.0120227 1.7074597 nan
7.308238 -1.0156127 1.7074597 nan
7.3250074 -1.0254713 1.7109159 nan
7.3216553 -1.0290878 1.7109159 nan
7.3394051 -1.0393586 1.7145541 nan
7.3360271 -1.0430031 1.7145541 nan
7.3326483 -1.0466474 1.7145541 nan
7.3292699 -1.050292 1.7145541 nan
7.3258915 -1.0539364 1.7145541 nan
7.3225126 -1.0575809 1.7145541 nan
7.3191347 -1.0612253 1.7145541 nan
7.3157558 -1.0648698 1.7145541 nan
7.3332734 -1.0753921 1.7181921 nan
7.3298693 -1.0790645 1.7181921 nan
7.3264647 -1.0827368 1.7181921 nan
7.32306 -1.0864093 1.7181921 nan
7.3404479 -1.0970713 1.7218302 nan
7.337018 -1.1007715 1.7218302 nan
7.3335876 -1.1044719 1.7218302 nan
7.3301573 -1.1081722 1.7218302 nan
7.3267269 -1.1118726 1.7218302 nan
7.3439593 -1.1227021 1.7254684 nan
7.3405032 -1.1264304 1.7254684 nan
7.3586884 -1.1377029 1.7292883 nan
7.3552051 -1.1414605 1.7292883 nan
7.3733091 -1.1528213 1.7331083 nan
7.3697987 -1.1566082 1.7331083 nan
7.3662877 -1.1603953 1.7331083 nan
7.3853064 -1.1722394 1.7371103 nan
7.3592663 -1.1679691 1.7331083 nan
7.3782282 -1.1798747 1.7371103 nan
7.3746891 -1.1836925 1.7371103 nan
7.37115 -1.18751 1.7371103 nan
7.3676109 -1.1913276 1.7371103 nan
7.3640723 -1.1951454 1.7371103 nan
7.3382034 -1.1906905 1.7331083 nan
7.3346925 -1.1944776 1.7331083 nan
7.3534551 -1.2065983 1.7371103 nan
7.3276715 -1.2020514 1.7331083 nan
7.3463769 -1.2142336 1.7371103 nan
7.3428378 -1.2180513 1.7371103 nan
7.3392987 -1.221869 1.7371103 nan
7.3357596 -1.2256867 1.7371103 nan
7.3322206 -1.2295043 1.7371103 nan
7.3286815 -1.2333219 1.7371103 nan
7.3461857 -1.2453294 1.7409303 nan
7.3656373 -1.2581784 1.7451141 nan
7.3390532 -1.2530235 1.7409303 nan
7.3584452 -1.2659366 1.7451141 nan
7.3548489 -1.2698157 1.7451141 nan
7.5291138 -0.8935535 1.7167845 nan
7.547874 -0.90273464 1.7203845 nan
7.4779234 -0.88993621 1.7095845 nan
7.4524059 -0.88804388 1.7059845 nan
7.4490533 -0.89166045 1.7059845 nan
7.4457006 -0.8952769 1.7059845 nan
7.442348 -0.89889336 1.7059845 nan
7.4389954 -0.90250993 1.7059845 nan
7.4356432 -0.90612638 1.7059845 nan
7.4542742 -0.91544735 1.7095845 nan
7.4289379 -0.91335952 1.7059845 nan
7.4255853 -0.91697598 1.7059845 nan
7.401422 -0.91509354 1.7025645 nan
7.3980942 -0.91868353 1.7025645 nan
7.3740044 -0.91672158 1.6991445 nan
7.3707013 -0.92028511 1.6991445 nan
7.3673978 -0.92384839 1.6991445 nan
7.3640947 -0.92741191 1.6991445 nan
7.381454 -0.93663335 1.7025645 nan
7.3781261 -0.94022334 1.7025645 nan
7.3747978 -0.94381332 1.7025645 nan
7.37147 -0.94740331 1.7025645 nan
7.3681421 -0.95099318 1.7025645 nan
7.385354 -0.96037412 1.7059845 nan
7.3614864 -0.95817316 1.7025645 nan
7.3581581 -0.96176314 1.7025645 nan
7.3548303 -0.96535313 1.7025645 nan
7.3719435 -0.97484016 1.7059845 nan
7.3685913 -0.97845662 1.7059845 nan
7.3652387 -0.98207319 1.7059845 nan
7.361886 -0.98568964 1.7059845 nan
7.3381901 -0.98330295 1.7025645 nan
7.3348622 -0.98689294 1.7025645 nan
7.3315344 -0.99048293 1.7025645 nan
7.3282061 -0.99407291 1.7025645 nan
7.3248782 -0.99766278 1.7025645 nan
7.3215504 -1.0012529 1.7025645 nan
7.318222 -1.0048428 1.7025645 nan
7.3148947 -1.0084327 1.7025645 nan
7.3115664 -1.0120227 1.7025645 nan
7.3283601 -1.0218548 1.7059845 nan
7.3250074 -1.0254713 1.7059845 nan
7.3216553 -1.0290878 1.7059845 nan
7.3394051 -1.0393586 1.7095845 nan
7.3360271 -1.0430031 1.7095845 nan
7.3115973 -1.0399373 1.7059845 nan
7.3082447 -1.0435538 1.7059845 nan
7.3258915 -1.0539364 1.7095845 nan
7.3015394 -1.0507869 1.7059845 nan
7.3191347 -1.0612253 1.7095845 nan
7.3157558 -1.0648698 1.7095845 nan
7.3332734 -1.0753921 1.7131845 nan
7.3298693 -1.0790645 1.7131845 nan
7.3264647 -1.0827368 1.7131845 nan
7.32306 -1.0864093 1.7131845 nan
7.3404479 -1.0970713 1.7167845 nan
7.337018 -1.1007715 1.7167845 nan
7.3335876 -1.1044719 1.7167845 nan
7.3301573 -1.1081722 1.7167845 nan
7.3267269 -1.1118726 1.7167845 nan
7.3232965 -1.1155728 1.7167845 nan
7.3405032 -1.1264304 1.7203845 nan
7.3370466 -1.1301587 1.7203845 nan
7.3552051 -1.1414605 1.7241645 nan
7.3733091 -1.1528213 1.7279445 nan
7.3697987 -1.1566082 1.7279445 nan
7.3662877 -1.1603953 1.7279445 nan
7.3853064 -1.1722394 1.7319045 nan
7.3592663 -1.1679691 1.7279445 nan
7.3782282 -1.1798747 1.7319045 nan
7.3746891 -1.1836925 1.7319045 nan
7.37115 -1.18751 1.7319045 nan
7.3676109 -1.1913276 1.7319045 nan
7.3640723 -1.1951454 1.7319045 nan
7.3605332 -1.198963 1.7319045 nan
7.3569942 -1.2027807 1.7319045 nan
7.3534551 -1.2065983 1.7319045 nan
7.349916 -1.2104161 1.7319045 nan
7.3463769 -1.2142336 1.7319045 nan
7.3428378 -1.2180513 1.7319045 nan
7.3392987 -1.221869 1.7319045 nan
7.3357596 -1.2256867 1.7319045 nan
7.3322206 -1.2295043 1.7319045 nan
7.3286815 -1.2333219 1.7319045 nan
7.3461857 -1.2453294 1.7356845 nan
7.3656373 -1.2581784 1.7398245 nan
7.3390532 -1.2530235 1.7356845 nan
7.3584452 -1.2659366 1.7398245 nan
7.3548489 -1.2698157 1.7398245 nan
7.3731556 -1.282428 1.7437845 nan
7.5513306 -0.89900637 1.7153007 nan
7.547874 -0.90273464 1.7153007 nan
7.5000882 -0.89544523 1.7081769 nan
7.4745445 -0.89358068 1.704615 nan
7.4711666 -0.89722514 1.704615 nan
7.4677877 -0.90086961 1.704615 nan
7.442348 -0.89889336 1.7010531 nan
7.4389954 -0.90250993 1.7010531 nan
7.4576521 -0.91180289 1.704615 nan
7.4322901 -0.90974295 1.7010531 nan
7.4289379 -0.91335952 1.7010531 nan
7.4255853 -0.91697598 1.7010531 nan
7.401422 -0.91509354 1.6976693 nan
7.3980942 -0.91868353 1.6976693 nan
7.3740044 -0.91672158 1.6942855 nan
7.3707013 -0.92028511 1.6942855 nan
7.3673978 -0.92384839 1.6942855 nan
7.3847818 -0.93304336 1.6976693 nan
7.381454 -0.93663335 1.6976693 nan
7.3987646 -0.94590807 1.7010531 nan
7.3747978 -0.94381332 1.6976693 nan
7.3508811 -0.94166565 1.6942855 nan
7.3681421 -0.95099318 1.6976693 nan
7.385354 -0.96037412 1.7010531 nan
7.3614864 -0.95817316 1.6976693 nan
7.3376675 -0.95591927 1.6942855 nan
7.3343639 -0.95948279 1.6942855 nan
7.3719435 -0.97484016 1.7010531 nan
7.3481741 -0.97253311 1.6976693 nan
7.3652387 -0.98207319 1.7010531 nan
7.361886 -0.98568964 1.7010531 nan
7.3381901 -0.98330295 1.6976693 nan
7.3348622 -0.98689294 1.6976693 nan
7.3518281 -0.99653924 1.7010531 nan
7.3282061 -0.99407291 1.6976693 nan
7.3248782 -0.99766278 1.6976693 nan
7.3215504 -1.0012529 1.6976693 nan
7.318222 -1.0048428 1.6976693 nan
7.3350654 -1.0146217 1.7010531 nan
7.3317127 -1.0182382 1.7010531 nan
7.3283601 -1.0218548 1.7010531 nan
7.3250074 -1.0254713 1.7010531 nan
7.3216553 -1.0290878 1.7010531 nan
7.3394051 -1.0393586 1.704615 nan
7.3360271 -1.0430031 1.704615 nan
7.3326483 -1.0466474 1.704615 nan
7.3292699 -1.050292 1.704615 nan
7.3258915 -1.0539364 1.704615 nan
7.3015394 -1.0507869 1.7010531 nan
7.3191347 -1.0612253 1.704615 nan
7.3157558 -1.0648698 1.704615 nan
7.3332734 -1.0753921 1.7081769 nan
7.3298693 -1.0790645 1.7081769 nan
7.3264647 -1.0827368 1.7081769 nan
7.32306 -1.0864093 1.7081769 nan
7.3404479 -1.0970713 1.7117388 nan
7.337018 -1.1007715 1.7117388 nan
7.3335876 -1.1044719 1.7117388 nan
7.3301573 -1.1081722 1.7117388 nan
7.3267269 -1.1118726 1.7117388 nan
7.3232965 -1.1155728 1.7117388 nan
7.3405032 -1.1264304 1.7153007 nan
7.3586884 -1.1377029 1.7190408 nan
7.3552051 -1.1414605 1.7190408 nan
7.3733091 -1.1528213 1.7227807 nan
7.3697987 -1.1566082 1.7227807 nan
7.3888454 -1.1684217 1.7266989 nan
7.3853064 -1.1722394 1.7266989 nan
7.3817673 -1.1760571 1.7266989 nan
7.3782282 -1.1798747 1.7266989 nan
7.3746891 -1.1836925 1.7266989 nan
7.37115 -1.18751 1.7266989 nan
7.3676109 -1.1913276 1.7266989 nan
7.3640723 -1.1951454 1.7266989 nan
7.3605332 -1.198963 1.7266989 nan
7.3569942 -1.2027807 1.7266989 nan
7.3534551 -1.2065983 1.7266989 nan
7.349916 -1.2104161 1.7266989 nan
7.3463769 -1.2142336 1.7266989 nan
7.3428378 -1.2180513 1.7266989 nan
7.3171396 -1.2134122 1.7227807 nan
7.3357596 -1.2256867 1.7266989 nan
7.3322206 -1.2295043 1.7266989 nan
7.3286815 -1.2333219 1.7266989 nan
7.3461857 -1.2453294 1.7304388 nan
7.3656373 -1.2581784 1.734535 nan
7.3390532 -1.2530235 1.7304388 nan
7.3584452 -1.2659366 1.734535 nan
7.3548489 -1.2698157 1.734535 nan
7.3731556 -1.282428 1.7384531 nan
7.5513306 -0.89900637 1.7102169 nan
7.547874 -0.90273464 1.7102169 nan
7.5000882 -0.89544523 1.7031693 nan
7.4966841 -0.89911759 1.7031693 nan
7.4711666 -0.89722514 1.6996455 nan
7.4677877 -0.90086961 1.6996455 nan
7.4644094 -0.90451396 1.6996455 nan
7.4389954 -0.90250993 1.6961217 nan
7.4356432 -0.90612638 1.6961217 nan
7.4322901 -0.90974295 1.6961217 nan
7.4289379 -0.91335952 1.6961217 nan
7.4047499 -0.91150355 1.6927741 nan
7.401422 -0.91509354 1.6927741 nan
7.3980942 -0.91868353 1.6927741 nan
7.3740044 -0.91672158 1.6894264 nan
7.3707013 -0.92028511 1.6894264 nan
7.3881102 -0.92945349 1.6927741 nan
7.3847818 -0.93304336 1.6927741 nan
7.4021168 -0.9422915 1.6961217 nan
7.3987646 -0.94590807 1.6961217 nan
7.395412 -0.94952464 1.6961217 nan
7.3508811 -0.94166565 1.6894264 nan
7.3681421 -0.95099318 1.6927741 nan
7.385354 -0.96037412 1.6961217 nan
7.3820014 -0.96399057 1.6961217 nan
7.3376675 -0.95591927 1.6894264 nan
7.3343639 -0.95948279 1.6894264 nan
7.3719435 -0.97484016 1.6961217 nan
7.3685913 -0.97845662 1.6961217 nan
7.3652387 -0.98207319 1.6961217 nan
7.361886 -0.98568964 1.6961217 nan
7.3585334 -0.98930621 1.6961217 nan
7.3551807 -0.99292278 1.6961217 nan
7.3518281 -0.99653924 1.6961217 nan
7.3484755 -1.0001557 1.6961217 nan
7.3451233 -1.0037723 1.6961217 nan
7.3417702 -1.0073887 1.6961217 nan
7.338418 -1.0110053 1.6961217 nan
7.3350654 -1.0146217 1.6961217 nan
7.3317127 -1.0182382 1.6961217 nan
7.3283601 -1.0218548 1.6961217 nan
7.3250074 -1.0254713 1.6961217 nan
7.3216553 -1.0290878 1.6961217 nan
7.3394051 -1.0393586 1.6996455 nan
7.3360271 -1.0430031 1.6996455 nan
7.3326483 -1.0466474 1.6996455 nan
7.3082447 -1.0435538 1.6961217 nan
7.3048921 -1.0471704 1.6961217 nan
7.3015394 -1.0507869 1.6961217 nan
7.3191347 -1.0612253 1.6996455 nan
7.3157558 -1.0648698 1.6996455 nan
7.3123775 -1.0685142 1.6996455 nan
7.3298693 -1.0790645 1.7031693 nan
7.3264647 -1.0827368 1.7031693 nan
7.32306 -1.0864093 1.7031693 nan
7.3404479 -1.0970713 1.7066931 nan
7.337018 -1.1007715 1.7066931 nan
7.3335876 -1.1044719 1.7066931 nan
7.3301573 -1.1081722 1.7066931 nan
7.3267269 -1.1118726 1.7066931 nan
7.3439593 -1.1227021 1.7102169 nan
7.3621716 -1.1339453 1.7139169 nan
7.3586884 -1.1377029 1.7139169 nan
7.3768196 -1.1490344 1.7176169 nan
7.3733091 -1.1528213 1.7176169 nan
7.3697987 -1.1566082 1.7176169 nan
7.3888454 -1.1684217 1.7214931 nan
7.3853064 -1.1722394 1.7214931 nan
7.3817673 -1.1760571 1.7214931 nan
7.3782282 -1.1798747 1.7214931 nan
7.3746891 -1.1836925 1.7214931 nan
7.37115 -1.18751 1.7214931 nan
7.3676109 -1.1913276 1.7214931 nan
7.3640723 -1.1951454 1.7214931 nan
7.3605332 -1.198963 1.7214931 nan
7.3569942 -1.2027807 1.7214931 nan
7.3534551 -1.2065983 1.7214931 nan
7.349916 -1.2104161 1.7214931 nan
7.3241606 -1.2058383 1.7176169 nan
7.3206501 -1.2096252 1.7176169 nan
7.3171396 -1.2134122 1.7176169 nan
7.3357596 -1.2256867 1.7214931 nan
7.3322206 -1.2295043 1.7214931 nan
7.3286815 -1.2333219 1.7214931 nan
7.3461857 -1.2453294 1.725193 nan
7.3656373 -1.2581784 1.7292454 nan
7.3620415 -1.2620574 1.7292454 nan
7.3584452 -1.2659366 1.7292454 nan
7.3548489 -1.2698157 1.7292454 nan
7.3731556 -1.282428 1.7331216 nan
7.5513306 -0.89900637 1.7051331 nan
7.547874 -0.90273464 1.7051331 nan
7.5444179 -0.90646303 1.7051331 nan
7.4966841 -0.89911759 1.6981616 nan
7.4711666 -0.89722514 1.6946759 nan
7.4677877 -0.90086961 1.6946759 nan
7.4644094 -0.90451396 1.6946759 nan
7.461031 -0.90815854 1.6946759 nan
7.4576521 -0.91180289 1.6946759 nan
7.4322901 -0.90974295 1.6911902 nan
7.4289379 -0.91335952 1.6911902 nan
7.4047499 -0.91150355 1.6878788 nan
7.401422 -0.91509354 1.6878788 nan
7.3980942 -0.91868353 1.6878788 nan
7.3947659 -0.9222734 1.6878788 nan
7.3707013 -0.92028511 1.6845673 nan
7.3881102 -0.92945349 1.6878788 nan
7.3847818 -0.93304336 1.6878788 nan
7.4021168 -0.9422915 1.6911902 nan
7.3987646 -0.94590807 1.6911902 nan
7.3747978 -0.94381332 1.6878788 nan
7.3920593 -0.95314109 1.6911902 nan
7.3475776 -0.94522905 1.6845673 nan
7.3648138 -0.95458329 1.6878788 nan
7.3614864 -0.95817316 1.6878788 nan
7.3581581 -0.96176314 1.6878788 nan
7.3343639 -0.95948279 1.6845673 nan
7.3515024 -0.96894312 1.6878788 nan
7.3481741 -0.97253311 1.6878788 nan
7.3652387 -0.98207319 1.6911902 nan
7.361886 -0.98568964 1.6911902 nan
7.3381901 -0.98330295 1.6878788 nan
7.3348622 -0.98689294 1.6878788 nan
7.3518281 -0.99653924 1.6911902 nan
7.3484755 -1.0001557 1.6911902 nan
7.3451233 -1.0037723 1.6911902 nan
7.3417702 -1.0073887 1.6911902 nan
7.338418 -1.0110053 1.6911902 nan
7.3350654 -1.0146217 1.6911902 nan
7.3317127 -1.0182382 1.6911902 nan
7.3283601 -1.0218548 1.6911902 nan
7.3250074 -1.0254713 1.6911902 nan
7.3216553 -1.0290878 1.6911902 nan
7.3394051 -1.0393586 1.6946759 nan
7.3360271 -1.0430031 1.6946759 nan
7.3326483 -1.0466474 1.6946759 nan
7.3082447 -1.0435538 1.6911902 nan
7.3048921 -1.0471704 1.6911902 nan
7.3015394 -1.0507869 1.6911902 nan
7.3191347 -1.0612253 1.6946759 nan
7.3157558 -1.0648698 1.6946759 nan
7.3123775 -1.0685142 1.6946759 nan
7.3298693 -1.0790645 1.6981616 nan
7.3264647 -1.0827368 1.6981616 nan
7.32306 -1.0864093 1.6981616 nan
7.3404479 -1.0970713 1.7016474 nan
7.337018 -1.1007715 1.7016474 nan
7.3335876 -1.1044719 1.7016474 nan
7.3301573 -1.1081722 1.7016474 nan
7.3267269 -1.1118726 1.7016474 nan
7.3439593 -1.1227021 1.7051331 nan
7.3621716 -1.1339453 1.708793 nan
7.3586884 -1.1377029 1.708793 nan
7.3768196 -1.1490344 1.7124531 nan
7.3733091 -1.1528213 1.7124531 nan
7.3697987 -1.1566082 1.7124531 nan
7.3888454 -1.1684217 1.7162874 nan
7.3853064 -1.1722394 1.7162874 nan
7.3817673 -1.1760571 1.7162874 nan
7.3782282 -1.1798747 1.7162874 nan
7.3746891 -1.1836925 1.7162874 nan
7.37115 -1.18751 1.7162874 nan
7.3676109 -1.1913276 1.7162874 nan
7.3640723 -1.1951454 1.7162874 nan
7.3605332 -1.198963 1.7162874 nan
7.3569942 -1.2027807 1.7162874 nan
7.3534551 -1.2065983 1.7162874 nan
7.349916 -1.2104161 1.7162874 nan
7.3241606 -1.2058383 1.7124531 nan
7.3206501 -1.2096252 1.7124531 nan
7.3171396 -1.2134122 1.7124531 nan
7.3357596 -1.2256867 1.7162874 nan
7.3322206 -1.2295043 1.7162874 nan
7.3286815 -1.2333219 1.7162874 nan
7.3461857 -1.2453294 1.7199473 nan
7.3656373 -1.2581784 1.723956 nan
7.3620415 -1.2620574 1.723956 nan
7.3584452 -1.2659366 1.723956 nan
7.3548489 -1.2698157 1.723956 nan
7.351253 -1.2736949 1.723956 nan
7.5746579 -0.90473211 1.7036693 nan
7.547874 -0.90273464 1.7000493 nan
7.5444179 -0.90646303 1.7000493 nan
7.4966841 -0.89911759 1.6931541 nan
7.4711666 -0.89722514 1.6897064 nan
7.4457006 -0.8952769 1.6862588 nan
7.442348 -0.89889336 1.6862588 nan
7.4389954 -0.90250993 1.6862588 nan
7.4356432 -0.90612638 1.6862588 nan
7.4322901 -0.90974295 1.6862588 nan
7.4289379 -0.91335952 1.6862588 nan
7.4047499 -0.91150355 1.6829835 nan
7.401422 -0.91509354 1.6829835 nan
7.3980942 -0.91868353 1.6829835 nan
7.3947659 -0.9222734 1.6829835 nan
7.391438 -0.9258635 1.6829835 nan
7.3881102 -0.92945349 1.6829835 nan
7.4054699 -0.93867505 1.6862588 nan
7.4021168 -0.9422915 1.6862588 nan
7.3987646 -0.94590807 1.6862588 nan
7.395412 -0.94952464 1.6862588 nan
7.3920593 -0.95314109 1.6862588 nan
7.3475776 -0.94522905 1.6797084 nan
7.3648138 -0.95458329 1.6829835 nan
7.3614864 -0.95817316 1.6829835 nan
7.3581581 -0.96176314 1.6829835 nan
7.3343639 -0.95948279 1.6797084 nan
7.3515024 -0.96894312 1.6829835 nan
7.3481741 -0.97253311 1.6829835 nan
7.3652387 -0.98207319 1.6862588 nan
7.361886 -0.98568964 1.6862588 nan
7.3585334 -0.98930621 1.6862588 nan
7.3348622 -0.98689294 1.6829835 nan
7.3518281 -0.99653924 1.6862588 nan
7.3282061 -0.99407291 1.6829835 nan
7.3451233 -1.0037723 1.6862588 nan
7.3417702 -1.0073887 1.6862588 nan
7.338418 -1.0110053 1.6862588 nan
7.3350654 -1.0146217 1.6862588 nan
7.3317127 -1.0182382 1.6862588 nan
7.3283601 -1.0218548 1.6862588 nan
7.3250074 -1.0254713 1.6862588 nan
7.3216553 -1.0290878 1.6862588 nan
7.3394051 -1.0393586 1.6897064 nan
7.3360271 -1.0430031 1.6897064 nan
7.3326483 -1.0466474 1.6897064 nan
7.3292699 -1.050292 1.6897064 nan
7.3048921 -1.0471704 1.6862588 nan
7.3225126 -1.0575809 1.6897064 nan
7.3191347 -1.0612253 1.6897064 nan
7.3157558 -1.0648698 1.6897064 nan
7.3123775 -1.0685142 1.6897064 nan
7.3298693 -1.0790645 1.6931541 nan
7.3264647 -1.0827368 1.6931541 nan
7.32306 -1.0864093 1.6931541 nan
7.3404479 -1.0970713 1.6966016 nan
7.337018 -1.1007715 1.6966016 nan
7.3335876 -1.1044719 1.6966016 nan
7.3301573 -1.1081722 1.6966016 nan
7.3267269 -1.1118726 1.6966016 nan
7.3439593 -1.1227021 1.7000493 nan
7.3621716 -1.1339453 1.7036693 nan
7.3586884 -1.1377029 1.7036693 nan
7.3768196 -1.1490344 1.7072892 nan
7.3733091 -1.1528213 1.7072892 nan
7.3697987 -1.1566082 1.7072892 nan
7.3888454 -1.1684217 1.7110816 nan
7.3853064 -1.1722394 1.7110816 nan
7.3817673 -1.1760571 1.7110816 nan
7.3782282 -1.1798747 1.7110816 nan
7.3746891 -1.1836925 1.7110816 nan
7.37115 -1.18751 1.7110816 nan
7.3676109 -1.1913276 1.7110816 nan
7.3640723 -1.1951454 1.7110816 nan
7.3605332 -1.198963 1.7110816 nan
7.3569942 -1.2027807 1.7110816 nan
7.3534551 -1.2065983 1.7110816 nan
7.349916 -1.2104161 1.7110816 nan
7.3241606 -1.2058383 1.7072892 nan
7.3206501 -1.2096252 1.7072892 nan
7.3171396 -1.2134122 1.7072892 nan
7.3357596 -1.2256867 1.7110816 nan
7.3322206 -1.2295043 1.7110816 nan
7.3286815 -1.2333219 1.7110816 nan
7.3461857 -1.2453294 1.7147017 nan
7.3656373 -1.2581784 1.7186664 nan
7.3620415 -1.2620574 1.7186664 nan
7.3584452 -1.2659366 1.7186664 nan
7.3548489 -1.2698157 1.7186664 nan
7.351253 -1.2736949 1.7186664 nan
7.5746579 -0.90473211 1.6985455 nan
7.5711746 -0.9084897 1.6985455 nan
7.5444179 -0.90646303 1.6949655 nan
7.4966841 -0.89911759 1.6881464 nan
7.4711666 -0.89722514 1.684737 nan
7.4677877 -0.90086961 1.684737 nan
7.442348 -0.89889336 1.6813273 nan
7.4389954 -0.90250993 1.6813273 nan
7.4356432 -0.90612638 1.6813273 nan
7.4322901 -0.90974295 1.6813273 nan
7.4289379 -0.91335952 1.6813273 nan
7.4047499 -0.91150355 1.6780883 nan
7.401422 -0.91509354 1.6780883 nan
7.3980942 -0.91868353 1.6780883 nan
7.3947659 -0.9222734 1.6780883 nan
7.391438 -0.9258635 1.6780883 nan
7.3881102 -0.92945349 1.6780883 nan
7.4054699 -0.93867505 1.6813273 nan
7.4021168 -0.9422915 1.6813273 nan
7.3987646 -0.94590807 1.6813273 nan
7.3747978 -0.94381332 1.6780883 nan
7.37147 -0.94740331 1.6780883 nan
7.3475776 -0.94522905 1.6748493 nan
7.3648138 -0.95458329 1.6780883 nan
7.340971 -0.95235598 1.6748493 nan
7.3376675 -0.95591927 1.6748493 nan
7.3343639 -0.95948279 1.6748493 nan
7.3515024 -0.96894312 1.6780883 nan
7.3481741 -0.97253311 1.6780883 nan
7.3448462 -0.97612309 1.6780883 nan
7.361886 -0.98568964 1.6813273 nan
7.3381901 -0.98330295 1.6780883 nan
7.3348622 -0.98689294 1.6780883 nan
7.3518281 -0.99653924 1.6813273 nan
7.3282061 -0.99407291 1.6780883 nan
7.3451233 -1.0037723 1.6813273 nan
7.3417702 -1.0073887 1.6813273 nan
7.338418 -1.0110053 1.6813273 nan
7.3350654 -1.0146217 1.6813273 nan
7.3317127 -1.0182382 1.6813273 nan
7.3283601 -1.0218548 1.6813273 nan
7.3250074 -1.0254713 1.6813273 nan
7.3216553 -1.0290878 1.6813273 nan
7.3394051 -1.0393586 1.684737 nan
7.3360271 -1.0430031 1.684737 nan
7.3326483 -1.0466474 1.684737 nan
7.3292699 -1.050292 1.684737 nan
7.3258915 -1.0539364 1.684737 nan
7.3225126 -1.0575809 1.684737 nan
7.3400822 -1.0680473 1.6881464 nan
7.3366776 -1.0717198 1.6881464 nan
7.3332734 -1.0753921 1.6881464 nan
7.3298693 -1.0790645 1.6881464 nan
7.3264647 -1.0827368 1.6881464 nan
7.3438783 -1.0933709 1.691556 nan
7.3404479 -1.0970713 1.691556 nan
7.337018 -1.1007715 1.691556 nan
7.3335876 -1.1044719 1.691556 nan
7.3301573 -1.1081722 1.691556 nan
7.3267269 -1.1118726 1.691556 nan
7.3439593 -1.1227021 1.6949655 nan
7.3621716 -1.1339453 1.6985455 nan
7.3803301 -1.1452475 1.7021254 nan
7.3768196 -1.1490344 1.7021254 nan
7.3733091 -1.1528213 1.7021254 nan
7.3923845 -1.1646042 1.7058759 nan
7.3888454 -1.1684217 1.7058759 nan
7.3853064 -1.1722394 1.7058759 nan
7.3817673 -1.1760571 1.7058759 nan
7.3782282 -1.1798747 1.7058759 nan
7.3746891 -1.1836925 1.7058759 nan
7.37115 -1.18751 1.7058759 nan
7.3676109 -1.1913276 1.7058759 nan
7.3640723 -1.1951454 1.7058759 nan
7.3605332 -1.198963 1.7058759 nan
7.3569942 -1.2027807 1.7058759 nan
7.3534551 -1.2065983 1.7058759 nan
7.349916 -1.2104161 1.7058759 nan
7.3241606 -1.2058383 1.7021254 nan
7.3428378 -1.2180513 1.7058759 nan
7.3392987 -1.221869 1.7058759 nan
7.3357596 -1.2256867 1.7058759 nan
7.3322206 -1.2295043 1.7058759 nan
7.3286815 -1.2333219 1.7058759 nan
7.3461857 -1.2453294 1.709456 nan
7.3656373 -1.2581784 1.7133769 nan
7.3620415 -1.2620574 1.7133769 nan
7.3584452 -1.2659366 1.7133769 nan
7.3548489 -1.2698157 1.7133769 nan
7.5746579 -0.90473211 1.6934216 nan
7.5711746 -0.9084897 1.6934216 nan
7.5000882 -0.89544523 1.6831388 nan
7.4966841 -0.89911759 1.6831388 nan
7.4711666 -0.89722514 1.6797674 nan
7.4457006 -0.8952769 1.6763959 nan
7.442348 -0.89889336 1.6763959 nan
7.4389954 -0.90250993 1.6763959 nan
7.4356432 -0.90612638 1.6763959 nan
7.411406 -0.90432358 1.6731931 nan
7.4289379 -0.91335952 1.6763959 nan
7.4047499 -0.91150355 1.6731931 nan
7.401422 -0.91509354 1.6731931 nan
7.3980942 -0.91868353 1.6731931 nan
7.3947659 -0.9222734 1.6731931 nan
7.391438 -0.9258635 1.6731931 nan
7.3881102 -0.92945349 1.6731931 nan
7.4054699 -0.93867505 1.6763959 nan
7.4021168 -0.9422915 1.6763959 nan
7.3987646 -0.94590807 1.6763959 nan
7.395412 -0.94952464 1.6763959 nan
7.37147 -0.94740331 1.6731931 nan
7.3681421 -0.95099318 1.6731931 nan
7.3648138 -0.95458329 1.6731931 nan
7.3614864 -0.95817316 1.6731931 nan
7.3376675 -0.95591927 1.6699903 nan
7.3343639 -0.95948279 1.6699903 nan
7.3515024 -0.96894312 1.6731931 nan
7.3481741 -0.97253311 1.6731931 nan
7.3448462 -0.97612309 1.6731931 nan
7.361886 -0.98568964 1.6763959 nan
7.3585334 -0.98930621 1.6763959 nan
7.3551807 -0.99292278 1.6763959 nan
7.3518281 -0.99653924 1.6763959 nan
7.3282061 -0.99407291 1.6731931 nan
7.3248782 -0.99766278 1.6731931 nan
7.3215504 -1.0012529 1.6731931 nan
7.318222 -1.0048428 1.6731931 nan
7.3148947 -1.0084327 1.6731931 nan
7.3317127 -1.0182382 1.6763959 nan
7.308238 -1.0156127 1.6731931 nan
7.3049107 -1.0192027 1.6731931 nan
7.3216553 -1.0290878 1.6763959 nan
7.3394051 -1.0393586 1.6797674 nan
7.3360271 -1.0430031 1.6797674 nan
7.3326483 -1.0466474 1.6797674 nan
7.3292699 -1.050292 1.6797674 nan
7.3258915 -1.0539364 1.6797674 nan
7.3225126 -1.0575809 1.6797674 nan
7.3191347 -1.0612253 1.6797674 nan
7.3366776 -1.0717198 1.6831388 nan
7.3332734 -1.0753921 1.6831388 nan
7.3298693 -1.0790645 1.6831388 nan
7.3264647 -1.0827368 1.6831388 nan
7.3438783 -1.0933709 1.6865102 nan
7.3404479 -1.0970713 1.6865102 nan
7.337018 -1.1007715 1.6865102 nan
7.3335876 -1.1044719 1.6865102 nan
7.3301573 -1.1081722 1.6865102 nan
7.3474154 -1.1189739 1.6898817 nan
7.3656549 -1.1301877 1.6934216 nan
7.3621716 -1.1339453 1.6934216 nan
7.3803301 -1.1452475 1.6969616 nan
7.3768196 -1.1490344 1.6969616 nan
7.3733091 -1.1528213 1.6969616 nan
7.3697987 -1.1566082 1.6969616 nan
7.3888454 -1.1684217 1.7006702 nan
7.3853064 -1.1722394 1.7006702 nan
7.4032459 -1.1837776 1.7042103 nan
7.3996797 -1.1876246 1.7042103 nan
7.3961134 -1.1914716 1.7042103 nan
7.3925471 -1.1953185 1.7042103 nan
7.3889809 -1.1991656 1.7042103 nan
7.3640723 -1.1951454 1.7006702 nan
7.3605332 -1.198963 1.7006702 nan
7.3569942 -1.2027807 1.7006702 nan
7.3534551 -1.2065983 1.7006702 nan
7.349916 -1.2104161 1.7006702 nan
7.3463769 -1.2142336 1.7006702 nan
7.3428378 -1.2180513 1.7006702 nan
7.3392987 -1.221869 1.7006702 nan
7.3357596 -1.2256867 1.7006702 nan
7.3322206 -1.2295043 1.7006702 nan
7.3286815 -1.2333219 1.7006702 nan
7.3461857 -1.2453294 1.7042103 nan
7.3656373 -1.2581784 1.7080874 nan
7.3620415 -1.2620574 1.7080874 nan
7.3584452 -1.2659366 1.7080874 nan
7.3548489 -1.2698157 1.7080874 nan
7.351253 -1.2736949 1.7080874 nan
7.5513306 -0.89900637 1.6847979 nan
7.547874 -0.90273464 1.6847979 nan
7.5000882 -0.89544523 1.6781312 nan
7.4966841 -0.89911759 1.6781312 nan
7.4711666 -0.89722514 1.6747978 nan
7.4457006 -0.8952769 1.6714644 nan
7.442348 -0.89889336 1.6714644 nan
7.4389954 -0.90250993 1.6714644 nan
7.4356432 -0.90612638 1.6714644 nan
7.411406 -0.90432358 1.6682979 nan
7.4080782 -0.90791368 1.6682979 nan
7.3839149 -0.90603125 1.6651312 nan
7.401422 -0.91509354 1.6682979 nan
7.3980942 -0.91868353 1.6682979 nan
7.3947659 -0.9222734 1.6682979 nan
7.391438 -0.9258635 1.6682979 nan
7.3881102 -0.92945349 1.6682979 nan
7.4054699 -0.93867505 1.6714644 nan
7.4021168 -0.9422915 1.6714644 nan
7.3987646 -0.94590807 1.6714644 nan
7.395412 -0.94952464 1.6714644 nan
7.37147 -0.94740331 1.6682979 nan
7.3681421 -0.95099318 1.6682979 nan
7.3442745 -0.94879246 1.6651312 nan
7.340971 -0.95235598 1.6651312 nan
7.3376675 -0.95591927 1.6651312 nan
7.3343639 -0.95948279 1.6651312 nan
7.3310609 -0.96304619 1.6651312 nan
7.3481741 -0.97253311 1.6682979 nan
7.3448462 -0.97612309 1.6682979 nan
7.3415184 -0.97971296 1.6682979 nan
7.3585334 -0.98930621 1.6714644 nan
7.3348622 -0.98689294 1.6682979 nan
7.3315344 -0.99048293 1.6682979 nan
7.3282061 -0.99407291 1.6682979 nan
7.3248782 -0.99766278 1.6682979 nan
7.3215504 -1.0012529 1.6682979 nan
7.318222 -1.0048428 1.6682979 nan
7.3148947 -1.0084327 1.6682979 nan
7.3115664 -1.0120227 1.6682979 nan
7.308238 -1.0156127 1.6682979 nan
7.3049107 -1.0192027 1.6682979 nan
7.3015823 -1.0227927 1.6682979 nan
7.3183022 -1.0327044 1.6714644 nan
7.3360271 -1.0430031 1.6747978 nan
7.3326483 -1.0466474 1.6747978 nan
7.3292699 -1.050292 1.6747978 nan
7.3258915 -1.0539364 1.6747978 nan
7.3225126 -1.0575809 1.6747978 nan
7.3400822 -1.0680473 1.6781312 nan
7.3366776 -1.0717198 1.6781312 nan
7.3332734 -1.0753921 1.6781312 nan
7.3298693 -1.0790645 1.6781312 nan
7.3264647 -1.0827368 1.6781312 nan
7.3438783 -1.0933709 1.6814646 nan
7.3404479 -1.0970713 1.6814646 nan
7.337018 -1.1007715 1.6814646 nan
7.3335876 -1.1044719 1.6814646 nan
7.3301573 -1.1081722 1.6814646 nan
7.3474154 -1.1189739 1.6847979 nan
7.3656549 -1.1301877 1.6882979 nan
7.3621716 -1.1339453 1.6882979 nan
7.3803301 -1.1452475 1.6917979 nan
7.3768196 -1.1490344 1.6917979 nan
7.3733091 -1.1528213 1.6917979 nan
7.3697987 -1.1566082 1.6917979 nan
7.3888454 -1.1684217 1.6954645 nan
7.3853064 -1.1722394 1.6954645 nan
7.4032459 -1.1837776 1.6989645 nan
7.3996797 -1.1876246 1.6989645 nan
7.3961134 -1.1914716 1.6989645 nan
7.3925471 -1.1953185 1.6989645 nan
7.3889809 -1.1991656 1.6989645 nan
7.3854146 -1.2030126 1.6989645 nan
7.3605332 -1.198963 1.6954645 nan
7.3569942 -1.2027807 1.6954645 nan
7.3534551 -1.2065983 1.6954645 nan
7.349916 -1.2104161 1.6954645 nan
7.3463769 -1.2142336 1.6954645 nan
7.3428378 -1.2180513 1.6954645 nan
7.3392987 -1.221869 1.6954645 nan
7.3357596 -1.2256867 1.6954645 nan
7.3322206 -1.2295043 1.6954645 nan
7.3286815 -1.2333219 1.6954645 nan
7.3251424 -1.2371397 1.6954645 nan
7.3426194 -1.2491765 1.6989645 nan
7.3390532 -1.2530235 1.6989645 nan
7.3354874 -1.2568705 1.6989645 nan
7.5513306 -0.89900637 1.679714 nan
7.547874 -0.90273464 1.679714 nan
7.5000882 -0.89544523 1.6731236 nan
7.4966841 -0.89911759 1.6731236 nan
7.4711666 -0.89722514 1.6698283 nan
7.4677877 -0.90086961 1.6698283 nan
7.442348 -0.89889336 1.6665331 nan
7.4389954 -0.90250993 1.6665331 nan
7.4356432 -0.90612638 1.6665331 nan
