# .PCD v0.7 - Point Cloud Data file format
VERSION 0.7
FIELDS x y z rgb
SIZE 4 4 4 4
TYPE F F F F
COUNT 1 1 1 1
WIDTH 1037
HEIGHT 1
VIEWPOINT 0 0 0 1 0 0 0
POINTS 1037
DATA ascii
2.250962 0.03415864 1.5837978 -2.2886728e+38
2.2509527 0.030229136 1.5837978 -2.2754326e+38
2.2509434 0.026299618 1.5837978 -2.2489519e+38
2.2389326 0.021838486 1.5817978 -2.2223154e+38
2.2389235 0.017931826 1.5817978 -2.2090751e+38
2.2389143 0.014025174 1.5817978 -2.1956785e+38
2.2509062 0.010581568 1.5837978 -2.2355033e+38
2.2508969 0.0066520572 1.5837978 -2.2620355e+38
2.2508876 0.002722539 1.5837978 -2.2753274e+38
2.2508783 -0.0012069717 1.5837978 -2.2752754e+38
2.250869 -0.0051364899 1.5837978 -2.2752754e+38
2.2508597 -0.0090659969 1.5837978 -2.2752754e+38
2.2508504 -0.012995515 1.5837978 -2.2885158e+38
2.2508411 -0.016925029 1.5837978 -2.3018083e+38
2.2508318 -0.020854544 1.5837978 -2.2885164e+38
2.2508225 -0.024784055 1.5837978 -2.2752239e+38
2.2508132 -0.028713569 1.5837978 -2.2886198e+38
2.2508039 -0.03264308 1.5837978 -2.3019117e+38
2.2507946 -0.036572594 1.5837978 -2.2886192e+38
2.2507854 -0.040502109 1.5837978 -2.2752752e+38
2.2507761 -0.044431619 1.5837978 -2.2753276e+38
2.2507668 -0.04836113 1.5837978 -2.2753278e+38
2.2637579 -0.0521852 1.5859644 -2.2753282e+38
2.2637486 -0.056139477 1.5859644 -2.2753799e+38
2.275739 -0.060042132 1.5879645 -2.2753797e+38
2.2757297 -0.064019263 1.5879645 -2.2753795e+38
2.2507203 -0.068008699 1.5837978 -2.2754312e+38
2.250711 -0.071938209 1.5837978 -2.2753791e+38
2.2507019 -0.075867727 1.5837978 -2.2753791e+38
2.2506926 -0.079797238 1.5837978 -2.2752754e+38
2.2636831 -0.083819404 1.5859644 -2.2884121e+38
2.2636738 -0.087773673 1.5859644 -2.2884126e+38
2.2756636 -0.091859184 1.5879645 -2.2618284e+38
2.2756543 -0.095836319 1.5879645 -2.2220552e+38
2.275645 -0.099813446 1.5879645 -2.2353994e+38
2.2756355 -0.10379058 1.5879645 -2.2486396e+38
2.2756262 -0.10776772 1.5879645 -2.2484838e+38
2.2756166 -0.11174485 1.5879645 -2.2351915e+38
2.2886066 -0.11601272 1.5901312 -2.2351915e+38
2.2755978 -0.11969911 1.5879645 -2.2352952e+38
2.2885878 -0.12401651 1.5901312 -2.2618795e+38
2.2885783 -0.12801841 1.5901312 -2.2751716e+38
2.2885687 -0.13202029 1.5901312 -2.2883079e+38
2.2885594 -0.1360222 1.5901312 -2.301704e+38
2.2885499 -0.1400241 1.5901312 -2.3282367e+38
2.2755415 -0.1435619 1.5879645 -2.3416332e+38
2.275532 -0.14753903 1.5879645 -2.3550297e+38
2.2755227 -0.15151617 1.5879645 -2.3685303e+38
2.2635148 -0.15499635 1.5859644 -2.3687905e+38
2.2635055 -0.15895063 1.5859644 -2.368739e+38
2.2634959 -0.1629049 1.5859644 -2.4086682e+38
2.2634866 -0.16685918 1.5859644 -2.4351489e+38
2.2504787 -0.17017603 1.5837978 -2.4616817e+38
2.263468 -0.17476773 1.5859644 -2.4750259e+38
2.2634587 -0.17872199 1.5859644 -2.4617858e+38
2.2754474 -0.18333322 1.5879645 -2.4352531e+38
2.2754381 -0.18731035 1.5879645 -2.4485976e+38
2.2754285 -0.19128749 1.5879645 -2.4486497e+38
2.2754192 -0.19526462 1.5879645 -2.4354612e+38
2.2754097 -0.19924174 1.5879645 -2.408929e+38
2.2754004 -0.20321889 1.5879645 -2.4355659e+38
2.288389 -0.20805629 1.5901312 -2.4488594e+38
2.2883794 -0.21205817 1.5901312 -2.4354645e+38
2.2883701 -0.21606006 1.5901312 -2.4220152e+38
2.2883606 -0.22006196 1.5901312 -2.6608077e+38
2.2883511 -0.22406386 1.5901312 -2.9024668e+38
2.2883418 -0.22806574 1.5901312 nan
2.411612 0.30892044 1.6062303 nan
2.411602 0.30468616 1.6062303 nan
2.3965862 0.29795879 1.6037588 nan
2.3965762 0.29375309 1.6037588 -3.3280122e+38
2.3825607 0.28727385 1.6014521 -1.9945809e+38
2.3825507 0.28309479 1.6014521 -2.3017596e+38
2.3825409 0.27891576 1.6014521 -2.6081562e+38
2.3695261 0.27269986 1.5993102 -2.541538e+38
2.3825212 0.2705577 1.6014521 -2.4882651e+38
2.3825114 0.26637867 1.6014521 -2.4351479e+38
2.3694966 0.26023707 1.5993102 -2.3818747e+38
2.3824916 0.25802058 1.6014521 -2.3819784e+38
2.3824816 0.25384155 1.6014521 -2.3818743e+38
2.3824718 0.24966252 1.6014521 -2.3818222e+38
2.3824618 0.24548349 1.6014521 -2.3817181e+38
2.382452 0.24130443 1.6014521 -2.3684254e+38
2.382442 0.23712543 1.6014521 -2.3683733e+38
2.3824322 0.23294637 1.6014521 -2.3417886e+38
2.3694181 0.22700286 1.5993102 -2.3151521e+38
2.3694081 0.22284859 1.5993102 -2.275275e+38
2.3553944 0.21684742 1.5970036 -2.2352943e+38
2.3553846 0.21271983 1.5970036 -2.2353461e+38
2.3413706 0.20679867 1.5946969 -2.2353457e+38
2.3283567 0.20105702 1.592555 -2.2484298e+38
2.3153434 0.19536495 1.5904131 -2.2749097e+38
2.3023298 0.18972236 1.5882711 -2.2749089e+38
2.3023202 0.18569574 1.5882711 -2.2879945e+38
2.3023107 0.18166906 1.5882711 -2.2749629e+38
2.315305 0.17915925 1.5904131 -2.261671e+38
2.3022919 0.17361572 1.5882711 -2.2351905e+38
2.3152857 0.17105643 1.5904131 -2.2218463e+38
2.3022728 0.16556242 1.5882711 -2.2219501e+38
2.3022633 0.16153577 1.5882711 -2.221898e+38
2.3022537 0.1575091 1.5882711 -2.2351899e+38
2.3022442 0.15348245 1.5882711 -2.2617736e+38
2.2892313 0.14811227 1.5861293 -2.2484803e+38
2.289222 0.14411038 1.5861293 -2.2484808e+38
2.2892125 0.1401085 1.5861293 -2.2485331e+38
2.2892029 0.1361066 1.5861293 -2.2485335e+38
2.2891934 0.13210469 1.5861293 -2.261774e+38
2.2891841 0.12810281 1.5861293 -2.2750146e+38
2.2891746 0.12410091 1.5861293 -2.2750667e+38
2.289165 0.12009902 1.5861293 -2.275015e+38
2.2761528 0.11495167 1.5839874 -2.2484826e+38
2.2761436 0.11097454 1.5839874 -2.2352422e+38
2.264132 0.10598581 1.5820103 -2.2352939e+38
2.2641227 0.10203153 1.5820103 -2.2486385e+38
2.2511108 0.097030848 1.5798683 -2.2486907e+38
2.2511015 0.093101352 1.5798683 -2.2486913e+38
2.2510922 0.089171827 1.5798683 -2.2619842e+38
2.2510829 0.085242316 1.5798683 -2.2752245e+38
2.2510736 0.081312805 1.5798683 -2.2619322e+38
2.2510643 0.077383295 1.5798683 -2.2486398e+38
2.251055 0.073453769 1.5798683 -2.2619836e+38
2.2510457 0.069524258 1.5798683 -2.2752237e+38
2.2510364 0.065594748 1.5798683 -2.2752233e+38
2.2510271 0.061665237 1.5798683 -2.2885156e+38
2.2510178 0.057735726 1.5798683 -2.2752233e+38
2.2510085 0.053806216 1.5798683 -2.2619832e+38
2.2509992 0.04987669 1.5798683 -2.2620351e+38
2.2509899 0.045947187 1.5798683 -2.2620357e+38
2.2509806 0.042017668 1.5798683 -2.2753284e+38
2.2509713 0.038088158 1.5798683 -2.288673e+38
2.250962 0.03415864 1.5798683 -2.2754848e+38
2.2389512 0.029651798 1.5778911 -2.2755369e+38
2.2509434 0.026299618 1.5798683 -2.2622446e+38
2.2389326 0.021838486 1.5778911 -2.2489004e+38
2.2389235 0.017931826 1.5778911 -2.2489002e+38
2.2389143 0.014025174 1.5778911 -2.2488479e+38
2.2509062 0.010581568 1.5798683 -2.2621395e+38
2.2508969 0.0066520572 1.5798683 -2.2620876e+38
2.2508876 0.002722539 1.5798683 -2.2620874e+38
2.2508783 -0.0012069717 1.5798683 -2.2620353e+38
2.250869 -0.0051364899 1.5798683 -2.262087e+38
2.2508597 -0.0090659969 1.5798683 -2.2753793e+38
2.2508504 -0.012995515 1.5798683 -2.2886196e+38
2.2508411 -0.016925029 1.5798683 -2.3150488e+38
2.2508318 -0.020854544 1.5798683 -2.3019127e+38
2.2508225 -0.024784055 1.5798683 -2.3019125e+38
2.2508132 -0.028713569 1.5798683 -2.3152563e+38
2.2508039 -0.03264308 1.5798683 -2.3284965e+38
2.2507946 -0.036572594 1.5798683 -2.315204e+38
2.2507854 -0.040502109 1.5798683 -2.3150484e+38
2.2637765 -0.044276655 1.5820103 -2.3152044e+38
2.2637672 -0.048230927 1.5820103 -2.3018608e+38
2.2757578 -0.052087866 1.5839874 -2.3019653e+38
2.2757485 -0.056065001 1.5839874 -2.2887245e+38
2.2637391 -0.060093753 1.5820103 -2.2887241e+38
2.2757297 -0.064019263 1.5839874 -2.3020162e+38
2.2637205 -0.068002298 1.5820103 -2.3020158e+38
2.250711 -0.071938209 1.5798683 -2.3153078e+38
2.2637017 -0.075910851 1.5820103 -2.3019634e+38
2.2636924 -0.079865128 1.5820103 -2.3018077e+38
2.2636831 -0.083819404 1.5820103 -2.3018075e+38
2.2636738 -0.087773673 1.5820103 -2.28836e+38
2.2756636 -0.091859184 1.5839874 -2.2486396e+38
2.2756543 -0.095836319 1.5839874 -2.2220548e+38
2.275645 -0.099813446 1.5839874 -2.2354507e+38
2.2756355 -0.10379058 1.5839874 -2.2486909e+38
2.2756262 -0.10776772 1.5839874 -2.2352943e+38
2.2756166 -0.11174485 1.5839874 -2.2350864e+38
2.2756073 -0.11572198 1.5839874 -2.2219495e+38
2.2755978 -0.11969911 1.5839874 -2.2086055e+38
2.2755885 -0.12367624 1.5839874 -2.2352939e+38
2.275579 -0.12765338 1.5839874 -2.2618787e+38
2.2755697 -0.13163051 1.5839874 -2.2617751e+38
2.2755601 -0.13560764 1.5839874 -2.261827e+38
2.2755508 -0.13958476 1.5839874 -2.2883596e+38
2.2755415 -0.1435619 1.5839874 -2.3150486e+38
2.275532 -0.14753903 1.5839874 -2.3417374e+38
2.2755227 -0.15151617 1.5839874 -2.3685303e+38
2.2635148 -0.15499635 1.5820103 -2.381927e+38
2.2755039 -0.15947044 1.5839874 -2.3819274e+38
2.2634959 -0.1629049 1.5820103 -2.4085122e+38
2.2634866 -0.16685918 1.5820103 -2.4351489e+38
2.2504787 -0.17017603 1.5798683 -2.4483895e+38
2.263468 -0.17476773 1.5820103 -2.4617339e+38
2.2634587 -0.17872199 1.5820103 -2.4484935e+38
2.2754474 -0.18333322 1.5839874 -2.4352533e+38
2.2754381 -0.18731035 1.5839874 -2.4485978e+38
2.2754285 -0.19128749 1.5839874 -2.4752344e+38
2.2754192 -0.19526462 1.5839874 -2.4620462e+38
2.2754097 -0.19924174 1.5839874 -2.448858e+38
2.2754004 -0.20321889 1.5839874 -2.4488582e+38
2.2753909 -0.20719601 1.5839874 -2.4621515e+38
2.2883794 -0.21205817 1.5861293 -2.3822948e+38
2.275372 -0.21515027 1.5839874 -2.3023841e+38
2.2753627 -0.21912742 1.5839874 -2.7284106e+38
2.2883511 -0.22406386 1.5861293 -3.1682069e+38
2.2883418 -0.22806574 1.5861293 nan
2.3966062 0.3063702 1.5995531 nan
2.3965962 0.30216452 1.5995531 nan
2.3965862 0.29795879 1.5995531 nan
2.3965762 0.29375309 1.5995531 nan
2.3825607 0.28727385 1.5972731 -2.1426652e+38
2.3825507 0.28309479 1.5972731 -2.3817713e+38
2.3825409 0.27891576 1.5972731 -2.6079996e+38
2.3695261 0.27269986 1.595156 -2.5548305e+38
2.3695164 0.2685456 1.595156 -2.4883691e+38
2.3695066 0.26439133 1.595156 -2.4352002e+38
2.3694966 0.26023707 1.595156 -2.3687386e+38
2.3824916 0.25802058 1.5972731 -2.3821345e+38
2.369477 0.25192848 1.595156 -2.3952189e+38
2.3824718 0.24966252 1.5972731 -2.3950631e+38
2.3824618 0.24548349 1.5972731 -2.3817183e+38
2.3694475 0.23946568 1.595156 -2.3684256e+38
2.3694377 0.23531142 1.595156 -2.3551332e+38
2.3694279 0.23115712 1.595156 -2.3285484e+38
2.3694181 0.22700286 1.595156 -2.2885673e+38
2.3694081 0.22284859 1.595156 -2.2619823e+38
2.3553944 0.21684742 1.592876 -2.2220534e+38
2.3553846 0.21271983 1.592876 -2.2220015e+38
2.3413706 0.20679867 1.590596 -2.2085013e+38
2.3413608 0.20269772 1.590596 -2.2349299e+38
2.3153434 0.19536495 1.5863616 -2.2616179e+38
2.3153336 0.19131351 1.5863616 -2.2749099e+38
2.3153241 0.18726209 1.5863616 -2.2883067e+38
2.3153145 0.18321067 1.5863616 -2.2884113e+38
2.3023012 0.17764239 1.5842445 -2.2751712e+38
2.3022919 0.17361572 1.5842445 -2.261983e+38
2.3022823 0.16958907 1.5842445 -2.2353465e+38
2.3022728 0.16556242 1.5842445 -2.2354503e+38
2.3022633 0.16153577 1.5842445 -2.2353463e+38
2.3022537 0.1575091 1.5842445 -2.2486383e+38
2.3022442 0.15348245 1.5842445 -2.2618779e+38
2.3022346 0.1494558 1.5842445 -2.2618252e+38
2.3022251 0.14542915 1.5842445 -2.2485852e+38
2.2892125 0.1401085 1.5821273 -2.2352935e+38
2.2892029 0.1361066 1.5821273 -2.2220017e+38
2.2891934 0.13210469 1.5821273 -2.2485864e+38
2.2891841 0.12810281 1.5821273 -2.2618789e+38
2.2891746 0.12410091 1.5821273 -2.2751712e+38
2.289165 0.12009902 1.5821273 -2.2884115e+38
2.2761528 0.11495167 1.5800102 -2.2618272e+38
2.2761436 0.11097454 1.5800102 -2.2352943e+38
2.264132 0.10598581 1.578056 -2.2486385e+38
2.2641227 0.10203153 1.578056 -2.261983e+38
2.2641132 0.098077253 1.578056 -2.2620872e+38
2.2511015 0.093101352 1.5759388 -2.2620876e+38
2.2510922 0.089171827 1.5759388 -2.2620361e+38
2.2510829 0.085242316 1.5759388 -2.2619844e+38
2.2510736 0.081312805 1.5759388 -2.2486402e+38
2.2510643 0.077383295 1.5759388 -2.2354515e+38
2.251055 0.073453769 1.5759388 -2.2487957e+38
2.2510457 0.069524258 1.5759388 -2.261984e+38
2.2510364 0.065594748 1.5759388 -2.2619318e+38
2.2510271 0.061665237 1.5759388 -2.2619838e+38
2.2510178 0.057735726 1.5759388 -2.2620355e+38
2.2510085 0.053806216 1.5759388 -2.2487953e+38
2.2509992 0.04987669 1.5759388 -2.2620876e+38
2.2509899 0.045947187 1.5759388 -2.262088e+38
2.2509806 0.042017668 1.5759388 -2.2754326e+38
2.2509713 0.038088158 1.5759388 -2.275485e+38
2.250962 0.03415864 1.5759388 -2.2755373e+38
2.2389512 0.029651798 1.5739845 -2.2754854e+38
2.2509434 0.026299618 1.5759388 -2.2754856e+38
2.2389326 0.021838486 1.5739845 -2.2754852e+38
2.2509248 0.018440589 1.5759388 -2.2887772e+38
2.2509155 0.014511079 1.5759388 -2.3020693e+38
2.2509062 0.010581568 1.5759388 -2.2888288e+38
2.2508969 0.0066520572 1.5759388 -2.2621921e+38
2.2508876 0.002722539 1.5759388 -2.2621919e+38
2.2508783 -0.0012069717 1.5759388 -2.2488994e+38
2.250869 -0.0051364899 1.5759388 -2.2622434e+38
2.2508597 -0.0090659969 1.5759388 -2.2621913e+38
2.2508504 -0.012995515 1.5759388 -2.2887239e+38
2.2508411 -0.016925029 1.5759388 -2.3152567e+38
2.2508318 -0.020854544 1.5759388 -2.3153608e+38
2.2508225 -0.024784055 1.5759388 -2.3153608e+38
2.263814 -0.028459553 1.578056 -2.3286533e+38
2.2638047 -0.032413825 1.578056 -2.3418934e+38
2.2757955 -0.036179338 1.5800102 -2.3551336e+38
2.2637858 -0.040322375 1.578056 -2.3551338e+38
2.2637765 -0.044276655 1.578056 -2.3419455e+38
2.2637672 -0.048230927 1.578056 -2.3286017e+38
2.2757578 -0.052087866 1.5800102 -2.3153616e+38
2.2757485 -0.056065001 1.5800102 -2.3020689e+38
2.2637391 -0.060093753 1.578056 -2.315361e+38
2.2637298 -0.064048022 1.578056 -2.3153606e+38
2.2637205 -0.068002298 1.578056 -2.3286527e+38
2.2637112 -0.071956575 1.578056 -2.3419449e+38
2.2637017 -0.075910851 1.578056 -2.3418928e+38
2.2636924 -0.079865128 1.578056 -2.3285484e+38
2.2636831 -0.083819404 1.578056 -2.3152559e+38
2.2636738 -0.087773673 1.578056 -2.2886198e+38
2.2756636 -0.091859184 1.5800102 -2.248899e+38
2.2636549 -0.095682226 1.578056 -2.20897e+38
2.275645 -0.099813446 1.5800102 -2.2222621e+38
2.2756355 -0.10379058 1.5800102 -2.2354503e+38
2.2756262 -0.10776772 1.5800102 -2.2353984e+38
2.2756166 -0.11174485 1.5800102 -2.222054e+38
2.2756073 -0.11572198 1.5800102 -2.2088134e+38
2.2755978 -0.11969911 1.5800102 -2.1821769e+38
2.2755885 -0.12367624 1.5800102 -2.2087615e+38
2.275579 -0.12765338 1.5800102 -2.2352422e+38
2.2755697 -0.13163051 1.5800102 -2.2351384e+38
2.2755601 -0.13560764 1.5800102 -2.2218461e+38
2.2755508 -0.13958476 1.5800102 -2.248327e+38
2.2755415 -0.1435619 1.5800102 -2.2751197e+38
2.275532 -0.14753903 1.5800102 -2.3282892e+38
2.2635241 -0.15104207 1.578056 -2.3683743e+38
2.2635148 -0.15499635 1.578056 -2.3817711e+38
2.2635055 -0.15895063 1.578056 -2.3951157e+38
2.2634959 -0.1629049 1.578056 -2.4216487e+38
2.2634866 -0.16685918 1.578056 -2.435045e+38
2.2504787 -0.17017603 1.5759388 -2.4483375e+38
2.263468 -0.17476773 1.578056 -2.4484416e+38
2.2634587 -0.17872199 1.578056 -2.4351495e+38
2.2754474 -0.18333322 1.5800102 -2.4219611e+38
2.2754381 -0.18731035 1.5800102 -2.461942e+38
2.2754285 -0.19128749 1.5800102 -2.4885788e+38
2.2754192 -0.19526462 1.5800102 -2.4885793e+38
2.2754097 -0.19924174 1.5800102 -2.4886833e+38
2.2754004 -0.20321889 1.5800102 -2.4754431e+38
2.2753909 -0.20719601 1.5800102 -2.4622026e+38
2.2883794 -0.21205817 1.5821273 -2.3290719e+38
2.2883701 -0.21606006 1.5821273 -2.18291e+38
2.2753627 -0.21912742 1.5800102 -2.8087908e+38
2.2883511 -0.22406386 1.5821273 nan
2.2883418 -0.22806574 1.5821273 nan
2.411612 0.30892044 1.5977616 nan
2.411602 0.30468616 1.5977616 nan
2.3965862 0.29795879 1.5953474 nan
2.3965762 0.29375309 1.5953474 nan
2.3825607 0.28727385 1.593094 -2.3018091e+38
2.3825507 0.28309479 1.593094 -2.4614712e+38
2.3825409 0.27891576 1.593094 -2.621343e+38
2.3695261 0.27269986 1.5910016 -2.5415904e+38
2.3695164 0.2685456 1.5910016 -2.4751292e+38
2.3695066 0.26439133 1.5910016 -2.4219601e+38
2.3694966 0.26023707 1.5910016 -2.3688429e+38
2.3694868 0.25608277 1.5910016 -2.3820311e+38
2.369477 0.25192848 1.5910016 -2.3818753e+38
2.3694673 0.24777424 1.5910016 -2.3817713e+38
2.3694575 0.24361995 1.5910016 -2.3816668e+38
2.3694475 0.23946568 1.5910016 -2.3551336e+38
2.3694377 0.23531142 1.5910016 -2.341893e+38
2.3694279 0.23115712 1.5910016 -2.3152042e+38
2.3694181 0.22700286 1.5910016 -2.2885152e+38
2.3694081 0.22284859 1.5910016 -2.2752223e+38
2.3553944 0.21684742 1.5887483 -2.2486895e+38
2.3553846 0.21271983 1.5887483 -2.2483777e+38
2.3413706 0.20679867 1.5864949 -2.2347222e+38
2.3413608 0.20269772 1.5864949 -2.2482221e+38
2.3283472 0.19698086 1.5844026 -2.2749627e+38
2.3283374 0.19290465 1.5844026 -2.2618781e+38
2.3153241 0.18726209 1.5823102 -2.2620345e+38
2.3153145 0.18321067 1.5823102 -2.2620349e+38
2.3023012 0.17764239 1.5802178 -2.2752754e+38
2.3022919 0.17361572 1.5802178 -2.2620351e+38
2.3022823 0.16958907 1.5802178 -2.2620351e+38
2.3022728 0.16556242 1.5802178 -2.2753274e+38
2.3022633 0.16153577 1.5802178 -2.2752752e+38
2.3022537 0.1575091 1.5802178 -2.275275e+38
2.3022442 0.15348245 1.5802178 -2.2752225e+38
2.2892313 0.14811227 1.5781255 -2.2619294e+38
2.3022251 0.14542915 1.5802178 -2.2619821e+38
2.2892125 0.1401085 1.5781255 -2.2618789e+38
2.2892029 0.1361066 1.5781255 -2.2618274e+38
2.2891934 0.13210469 1.5781255 -2.2752237e+38
2.2891841 0.12810281 1.5781255 -2.2886198e+38
2.2891746 0.12410091 1.5781255 -2.288516e+38
2.289165 0.12009902 1.5781255 -2.3018083e+38
2.2761528 0.11495167 1.5760331 -2.2751716e+38
2.2761436 0.11097454 1.5760331 -2.2619312e+38
2.276134 0.10699742 1.5760331 -2.2619832e+38
2.2641227 0.10203153 1.5741017 -2.248743e+38
2.2641132 0.098077253 1.5741017 -2.248899e+38
2.2641039 0.094122976 1.5741017 -2.2622436e+38
2.2640946 0.0901687 1.5741017 -2.262088e+38
2.2640853 0.086214423 1.5741017 -2.2752767e+38
2.2640758 0.082260162 1.5741017 -2.2620365e+38
2.2640665 0.07830587 1.5741017 -2.2620884e+38
2.251055 0.073453769 1.5720093 -2.2753807e+38
2.2510457 0.069524258 1.5720093 -2.2885691e+38
2.2510364 0.065594748 1.5720093 -2.2886211e+38
2.2510271 0.061665237 1.5720093 -2.3019651e+38
2.2510178 0.057735726 1.5720093 -2.3020168e+38
2.2510085 0.053806216 1.5720093 -2.3020689e+38
2.2640011 0.050625943 1.5741017 -2.302017e+38
2.2509899 0.045947187 1.5720093 -2.3152577e+38
2.2509806 0.042017668 1.5720093 -2.3020176e+38
2.2509713 0.038088158 1.5720093 -2.2887778e+38
2.250962 0.03415864 1.5720093 -2.2887782e+38
2.2509527 0.030229136 1.5720093 -2.2886744e+38
2.2509434 0.026299618 1.5720093 -2.2888302e+38
2.2389326 0.021838486 1.5700779 -2.2888298e+38
2.2509248 0.018440589 1.5720093 -2.3021216e+38
2.2509155 0.014511079 1.5720093 -2.3154139e+38
2.2509062 0.010581568 1.5720093 -2.2888813e+38
2.2508969 0.0066520572 1.5720093 -2.2622965e+38
2.2508876 0.002722539 1.5720093 -2.2490038e+38
2.2508783 -0.0012069717 1.5720093 -2.2490036e+38
2.250869 -0.0051364899 1.5720093 -2.2622957e+38
2.2508597 -0.0090659969 1.5720093 -2.2755878e+38
2.2508504 -0.012995515 1.5720093 -2.3021202e+38
2.2508411 -0.016925029 1.5720093 -2.3153608e+38
2.2638328 -0.020551 1.5741017 -2.328705e+38
2.2638233 -0.024505276 1.5741017 -2.3287054e+38
2.263814 -0.028459553 1.5741017 -2.3286539e+38
2.2638047 -0.032413825 1.5741017 -2.341894e+38
2.2637954 -0.036368102 1.5741017 -2.3419457e+38
2.2637858 -0.040322375 1.5741017 -2.3418942e+38
2.2637765 -0.044276655 1.5741017 -2.3286541e+38
2.2637672 -0.048230927 1.5741017 -2.3153099e+38
2.2637579 -0.0521852 1.5741017 -2.3020695e+38
2.2637486 -0.056139477 1.5741017 -2.3020693e+38
2.2637391 -0.060093753 1.5741017 -2.3021208e+38
2.2637298 -0.064048022 1.5741017 -2.3021725e+38
2.2637205 -0.068002298 1.5741017 -2.3153608e+38
2.2637112 -0.071956575 1.5741017 -2.3153608e+38
2.2637017 -0.075910851 1.5741017 -2.3154127e+38
2.2636924 -0.079865128 1.5741017 -2.3154125e+38
2.2636831 -0.083819404 1.5741017 -2.3020679e+38
2.2636738 -0.087773673 1.5741017 -2.302016e+38
2.2756636 -0.091859184 1.5760331 -2.2755353e+38
2.2636549 -0.095682226 1.5741017 -2.2622428e+38
2.275645 -0.099813446 1.5760331 -2.2621904e+38
2.2756355 -0.10379058 1.5760331 -2.2753791e+38
2.2756262 -0.10776772 1.5760331 -2.262087e+38
2.2756166 -0.11174485 1.5760331 -2.261983e+38
2.2756073 -0.11572198 1.5760331 -2.2487424e+38
2.2755978 -0.11969911 1.5760331 -2.2353463e+38
2.2755885 -0.12367624 1.5760331 -2.2486383e+38
2.275579 -0.12765338 1.5760331 -2.2618266e+38
2.2755697 -0.13163051 1.5760331 -2.2484822e+38
2.2755601 -0.13560764 1.5760331 -2.2483268e+38
2.2755508 -0.13958476 1.5760331 -2.2750673e+38
2.2755415 -0.1435619 1.5760331 -2.3018081e+38
2.275532 -0.14753903 1.5760331 -2.3283928e+38
2.2635241 -0.15104207 1.5741017 -2.3550818e+38
2.2635148 -0.15499635 1.5741017 -2.3817189e+38
2.2635055 -0.15895063 1.5741017 -2.3950118e+38
2.2634959 -0.1629049 1.5741017 -2.4084603e+38
2.2634866 -0.16685918 1.5741017 -2.435097e+38
2.2634773 -0.17081344 1.5741017 -2.4351489e+38
2.263468 -0.17476773 1.5741017 -2.4485454e+38
2.2634587 -0.17872199 1.5741017 -2.4352533e+38
2.2754474 -0.18333322 1.5760331 -2.4352536e+38
2.2754381 -0.18731035 1.5760331 -2.4486497e+38
2.2754285 -0.19128749 1.5760331 -2.4619945e+38
2.2754192 -0.19526462 1.5760331 -2.4752874e+38
2.2754097 -0.19924174 1.5760331 -2.4886837e+38
2.2754004 -0.20321889 1.5760331 -2.4888397e+38
2.2753909 -0.20719601 1.5760331 -2.488994e+38
2.2753816 -0.21117315 1.5760331 -2.4087197e+38
2.275372 -0.21515027 1.5760331 -2.3149509e+38
2.2753627 -0.21912742 1.5760331 -2.8621711e+38
2.2753534 -0.22310454 1.5760331 nan
2.2753439 -0.22708167 1.5760331 nan
2.411612 0.30892044 1.5935273 nan
2.411602 0.30468616 1.5935273 nan
2.3965862 0.29795879 1.5911417 nan
2.3965762 0.29375309 1.5911417 nan
2.3965664 0.28954738 1.5911417 -2.4620949e+38
2.3825507 0.28309479 1.588915 -2.5410184e+38
2.3825409 0.27891576 1.588915 -2.6211881e+38
2.3825309 0.27473673 1.588915 -2.5416427e+38
2.3825212 0.2705577 1.588915 -2.4485446e+38
2.3825114 0.26637867 1.588915 -2.4087195e+38
2.3694966 0.26023707 1.5868473 -2.3687386e+38
2.3824916 0.25802058 1.588915 -2.3685826e+38
2.369477 0.25192848 1.5868473 -2.3685305e+38
2.3694673 0.24777424 1.5868473 -2.3684265e+38
2.3694575 0.24361995 1.5868473 -2.3683741e+38
2.3694475 0.23946568 1.5868473 -2.3550295e+38
2.3694377 0.23531142 1.5868473 -2.3284965e+38
2.3694279 0.23115712 1.5868473 -2.3151519e+38
2.3694181 0.22700286 1.5868473 -2.2884631e+38
2.3554041 0.22097501 1.5846207 -2.2884627e+38
2.3553944 0.21684742 1.5846207 -2.2750146e+38
2.3553846 0.21271983 1.5846207 -2.2747029e+38
2.3413706 0.20679867 1.582394 -2.2615146e+38
2.3413608 0.20269772 1.582394 -2.274911e+38
2.3283472 0.19698086 1.5803264 -2.2752227e+38
2.3283374 0.19290465 1.5803264 -2.2622422e+38
2.3153241 0.18726209 1.5782588 -2.2356059e+38
2.3153145 0.18321067 1.5782588 -2.2489505e+38
2.3023012 0.17764239 1.5761912 -2.2621911e+38
2.3022919 0.17361572 1.5761912 -2.2754835e+38
2.3022823 0.16958907 1.5761912 -2.2887758e+38
2.3022728 0.16556242 1.5761912 -2.3020162e+38
2.3022633 0.16153577 1.5761912 -2.3152559e+38
2.3022537 0.1575091 1.5761912 -2.3019632e+38
2.3022442 0.15348245 1.5761912 -2.2753265e+38
2.3022346 0.1494558 1.5761912 -2.2753265e+38
2.3022251 0.14542915 1.5761912 -2.2619825e+38
2.2892125 0.1401085 1.5741236 -2.2751714e+38
2.2892029 0.1361066 1.5741236 -2.288516e+38
2.2891934 0.13210469 1.5741236 -2.3018087e+38
2.2891841 0.12810281 1.5741236 -2.3150488e+38
2.2891746 0.12410091 1.5741236 -2.3149969e+38
2.289165 0.12009902 1.5741236 -2.3017044e+38
2.2891557 0.11609712 1.5741236 -2.3017042e+38
2.2761436 0.11097454 1.5720559 -2.288516e+38
2.276134 0.10699742 1.5720559 -2.2619316e+38
2.2641227 0.10203153 1.5701474 -2.2355028e+38
2.2641132 0.098077253 1.5701474 -2.2490028e+38
2.2641039 0.094122976 1.5701474 -2.248899e+38
2.2640946 0.0901687 1.5701474 -2.2621395e+38
2.2510829 0.085242316 1.5680797 -2.2753801e+38
2.2510736 0.081312805 1.5680797 -2.2753803e+38
2.2510643 0.077383295 1.5680797 -2.2753803e+38
2.251055 0.073453769 1.5680797 -2.3019651e+38
2.2510457 0.069524258 1.5680797 -2.3152573e+38
2.2510364 0.065594748 1.5680797 -2.3285498e+38
2.2510271 0.061665237 1.5680797 -2.3286017e+38
2.2510178 0.057735726 1.5680797 -2.3419979e+38
2.2510085 0.053806216 1.5680797 -2.3419981e+38
2.2640011 0.050625943 1.5701474 -2.3552386e+38
2.2509899 0.045947187 1.5680797 -2.3684792e+38
2.2509806 0.042017668 1.5680797 -2.3284989e+38
2.2509713 0.038088158 1.5680797 -2.2887782e+38
2.250962 0.03415864 1.5680797 -2.2888306e+38
2.2509527 0.030229136 1.5680797 -2.2888825e+38
2.2509434 0.026299618 1.5680797 -2.2890383e+38
2.2509341 0.022370107 1.5680797 -2.288934e+38
2.2509248 0.018440589 1.5680797 -2.302174e+38
2.2509155 0.014511079 1.5680797 -2.3155182e+38
2.2509062 0.010581568 1.5680797 -2.2890373e+38
2.2508969 0.0066520572 1.5680797 -2.2623488e+38
2.2508876 0.002722539 1.5680797 -2.2491085e+38
2.2508783 -0.0012069717 1.5680797 -2.2357641e+38
2.250869 -0.0051364899 1.5680797 -2.2622967e+38
2.2508597 -0.0090659969 1.5680797 -2.2889332e+38
2.2508504 -0.012995515 1.5680797 -2.3021214e+38
2.2508411 -0.016925029 1.5680797 -2.3154135e+38
2.2638328 -0.020551 1.5701474 -2.3287058e+38
2.2638233 -0.024505276 1.5701474 -2.3419462e+38
2.263814 -0.028459553 1.5701474 -2.3419462e+38
2.2638047 -0.032413825 1.5701474 -2.3287058e+38
2.2637954 -0.036368102 1.5701474 -2.3287577e+38
2.2637858 -0.040322375 1.5701474 -2.3154137e+38
2.2637765 -0.044276655 1.5701474 -2.3021218e+38
2.2757671 -0.048110735 1.5720559 -2.2888294e+38
2.2637579 -0.0521852 1.5701474 -2.3021214e+38
2.2637486 -0.056139477 1.5701474 -2.3020691e+38
2.2637391 -0.060093753 1.5701474 -2.3020687e+38
2.2637298 -0.064048022 1.5701474 -2.2887764e+38
2.2637205 -0.068002298 1.5701474 -2.2887245e+38
2.2637112 -0.071956575 1.5701474 -2.2887764e+38
2.2637017 -0.075910851 1.5701474 -2.3021723e+38
2.2636924 -0.079865128 1.5701474 -2.3021723e+38
2.2636831 -0.083819404 1.5701474 -2.3021721e+38
2.2636738 -0.087773673 1.5701474 -2.3022243e+38
2.2756636 -0.091859184 1.5720559 -2.3023283e+38
2.2636549 -0.095682226 1.5701474 -2.3022241e+38
2.275645 -0.099813446 1.5720559 -2.3021719e+38
2.2756355 -0.10379058 1.5720559 -2.3020681e+38
2.2756262 -0.10776772 1.5720559 -2.3021202e+38
2.2756166 -0.11174485 1.5720559 -2.2887239e+38
2.2756073 -0.11572198 1.5720559 -2.2887237e+38
2.2755978 -0.11969911 1.5720559 -2.2753274e+38
2.2885878 -0.12401651 1.5741236 -2.2753272e+38
2.2885783 -0.12801841 1.5741236 -2.2752231e+38
2.2755697 -0.13163051 1.5720559 -2.2751191e+38
2.2755601 -0.13560764 1.5720559 -2.2751191e+38
2.2755508 -0.13958476 1.5720559 -2.3017557e+38
2.2885404 -0.14402598 1.5741236 -2.3283405e+38
2.275532 -0.14753903 1.5720559 -2.341633e+38
2.2635241 -0.15104207 1.5701474 -2.3417894e+38
2.2505159 -0.15445799 1.5680797 -2.3684786e+38
2.2635055 -0.15895063 1.5701474 -2.3951676e+38
2.2634959 -0.1629049 1.5701474 -2.4085641e+38
2.2634866 -0.16685918 1.5701474 -2.4219083e+38
2.2504787 -0.17017603 1.5680797 -2.4352006e+38
2.263468 -0.17476773 1.5701474 -2.4353047e+38
2.2634587 -0.17872199 1.5701474 -2.4486493e+38
2.2634492 -0.18267627 1.5701474 -2.4486491e+38
2.2754381 -0.18731035 1.5720559 -2.4353568e+38
2.2754285 -0.19128749 1.5720559 -2.4220651e+38
2.2754192 -0.19526462 1.5720559 -2.4618906e+38
2.2754097 -0.19924174 1.5720559 -2.4886831e+38
2.2754004 -0.20321889 1.5720559 -2.5021316e+38
2.2753909 -0.20719601 1.5720559 -2.5154232e+38
2.2883794 -0.21205817 1.5741236 -2.4885784e+38
2.2883701 -0.21606006 1.5741236 -2.4486004e+38
2.2753627 -0.21912742 1.5720559 -2.9148196e+38
2.2753534 -0.22310454 1.5720559 -3.3832242e+38
2.411612 0.30892044 1.5892931 nan
2.411602 0.30468616 1.5892931 nan
2.3965862 0.29795879 1.586936 nan
2.3965762 0.29375309 1.586936 nan
2.3965664 0.28954738 1.586936 -2.76709e+38
2.3825507 0.28309479 1.5847359 -2.6342733e+38
2.3825409 0.27891576 1.5847359 -2.5016103e+38
2.3825309 0.27473673 1.5847359 -2.4618375e+38
2.3825212 0.2705577 1.5847359 -2.4352004e+38
2.3825114 0.26637867 1.5847359 -2.395323e+38
2.3694966 0.26023707 1.5826931 -2.3686344e+38
2.3694868 0.25608277 1.5826931 -2.3685822e+38
2.369477 0.25192848 1.5826931 -2.3684261e+38
2.3694673 0.24777424 1.5826931 -2.3684256e+38
2.3694575 0.24361995 1.5826931 -2.3683735e+38
2.3694475 0.23946568 1.5826931 -2.3284965e+38
2.3694377 0.23531142 1.5826931 -2.3018077e+38
2.3554235 0.22923023 1.5804931 -2.2752225e+38
2.3554139 0.22510263 1.5804931 -2.2617744e+38
2.3554041 0.22097501 1.5804931 -2.2617742e+38
2.3553944 0.21684742 1.5804931 -2.2616704e+38
2.3553846 0.21271983 1.5804931 -2.288203e+38
2.3413706 0.20679867 1.5782931 -2.3016515e+38
2.3413608 0.20269772 1.5782931 -2.3018075e+38
2.3283472 0.19698086 1.5762502 -2.288775e+38
2.3283374 0.19290465 1.5762502 -2.2888791e+38
2.3153241 0.18726209 1.5742073 -2.275587e+38
2.3153145 0.18321067 1.5742073 -2.2756391e+38
2.3023012 0.17764239 1.5721645 -2.2755876e+38
2.3022919 0.17361572 1.5721645 -2.2888801e+38
2.3022823 0.16958907 1.5721645 -2.3154646e+38
2.3022728 0.16556242 1.5721645 -2.3287048e+38
2.3022633 0.16153577 1.5721645 -2.3419445e+38
2.3022537 0.1575091 1.5721645 -2.3285995e+38
2.3022442 0.15348245 1.5721645 -2.3152038e+38
2.3022346 0.1494558 1.5721645 -2.3019119e+38
2.3022251 0.14542915 1.5721645 -2.2885677e+38
2.2892125 0.1401085 1.5701216 -2.30186e+38
2.2892029 0.1361066 1.5701216 -2.3151527e+38
2.2891934 0.13210469 1.5701216 -2.3151012e+38
2.2891841 0.12810281 1.5701216 -2.3282377e+38
2.2891746 0.12410091 1.5701216 -2.3149452e+38
2.289165 0.12009902 1.5701216 -2.3016008e+38
2.2891557 0.11609712 1.5701216 -2.3017042e+38
2.2761436 0.11097454 1.5680788 -2.2885162e+38
2.276134 0.10699742 1.5680788 -2.275276e+38
2.2641227 0.10203153 1.5661931 -2.2488471e+38
2.2641132 0.098077253 1.5661931 -2.2488468e+38
2.2641039 0.094122976 1.5661931 -2.248743e+38
2.2510922 0.089171827 1.5641502 -2.262087e+38
2.2510829 0.085242316 1.5641502 -2.2620872e+38
2.2510736 0.081312805 1.5641502 -2.2620355e+38
2.2510643 0.077383295 1.5641502 -2.275328e+38
2.251055 0.073453769 1.5641502 -2.2753282e+38
2.2510457 0.069524258 1.5641502 -2.2886726e+38
2.2510364 0.065594748 1.5641502 -2.2886728e+38
2.264029 0.062488779 1.5661931 -2.2887251e+38
2.2640197 0.058534503 1.5661931 -2.3020176e+38
2.2640104 0.054580219 1.5661931 -2.3154139e+38
2.2640011 0.050625943 1.5661931 -2.3153103e+38
2.2639916 0.046671674 1.5661931 -2.328603e+38
2.2639823 0.042717397 1.5661931 -2.3020705e+38
2.2509713 0.038088158 1.5641502 -2.2756421e+38
2.250962 0.03415864 1.5641502 -2.2755904e+38
2.2509527 0.030229136 1.5641502 -2.2889348e+38
2.2509434 0.026299618 1.5641502 -2.2756425e+38
2.2509341 0.022370107 1.5641502 -2.2756421e+38
2.2509248 0.018440589 1.5641502 -2.2888821e+38
2.2509155 0.014511079 1.5641502 -2.3155184e+38
2.2509062 0.010581568 1.5641502 -2.2888817e+38
2.2508969 0.0066520572 1.5641502 -2.2622973e+38
2.2508876 0.002722539 1.5641502 -2.2490572e+38
2.2508783 -0.0012069717 1.5641502 -2.2357651e+38
2.250869 -0.0051364899 1.5641502 -2.2490574e+38
2.2508597 -0.0090659969 1.5641502 -2.2757977e+38
2.2508504 -0.012995515 1.5641502 -2.2888304e+38
2.2508411 -0.016925029 1.5641502 -2.3021742e+38
2.2638328 -0.020551 1.5661931 -2.3153622e+38
2.2638233 -0.024505276 1.5661931 -2.3285504e+38
2.263814 -0.028459553 1.5661931 -2.3154135e+38
2.2638047 -0.032413825 1.5661931 -2.3022772e+38
2.2637954 -0.036368102 1.5661931 -2.3021216e+38
2.2637858 -0.040322375 1.5661931 -2.3021738e+38
2.2637765 -0.044276655 1.5661931 -2.2888298e+38
2.2637672 -0.048230927 1.5661931 -2.2888813e+38
2.2637579 -0.0521852 1.5661931 -2.288777e+38
2.2637486 -0.056139477 1.5661931 -2.302017e+38
2.2637391 -0.060093753 1.5661931 -2.3020166e+38
2.2637298 -0.064048022 1.5661931 -2.3020168e+38
2.2637205 -0.068002298 1.5661931 -2.2887247e+38
2.2637112 -0.071956575 1.5661931 -2.2754841e+38
2.2637017 -0.075910851 1.5661931 -2.2755359e+38
2.2636924 -0.079865128 1.5661931 -2.2622438e+38
2.2636831 -0.083819404 1.5661931 -2.2756399e+38
2.2636738 -0.087773673 1.5661931 -2.3024326e+38
2.2636642 -0.09172795 1.5661931 -2.3155693e+38
2.2636549 -0.095682226 1.5661931 -2.3420498e+38
2.275645 -0.099813446 1.5680788 -2.3420494e+38
2.2756355 -0.10379058 1.5680788 -2.3552378e+38
2.2756262 -0.10776772 1.5680788 -2.3287052e+38
2.2756166 -0.11174485 1.5680788 -2.3153089e+38
2.2756073 -0.11572198 1.5680788 -2.3020683e+38
2.2755978 -0.11969911 1.5680788 -2.3019642e+38
2.2755885 -0.12367624 1.5680788 -2.2886718e+38
2.275579 -0.12765338 1.5680788 -2.2885677e+38
2.2885687 -0.13202029 1.5701216 -2.3018077e+38
2.2885594 -0.1360222 1.5701216 -2.3017557e+38
2.2885499 -0.1400241 1.5701216 -2.3149959e+38
2.2885404 -0.14402598 1.5701216 -2.3415287e+38
2.275532 -0.14753903 1.5680788 -2.3416845e+38
2.2635241 -0.15104207 1.5661931 -2.3551336e+38
2.2505159 -0.15445799 1.5641502 -2.3685824e+38
2.2505066 -0.1583875 1.5641502 -2.3819272e+38
2.2504973 -0.16231701 1.5641502 -2.3953238e+38
2.250488 -0.16624652 1.5641502 -2.4220122e+38
2.2504787 -0.17017603 1.5641502 -2.4353043e+38
2.2504694 -0.17410555 1.5641502 -2.4353045e+38
2.2504601 -0.17803507 1.5641502 -2.4486489e+38
2.2634492 -0.18267627 1.5661931 -2.4619409e+38
2.2634399 -0.18663055 1.5661931 -2.4486485e+38
2.2754285 -0.19128749 1.5680788 -2.4485971e+38
2.2754192 -0.19526462 1.5680788 -2.4753379e+38
2.2754097 -0.19924174 1.5680788 -2.501975e+38
2.2754004 -0.20321889 1.5680788 -2.5154234e+38
2.2753909 -0.20719601 1.5680788 -2.5420601e+38
2.2883794 -0.21205817 1.5701216 -2.4487028e+38
2.275372 -0.21515027 1.5680788 -2.3684832e+38
2.2753627 -0.21912742 1.5680788 -2.8754084e+38
2.2753534 -0.22310454 1.5680788 -3.3965144e+38
2.2753439 -0.22708167 1.5680788 nan
2.411602 0.30468616 1.5850588 nan
2.411592 0.3004519 1.5850588 nan
2.411582 0.29621762 1.5850588 nan
2.3965664 0.28954738 1.5827303 -3.0609243e+38
2.3965564 0.28534168 1.5827303 -2.7140245e+38
2.3825409 0.27891576 1.5805569 -2.3685303e+38
2.3825309 0.27473673 1.5805569 -2.3954276e+38
2.3825212 0.2705577 1.5805569 -2.4086676e+38
2.3825114 0.26637867 1.5805569 -2.395323e+38
2.3694966 0.26023707 1.5785388 -2.3686344e+38
2.3694868 0.25608277 1.5785388 -2.3685822e+38
2.369477 0.25192848 1.5785388 -2.3552378e+38
2.3694673 0.24777424 1.5785388 -2.3551336e+38
2.3694575 0.24361995 1.5785388 -2.3551334e+38
2.355443 0.23748547 1.5763655 -2.3153082e+38
2.3554332 0.23335785 1.5763655 -2.2753272e+38
2.3554235 0.22923023 1.5763655 -2.2486903e+38
2.3554139 0.22510263 1.5763655 -2.2220536e+38
2.3554041 0.22097501 1.5763655 -2.2352418e+38
2.3553944 0.21684742 1.5763655 -2.248482e+38
2.3413801 0.21089959 1.5741922 -2.3015472e+38
2.3413706 0.20679867 1.5741922 -2.3416839e+38
2.3413608 0.20269772 1.5741922 -2.3285478e+38
2.3283472 0.19698086 1.5721741 -2.3021713e+38
2.3283374 0.19290465 1.5721741 -2.3155679e+38
2.3153241 0.18726209 1.570156 -2.31562e+38
2.3153145 0.18321067 1.570156 -2.3023277e+38
2.3023012 0.17764239 1.5681379 -2.2756916e+38
2.3022919 0.17361572 1.5681379 -2.3022764e+38
2.3022823 0.16958907 1.5681379 -2.328861e+38
2.3022728 0.16556242 1.5681379 -2.3421532e+38
2.3022633 0.16153577 1.5681379 -2.3552891e+38
2.3022537 0.1575091 1.5681379 -2.3551847e+38
2.3022442 0.15348245 1.5681379 -2.3551849e+38
2.2892313 0.14811227 1.5661197 -2.3286007e+38
2.3022251 0.14542915 1.5681379 -2.3019642e+38
2.2892125 0.1401085 1.5661197 -2.3152044e+38
2.2892029 0.1361066 1.5661197 -2.328445e+38
2.2891934 0.13210469 1.5661197 -2.3417374e+38
2.2891841 0.12810281 1.5661197 -2.3416334e+38
2.2891746 0.12410091 1.5661197 -2.3282373e+38
2.289165 0.12009902 1.5661197 -2.3017042e+38
2.2891557 0.11609712 1.5661197 -2.3017559e+38
2.2761436 0.11097454 1.5641017 -2.2885158e+38
2.276134 0.10699742 1.5641017 -2.2752754e+38
2.2641227 0.10203153 1.5622388 -2.2619832e+38
2.2641132 0.098077253 1.5622388 -2.261983e+38
2.2641039 0.094122976 1.5622388 -2.2486909e+38
2.2510922 0.089171827 1.5602207 -2.2487428e+38
2.2510829 0.085242316 1.5602207 -2.2486909e+38
2.2510736 0.081312805 1.5602207 -2.2619314e+38
2.2510643 0.077383295 1.5602207 -2.2619314e+38
2.251055 0.073453769 1.5602207 -2.2619836e+38
2.2510457 0.069524258 1.5602207 -2.2486396e+38
2.2510364 0.065594748 1.5602207 -2.2486398e+38
2.264029 0.062488779 1.5622388 -2.2353994e+38
2.2640197 0.058534503 1.5622388 -2.2619842e+38
2.2640104 0.054580219 1.5622388 -2.2753805e+38
2.2640011 0.050625943 1.5622388 -2.2752769e+38
2.2639916 0.046671674 1.5622388 -2.2753811e+38
2.2639823 0.042717397 1.5622388 -2.2754334e+38
2.2509713 0.038088158 1.5602207 -2.2621931e+38
2.250962 0.03415864 1.5602207 -2.2754336e+38
2.2509527 0.030229136 1.5602207 -2.2754858e+38
2.2509434 0.026299618 1.5602207 -2.275434e+38
2.2509341 0.022370107 1.5602207 -2.2621933e+38
2.2509248 0.018440589 1.5602207 -2.2887257e+38
2.2509155 0.014511079 1.5602207 -2.3020697e+38
2.2509062 0.010581568 1.5602207 -2.275433e+38
2.2508969 0.0066520572 1.5602207 -2.2489004e+38
2.2508876 0.002722539 1.5602207 -2.2356602e+38
2.2508783 -0.0012069717 1.5602207 -2.222316e+38
2.250869 -0.0051364899 1.5602207 -2.2488489e+38
2.2508597 -0.0090659969 1.5602207 -2.2621414e+38
2.2508504 -0.012995515 1.5602207 -2.2752781e+38
2.2638421 -0.016596727 1.5622388 -2.2886738e+38
2.2638328 -0.020551 1.5622388 -2.3019137e+38
2.2638233 -0.024505276 1.5622388 -2.3152575e+38
2.2758143 -0.028225072 1.5641017 -2.3020689e+38
2.2638047 -0.032413825 1.5622388 -2.2754324e+38
2.2637954 -0.036368102 1.5622388 -2.2753286e+38
2.2637858 -0.040322375 1.5622388 -2.2754326e+38
2.2637765 -0.044276655 1.5622388 -2.2753809e+38
2.2637672 -0.048230927 1.5622388 -2.2753807e+38
2.2637579 -0.0521852 1.5622388 -2.2885687e+38
2.2757485 -0.056065001 1.5641017 -2.3019129e+38
2.2637391 -0.060093753 1.5622388 -2.3019129e+38
2.2757297 -0.064019263 1.5641017 -2.3019649e+38
2.2637205 -0.068002298 1.5622388 -2.2886207e+38
2.2637112 -0.071956575 1.5622388 -2.2621399e+38
2.2637017 -0.075910851 1.5622388 -2.2488477e+38
2.2636924 -0.079865128 1.5622388 -2.222315e+38
2.2636831 -0.083819404 1.5622388 -2.262244e+38
2.2636738 -0.087773673 1.5622388 -2.2889324e+38
2.2636642 -0.09172795 1.5622388 -2.3287575e+38
2.2636549 -0.095682226 1.5622388 -2.3686342e+38
2.275645 -0.099813446 1.5641017 -2.3819264e+38
2.2756355 -0.10379058 1.5641017 -2.3952187e+38
2.2756262 -0.10776772 1.5641017 -2.3686344e+38
2.2756166 -0.11174485 1.5641017 -2.3420496e+38
2.2756073 -0.11572198 1.5641017 -2.3288612e+38
2.2635989 -0.11940788 1.5622388 -2.3154129e+38
2.2755885 -0.12367624 1.5641017 -2.3153608e+38
2.275579 -0.12765338 1.5641017 -2.3019642e+38
2.2885687 -0.13202029 1.5661197 -2.3151525e+38
2.2885594 -0.1360222 1.5661197 -2.3283926e+38
2.2885499 -0.1400241 1.5661197 -2.3415809e+38
2.2885404 -0.14402598 1.5661197 -2.3416849e+38
2.275532 -0.14753903 1.5641017 -2.3550293e+38
2.2635241 -0.15104207 1.5622388 -2.3552376e+38
2.2505159 -0.15445799 1.5602207 -2.355394e+38
2.2505066 -0.1583875 1.5602207 -2.3553944e+38
2.2504973 -0.16231701 1.5602207 -2.3953234e+38
2.2634866 -0.16685918 1.5622388 -2.422012e+38
2.2504787 -0.17017603 1.5602207 -2.4353562e+38
2.2504694 -0.17410555 1.5602207 -2.4353566e+38
2.2634587 -0.17872199 1.5622388 -2.4487529e+38
2.2634492 -0.18267627 1.5622388 -2.4619933e+38
2.2754381 -0.18731035 1.5641017 -2.4619935e+38
2.2754285 -0.19128749 1.5641017 -2.4620977e+38
2.2754192 -0.19526462 1.5641017 -2.4887865e+38
2.2754097 -0.19924174 1.5641017 -2.5153715e+38
2.2754004 -0.20321889 1.5641017 -2.5420084e+38
2.2753909 -0.20719601 1.5641017 -2.5552481e+38
2.2883794 -0.21205817 1.5661197 -2.4221692e+38
2.2883701 -0.21606006 1.5661197 -2.2759563e+38
2.2753627 -0.21912742 1.5641017 -2.8484095e+38
2.2753534 -0.22310454 1.5641017 nan
2.411602 0.30468616 1.5808245 nan
2.411592 0.3004519 1.5808245 nan
2.3965762 0.29375309 1.5785245 nan
2.3965664 0.28954738 1.5785245 -2.7285676e+38
2.3825507 0.28309479 1.5763779 -2.4880014e+38
2.3825409 0.27891576 1.5763779 -2.2617233e+38
2.3825309 0.27473673 1.5763779 -2.3287062e+38
2.3825212 0.2705577 1.5763779 -2.3953232e+38
2.3825114 0.26637867 1.5763779 -2.3820307e+38
2.3694966 0.26023707 1.5743845 -2.3686344e+38
2.3694868 0.25608277 1.5743845 -2.3686861e+38
2.369477 0.25192848 1.5743845 -2.3553936e+38
2.3694673 0.24777424 1.5743845 -2.3419973e+38
2.3694575 0.24361995 1.5743845 -2.3418932e+38
2.355443 0.23748547 1.5722378 -2.3153602e+38
2.3554332 0.23335785 1.5722378 -2.2887235e+38
2.3554235 0.22923023 1.5722378 -2.2620868e+38
2.3554139 0.22510263 1.5722378 -2.2487424e+38
2.3413997 0.21910146 1.5700912 -2.2751708e+38
2.3413899 0.21500054 1.5700912 -2.3017032e+38
2.3413801 0.21089959 1.5700912 -2.3151509e+38
2.3413706 0.20679867 1.5700912 -2.3286512e+38
2.3413608 0.20269772 1.5700912 -2.3420476e+38
2.3283472 0.19698086 1.5680978 -2.3554445e+38
2.3283374 0.19290465 1.5680978 -2.355549e+38
2.3153241 0.18726209 1.5661045 -2.3688932e+38
2.3153145 0.18321067 1.5661045 -2.355549e+38
2.315305 0.17915925 1.5661045 -2.3422052e+38
2.3022919 0.17361572 1.5641112 -2.3422054e+38
2.3022823 0.16958907 1.5641112 -2.3421534e+38
2.3022728 0.16556242 1.5641112 -2.3553938e+38
2.2892597 0.16011795 1.5621178 -2.3685818e+38
2.3022537 0.1575091 1.5641112 -2.355237e+38
2.2892408 0.15211415 1.5621178 -2.3419451e+38
2.2892313 0.14811227 1.5621178 -2.3286011e+38
2.289222 0.14411038 1.5621178 -2.3152567e+38
2.2892125 0.1401085 1.5621178 -2.3152565e+38
2.2892029 0.1361066 1.5621178 -2.328445e+38
2.2891934 0.13210469 1.5621178 -2.341789e+38
2.2891841 0.12810281 1.5621178 -2.3549774e+38
2.2891746 0.12410091 1.5621178 -2.3283926e+38
2.289165 0.12009902 1.5621178 -2.3151001e+38
2.2891557 0.11609712 1.5621178 -2.3018077e+38
2.2891462 0.11209522 1.5621178 -2.2885154e+38
2.276134 0.10699742 1.5601245 -2.275171e+38
2.2761247 0.10302028 1.5601245 -2.2750152e+38
2.2641132 0.098077253 1.5582845 -2.2618787e+38
2.2641039 0.094122976 1.5582845 -2.2485868e+38
2.2510922 0.089171827 1.5562911 -2.248587e+38
2.2510829 0.085242316 1.5562911 -2.2618274e+38
2.2510736 0.081312805 1.5562911 -2.2618791e+38
2.2510643 0.077383295 1.5562911 -2.2618274e+38
2.251055 0.073453769 1.5562911 -2.2618274e+38
2.2510457 0.069524258 1.5562911 -2.2617757e+38
2.2510364 0.065594748 1.5562911 -2.2485872e+38
2.2510271 0.061665237 1.5562911 -2.2486392e+38
2.2510178 0.057735726 1.5562911 -2.2619834e+38
2.2510085 0.053806216 1.5562911 -2.2753278e+38
2.2640011 0.050625943 1.5582845 -2.2753278e+38
2.2639916 0.046671674 1.5582845 -2.2753284e+38
2.2509806 0.042017668 1.5562911 -2.2620884e+38
2.2509713 0.038088158 1.5562911 -2.2620884e+38
2.2639637 0.034808844 1.5582845 -2.2754326e+38
2.2509527 0.030229136 1.5562911 -2.2887253e+38
2.2509434 0.026299618 1.5562911 -2.262089e+38
2.2509341 0.022370107 1.5562911 -2.2355562e+38
2.2509248 0.018440589 1.5562911 -2.2488481e+38
2.2509155 0.014511079 1.5562911 -2.2754324e+38
2.2509062 0.010581568 1.5562911 -2.2487957e+38
2.2508969 0.0066520572 1.5562911 -2.2222114e+38
2.2508876 0.002722539 1.5562911 -2.2222114e+38
2.2508783 -0.0012069717 1.5562911 -2.2355037e+38
2.26387 -0.0047339052 1.5582845 -2.2353998e+38
2.2638607 -0.0086881816 1.5582845 -2.2486406e+38
2.2638514 -0.012642451 1.5582845 -2.2619852e+38
2.2638421 -0.016596727 1.5582845 -2.2752771e+38
2.2638328 -0.020551 1.5582845 -2.2753286e+38
2.2638233 -0.024505276 1.5582845 -2.2753284e+38
2.2758143 -0.028225072 1.5601245 -2.2619838e+38
2.2638047 -0.032413825 1.5582845 -2.2485355e+38
2.2637954 -0.036368102 1.5582845 -2.2619314e+38
2.2637858 -0.040322375 1.5582845 -2.275328e+38
2.2637765 -0.044276655 1.5582845 -2.2752762e+38
2.2637672 -0.048230927 1.5582845 -2.2752241e+38
2.2637579 -0.0521852 1.5582845 -2.2752758e+38
2.2757485 -0.056065001 1.5601245 -2.2886205e+38
2.2637391 -0.060093753 1.5582845 -2.2886207e+38
2.2757297 -0.064019263 1.5601245 -2.2886726e+38
2.2637205 -0.068002298 1.5582845 -2.2753801e+38
2.2637112 -0.071956575 1.5582845 -2.2621399e+38
2.2637017 -0.075910851 1.5582845 -2.2621919e+38
2.2636924 -0.079865128 1.5582845 -2.2488998e+38
2.2636831 -0.083819404 1.5582845 -2.2755363e+38
2.2636738 -0.087773673 1.5582845 -2.3154131e+38
2.2636642 -0.09172795 1.5582845 -2.3287573e+38
2.2636549 -0.095682226 1.5582845 -2.3553419e+38
2.275645 -0.099813446 1.5601245 -2.3819264e+38
2.2756355 -0.10379058 1.5601245 -2.3952189e+38
2.2756262 -0.10776772 1.5601245 -2.3687384e+38
2.2756166 -0.11174485 1.5601245 -2.342154e+38
2.2756073 -0.11572198 1.5601245 -2.3288618e+38
2.2755978 -0.11969911 1.5601245 -2.3288096e+38
2.2755885 -0.12367624 1.5601245 -2.3154131e+38
2.275579 -0.12765338 1.5601245 -2.3153091e+38
2.2755697 -0.13163051 1.5601245 -2.3152569e+38
2.2755601 -0.13560764 1.5601245 -2.3284971e+38
2.2755508 -0.13958476 1.5601245 -2.3284967e+38
2.2755415 -0.1435619 1.5601245 -2.3286007e+38
2.275532 -0.14753903 1.5601245 -2.3419451e+38
2.2635241 -0.15104207 1.5582845 -2.3553417e+38
2.2635148 -0.15499635 1.5582845 -2.3686863e+38
2.2635055 -0.15895063 1.5582845 -2.3820307e+38
2.2634959 -0.1629049 1.5582845 -2.4086672e+38
2.2634866 -0.16685918 1.5582845 -2.4352521e+38
2.2634773 -0.17081344 1.5582845 -2.4353562e+38
2.263468 -0.17476773 1.5582845 -2.4486489e+38
2.2634587 -0.17872199 1.5582845 -2.4620454e+38
2.2634492 -0.18267627 1.5582845 -2.4753381e+38
2.2634399 -0.18663055 1.5582845 -2.4754421e+38
2.2754285 -0.19128749 1.5601245 -2.4755464e+38
2.2754192 -0.19526462 1.5601245 -2.5021311e+38
2.2754097 -0.19924174 1.5601245 -2.5154238e+38
2.2754004 -0.20321889 1.5601245 -2.5553009e+38
2.2753909 -0.20719601 1.5601245 -2.5818842e+38
2.2883794 -0.21205817 1.5621178 -2.4752332e+38
2.2883701 -0.21606006 1.5621178 -2.3686907e+38
2.2753627 -0.21912742 1.5601245 -2.9155988e+38
2.2753534 -0.22310454 1.5601245 nan
2.411602 0.30468616 1.5765902 nan
2.3965862 0.29795879 1.5743188 nan
2.3965762 0.29375309 1.5743188 nan
2.3965664 0.28954738 1.5743188 -2.3957394e+38
2.3825507 0.28309479 1.5721987 -2.2741826e+38
2.3695359 0.27685416 1.5702302 -2.1420409e+38
2.3695261 0.27269986 1.5702302 -2.2624006e+38
2.3695164 0.2685456 1.5702302 -2.3820828e+38
2.3695066 0.26439133 1.5702302 -2.3821867e+38
2.3694966 0.26023707 1.5702302 -2.3687903e+38
2.3694868 0.25608277 1.5702302 -2.368894e+38
2.3554723 0.2498683 1.5681102 -2.3554457e+38
2.3554626 0.24574068 1.5681102 -2.3421532e+38
2.3694575 0.24361995 1.5702302 -2.3154646e+38
2.355443 0.23748547 1.5681102 -2.3021721e+38
2.3554332 0.23335785 1.5681102 -2.2888277e+38
2.3554235 0.22923023 1.5681102 -2.2888275e+38
2.3554139 0.22510263 1.5681102 -2.2753793e+38
2.3413997 0.21910146 1.5659902 -2.3150484e+38
2.3413899 0.21500054 1.5659902 -2.3417884e+38
2.3413801 0.21089959 1.5659902 -2.3285995e+38
2.3413706 0.20679867 1.5659902 -2.3155153e+38
2.3413608 0.20269772 1.5659902 -2.3555483e+38
2.341351 0.19859678 1.5659902 -2.3954258e+38
2.3283374 0.19290465 1.5640216 -2.4087706e+38
2.3283279 0.18882847 1.5640216 -2.4087187e+38
2.3153145 0.18321067 1.5620531 -2.4086668e+38
2.315305 0.17915925 1.5620531 -2.408667e+38
2.3022919 0.17361572 1.5600845 -2.3821343e+38
2.3022823 0.16958907 1.5600845 -2.3554978e+38
2.3022728 0.16556242 1.5600845 -2.3687382e+38
2.2892597 0.16011795 1.558116 -2.3819782e+38
2.2892504 0.15611607 1.558116 -2.3552895e+38
2.2892408 0.15211415 1.558116 -2.3154127e+38
2.2892313 0.14811227 1.558116 -2.315361e+38
2.289222 0.14411038 1.558116 -2.3153608e+38
2.2892125 0.1401085 1.558116 -2.3153606e+38
2.2892029 0.1361066 1.558116 -2.3153085e+38
2.2891934 0.13210469 1.558116 -2.341893e+38
2.2891841 0.12810281 1.558116 -2.3550812e+38
2.2891746 0.12410091 1.558116 -2.341789e+38
2.289165 0.12009902 1.558116 -2.3284446e+38
2.2891557 0.11609712 1.558116 -2.3018079e+38
2.2761436 0.11097454 1.5561473 -2.2752233e+38
2.276134 0.10699742 1.5561473 -2.2884635e+38
2.2761247 0.10302028 1.5561473 -2.2884637e+38
2.2641132 0.098077253 1.5543302 -2.2751716e+38
2.2641039 0.094122976 1.5543302 -2.248587e+38
2.2640946 0.0901687 1.5543302 -2.2618276e+38
2.2640853 0.086214423 1.5543302 -2.2618274e+38
2.2640758 0.082260162 1.5543302 -2.2618272e+38
2.2510643 0.077383295 1.5523616 -2.2484832e+38
2.251055 0.073453769 1.5523616 -2.2616199e+38
2.2510457 0.069524258 1.5523616 -2.2750681e+38
2.2510364 0.065594748 1.5523616 -2.2618278e+38
2.2510271 0.061665237 1.5523616 -2.2486911e+38
2.2510178 0.057735726 1.5523616 -2.2619834e+38
2.2510085 0.053806216 1.5523616 -2.2620355e+38
2.2640011 0.050625943 1.5543302 -2.275432e+38
2.2639916 0.046671674 1.5543302 -2.2753803e+38
2.2639823 0.042717397 1.5543302 -2.2620882e+38
2.263973 0.038763121 1.5543302 -2.2487959e+38
2.2639637 0.034808844 1.5543302 -2.2753807e+38
2.2639542 0.030854575 1.5543302 -2.288673e+38
2.2639449 0.026900299 1.5543302 -2.2486923e+38
