# .PCD v0.7 - Point Cloud Data file format
VERSION 0.7
FIELDS x y z rgb
SIZE 4 4 4 4
TYPE F F F F
COUNT 1 1 1 1
WIDTH 1338
HEIGHT 1
VIEWPOINT 0 0 0 1 0 0 0
POINTS 1338
DATA ascii
2.10463 -0.54966068 1.9859025 nan
2.1046119 -0.55330825 1.9859025 nan
2.0936074 -0.55416697 1.9816179 nan
2.0836022 -0.5552392 1.9777226 nan
2.0725982 -0.55601603 1.9734378 nan
2.0725803 -0.55960268 1.9734378 nan
2.0725627 -0.56318927 1.9734378 nan
2.0625577 -0.56414539 1.9695426 nan
2.0625401 -0.5677129 1.9695426 nan
2.0625224 -0.57128054 1.9695426 nan
2.0625048 -0.57484806 1.9695426 nan
2.0525002 -0.57570893 1.9656475 nan
2.0524826 -0.57925743 1.9656475 nan
2.052465 -0.58280593 1.9656475 nan
2.0524473 -0.58635443 1.9656475 nan
2.0424433 -0.58712012 1.9617522 nan
2.0424259 -0.59064955 1.9617522 nan
2.0324221 -0.59135801 1.9578569 nan
2.0324049 -0.59486848 1.9578569 nan
2.0323873 -0.5983789 1.9578569 nan
2.0323701 -0.60188931 1.9578569 nan
2.0323524 -0.60539973 1.9578569 nan
2.0223494 -0.60599387 1.9539616 nan
2.0323176 -0.61242062 1.9578569 nan
2.0223148 -0.61297667 1.9539616 nan
2.0222974 -0.61646807 1.9539616 nan
2.0222802 -0.61995941 1.9539616 nan
2.0222628 -0.62345088 1.9539616 nan
2.0222454 -0.62694222 1.9539616 nan
2.0132418 -0.627689 1.9504559 nan
2.0032396 -0.62809461 1.9465607 nan
2.0032225 -0.63154978 1.9465607 nan
2.0032053 -0.63500494 1.9465607 nan
2.0031881 -0.63846016 1.9465607 nan
1.9931865 -0.63877046 1.9426655 nan
1.9931694 -0.64220667 1.9426655 nan
1.9931524 -0.64564282 1.9426655 nan
1.9931353 -0.64907897 1.9426655 nan
1.9931182 -0.65251511 1.9426655 nan
1.9931011 -0.65595126 1.9426655 nan
1.9930841 -0.65938741 1.9426655 nan
1.993067 -0.6628235 1.9426655 nan
1.9840646 -0.66329223 1.9391598 nan
1.9840477 -0.66671127 1.9391598 nan
1.9840306 -0.67013025 1.9391598 nan
1.9840137 -0.67354923 1.9391598 nan
1.9839966 -0.67696822 1.9391598 nan
1.9839797 -0.68038726 1.9391598 nan
1.974978 -0.68073589 1.935654 nan
1.974961 -0.68413776 1.935654 -3.3971446e+38
1.9659594 -0.68443501 1.9321483 -3.3971444e+38
1.9659426 -0.68781972 1.9321483 -3.3970925e+38
1.9659258 -0.69120449 1.9321483 -3.3970923e+38
1.965909 -0.6945892 1.9321483 -3.3970923e+38
1.9569079 -0.69480067 1.9286426 -3.397144e+38
1.9568912 -0.69816822 1.9286426 nan
1.9568745 -0.70153576 1.9286426 nan
1.9568578 -0.70490342 1.9286426 nan
1.956841 -0.70827097 1.9286426 nan
1.9568243 -0.71163851 1.9286426 nan
1.9568076 -0.71500617 1.9286426 nan
1.9567909 -0.71837372 1.9286426 nan
1.9567742 -0.72174126 1.9286426 nan
1.9477738 -0.72178137 1.9251369 nan
1.9477571 -0.72513181 1.9251369 nan
1.9477406 -0.72848225 1.9251369 nan
1.9387406 -0.72845376 1.9216312 nan
1.9387242 -0.73178703 1.9216312 nan
1.9387076 -0.7351203 1.9216312 nan
1.938691 -0.73845363 1.9216312 nan
1.9386744 -0.7417869 1.9216312 nan
1.9386579 -0.74512017 1.9216312 nan
1.9386414 -0.7484535 1.9216312 nan
1.9386249 -0.75178677 1.9216312 nan
1.9386083 -0.7551201 1.9216312 nan
1.9385917 -0.75845343 1.9216312 nan
1.9295926 -0.75823641 1.9181255 nan
1.9295762 -0.76155251 1.9181255 nan
1.9295597 -0.76486862 1.9181255 nan
1.9205611 -0.76458299 1.9146197 nan
1.9205447 -0.76788205 1.9146197 nan
1.9205283 -0.77118105 1.9146197 nan
1.920512 -0.77447999 1.9146197 nan
1.9204956 -0.77777904 1.9146197 nan
1.9204792 -0.78107804 1.9146197 nan
1.9204628 -0.78437704 1.9146197 nan
1.9204465 -0.7876761 1.9146197 nan
1.9204301 -0.79097509 1.9146197 nan
1.9204137 -0.79427403 1.9146197 nan
1.9203974 -0.79757303 1.9146197 nan
1.9203809 -0.80087209 1.9146197 nan
1.9203646 -0.80417109 1.9146197 nan
1.9203482 -0.80747008 1.9146197 nan
1.9203318 -0.81076914 1.9146197 nan
1.9203155 -0.81406808 1.9146197 nan
1.9202991 -0.81736708 1.9146197 nan
1.9292635 -0.82455933 1.9181255 nan
1.929247 -0.82787549 1.9181255 nan
1.9292306 -0.83119166 1.9181255 nan
1.9381946 -0.8384524 1.9216312 nan
1.9381781 -0.84178567 1.9216312 nan
1.9381615 -0.845119 1.9216312 nan
1.938145 -0.84845227 1.9216312 nan
1.9471086 -0.85579878 1.9251369 nan
1.9470919 -0.85914922 1.9251369 nan
1.9470754 -0.86249965 1.9251369 nan
1.9470587 -0.86585009 1.9251369 nan
1.9470421 -0.86920053 1.9251369 nan
1.9560052 -0.87664986 1.9286426 nan
1.9559885 -0.8800174 1.9286426 nan
1.9559718 -0.883385 1.9286426 nan
1.9559551 -0.88675261 1.9286426 nan
1.9559383 -0.89012015 1.9286426 nan
1.9559216 -0.89348775 1.9286426 nan
1.9648842 -0.90105712 1.9321483 nan
1.9648674 -0.90444183 1.9321483 nan
1.9648505 -0.90782654 1.9321483 nan
1.9648337 -0.91121125 1.9321483 nan
1.9737959 -0.91886628 1.935654 nan
1.973779 -0.92226815 1.935654 nan
1.9647833 -0.92136544 1.9321483 nan
1.9737452 -0.92907184 1.935654 nan
1.9737284 -0.93247378 1.935654 nan
1.9737115 -0.93587559 1.935654 nan
1.9736946 -0.93927747 1.935654 nan
1.982656 -0.9470697 1.9391598 nan
1.982639 -0.95048875 1.9391598 nan
1.982622 -0.95390773 1.9391598 nan
1.9826051 -0.95732671 1.9391598 nan
1.9825881 -0.96074575 1.9391598 nan
1.991549 -0.96864074 1.9426655 nan
1.991532 -0.97207689 1.9426655 nan
1.9915149 -0.97551304 1.9426655 nan
1.9914979 -0.97894919 1.9426655 nan
2.0014558 -0.98743492 1.9465607 nan
2.0114136 -0.99595875 1.9504559 nan
2.0203738 -1.0040119 1.9539616 nan
2.0303311 -1.01261 1.9578569 nan
2.0303137 -1.0161204 1.9578569 nan
2.0502455 -1.0299205 1.9656475 nan
2.0502279 -1.033469 1.9656475 nan
2.0502102 -1.0370175 1.9656475 nan
2.2168183 -0.51199424 2.0256684 nan
2.2048125 -0.51322412 2.0210168 nan
2.1928062 -0.51440841 2.0163655 nan
2.1927872 -0.51822358 2.0163655 nan
2.1817803 -0.51956421 2.0121017 nan
2.169775 -0.52063608 2.0074501 nan
2.1587687 -0.521891 2.0031865 nan
2.1587501 -0.52564138 2.0031865 nan
2.1587315 -0.52939183 2.0031865 nan
2.1587129 -0.53314227 2.0031865 nan
2.147707 -0.5342924 1.9989226 nan
2.1476884 -0.53802192 1.9989226 nan
2.1476698 -0.54175138 1.9989226 nan
2.1476512 -0.54548085 1.9989226 nan
2.1256595 -0.54384208 1.9903951 nan
2.1146543 -0.54482466 1.9861312 nan
2.1046481 -0.54601312 1.982255 nan
2.10463 -0.54966068 1.982255 nan
2.1046119 -0.55330825 1.982255 nan
2.0936074 -0.55416697 1.9779912 nan
2.0836022 -0.5552392 1.974115 nan
2.0725982 -0.55601603 1.9698513 nan
2.0725803 -0.55960268 1.9698513 nan
2.0725627 -0.56318927 1.9698513 nan
2.0625577 -0.56414539 1.965975 nan
2.0625401 -0.5677129 1.965975 nan
2.0625224 -0.57128054 1.965975 nan
2.0525179 -0.57216036 1.9620988 nan
2.0525002 -0.57570893 1.9620988 nan
2.0524826 -0.57925743 1.9620988 nan
2.052465 -0.58280593 1.9620988 nan
2.0524473 -0.58635443 1.9620988 nan
2.0424433 -0.58712012 1.9582226 nan
2.0424259 -0.59064955 1.9582226 nan
2.0324221 -0.59135801 1.9543464 nan
2.0324049 -0.59486848 1.9543464 nan
2.0323873 -0.5983789 1.9543464 nan
2.0323701 -0.60188931 1.9543464 nan
2.0323524 -0.60539973 1.9543464 nan
2.0223494 -0.60599387 1.9504702 nan
2.0223322 -0.60948533 1.9504702 nan
2.0223148 -0.61297667 1.9504702 nan
2.0222974 -0.61646807 1.9504702 nan
2.0222802 -0.61995941 1.9504702 nan
2.0222628 -0.62345088 1.9504702 nan
2.0132589 -0.62421471 1.9469817 nan
2.0132418 -0.627689 1.9469817 nan
2.0032396 -0.62809461 1.9431055 nan
2.0032225 -0.63154978 1.9431055 nan
2.0032053 -0.63500494 1.9431055 nan
1.9932035 -0.63533437 1.9392292 nan
1.9931865 -0.63877046 1.9392292 nan
1.9931694 -0.64220667 1.9392292 nan
1.9931524 -0.64564282 1.9392292 nan
1.9931353 -0.64907897 1.9392292 nan
1.9931182 -0.65251511 1.9392292 nan
1.9931011 -0.65595126 1.9392292 nan
1.9930841 -0.65938741 1.9392292 nan
1.9840815 -0.65987325 1.9357407 nan
1.9840646 -0.66329223 1.9357407 nan
1.9840477 -0.66671127 1.9357407 nan
1.9840306 -0.67013025 1.9357407 nan
1.9840137 -0.67354923 1.9357407 nan
1.9839966 -0.67696822 1.9357407 nan
1.9749948 -0.67733401 1.9322522 nan
1.974978 -0.68073589 1.9322522 nan
1.9659762 -0.6810503 1.9287636 nan
1.9659594 -0.68443501 1.9287636 nan
1.9569581 -0.68469793 1.9252751 nan
1.9569414 -0.68806547 1.9252751 nan
1.9569247 -0.69143307 1.9252751 -3.3970917e+38
1.9569079 -0.69480067 1.9252751 nan
1.9568912 -0.69816822 1.9252751 nan
1.9568745 -0.70153576 1.9252751 nan
1.9568578 -0.70490342 1.9252751 nan
1.956841 -0.70827097 1.9252751 nan
1.9568243 -0.71163851 1.9252751 nan
1.9568076 -0.71500617 1.9252751 nan
1.9567909 -0.71837372 1.9252751 nan
1.9567742 -0.72174126 1.9252751 nan
1.9477738 -0.72178137 1.9217864 nan
1.9477571 -0.72513181 1.9217864 nan
1.9477406 -0.72848225 1.9217864 nan
1.9387406 -0.72845376 1.9182979 nan
1.9477073 -0.73518312 1.9217864 nan
1.9387076 -0.7351203 1.9182979 nan
1.938691 -0.73845363 1.9182979 nan
1.9386744 -0.7417869 1.9182979 nan
1.9386579 -0.74512017 1.9182979 nan
1.9386414 -0.7484535 1.9182979 nan
1.9386249 -0.75178677 1.9182979 nan
1.9386083 -0.7551201 1.9182979 nan
1.9385917 -0.75845343 1.9182979 nan
1.9295926 -0.75823641 1.9148092 nan
1.9385587 -0.76511997 1.9182979 nan
1.9295597 -0.76486862 1.9148092 nan
1.9295433 -0.76818484 1.9148092 nan
1.9205447 -0.76788205 1.9113207 nan
1.9205283 -0.77118105 1.9113207 nan
1.920512 -0.77447999 1.9113207 nan
1.9204956 -0.77777904 1.9113207 nan
1.9204792 -0.78107804 1.9113207 nan
1.9204628 -0.78437704 1.9113207 nan
1.9204465 -0.7876761 1.9113207 nan
1.9204301 -0.79097509 1.9113207 nan
1.9204137 -0.79427403 1.9113207 nan
1.9203974 -0.79757303 1.9113207 nan
1.9203809 -0.80087209 1.9113207 nan
1.9203646 -0.80417109 1.9113207 nan
1.9203482 -0.80747008 1.9113207 nan
1.9203318 -0.81076914 1.9113207 nan
1.9203155 -0.81406808 1.9113207 nan
1.9292799 -0.82124323 1.9148092 nan
1.9292635 -0.82455933 1.9148092 nan
1.929247 -0.82787549 1.9148092 nan
1.9382112 -0.83511913 1.9182979 nan
1.9381946 -0.8384524 1.9182979 nan
1.9381781 -0.84178567 1.9182979 nan
1.9471419 -0.84909791 1.9217864 nan
1.9471252 -0.85244834 1.9217864 nan
1.9471086 -0.85579878 1.9217864 nan
1.9470919 -0.85914922 1.9217864 nan
1.9470754 -0.86249965 1.9217864 nan
1.9470587 -0.86585009 1.9217864 nan
1.9470421 -0.86920053 1.9217864 nan
1.9560052 -0.87664986 1.9252751 nan
1.9559885 -0.8800174 1.9252751 nan
1.9559718 -0.883385 1.9252751 nan
1.9559551 -0.88675261 1.9252751 nan
1.9559383 -0.89012015 1.9252751 nan
1.9559216 -0.89348775 1.9252751 nan
1.9648842 -0.90105712 1.9287636 nan
1.9648674 -0.90444183 1.9287636 nan
1.9648505 -0.90782654 1.9287636 nan
1.9738128 -0.9154644 1.9322522 nan
1.9737959 -0.91886628 1.9322522 nan
1.973779 -0.92226815 1.9322522 nan
1.9737622 -0.92567003 1.9322522 nan
1.9737452 -0.92907184 1.9322522 nan
1.9737284 -0.93247378 1.9322522 nan
1.9737115 -0.93587559 1.9322522 nan
1.9826729 -0.94365066 1.9357407 nan
1.982656 -0.9470697 1.9357407 nan
1.982639 -0.95048875 1.9357407 nan
1.982622 -0.95390773 1.9357407 nan
1.9915831 -0.96176851 1.9392292 nan
1.9915661 -0.9652046 1.9392292 nan
1.991549 -0.96864074 1.9392292 nan
1.991532 -0.97207689 1.9392292 nan
1.9915149 -0.97551304 1.9392292 nan
2.0014729 -0.98397976 1.9431055 nan
2.011431 -0.99248451 1.9469817 nan
2.0114136 -0.99595875 1.9469817 nan
2.0203738 -1.0040119 1.9504702 nan
2.0303311 -1.01261 1.9543464 nan
2.0303137 -1.0161204 1.9543464 nan
2.0402708 -1.0247757 1.9582226 nan
2.0502279 -1.033469 1.9620988 nan
2.0502102 -1.0370175 1.9620988 nan
2.2048693 -0.50171 2.0171788 nan
2.2048502 -0.50554806 2.0171788 nan
2.2048311 -0.50938612 2.0171788 nan
2.2048125 -0.51322412 2.0171788 nan
2.1928062 -0.51440841 2.0125504 nan
2.1927872 -0.51822358 2.0125504 nan
2.1817803 -0.51956421 2.0083075 nan
2.169775 -0.52063608 2.0036788 nan
2.1587687 -0.521891 1.9994359 nan
2.1587501 -0.52564138 1.9994359 nan
2.1587315 -0.52939183 1.9994359 nan
2.1587129 -0.53314227 1.9994359 nan
2.147707 -0.5342924 1.9951931 nan
2.1476884 -0.53802192 1.9951931 nan
2.1476698 -0.54175138 1.9951931 nan
2.1476512 -0.54548085 1.9951931 nan
2.1256595 -0.54384208 1.9867074 nan
2.1146543 -0.54482466 1.9824646 nan
2.1046481 -0.54601312 1.9786074 nan
2.10463 -0.54966068 1.9786074 nan
2.1046119 -0.55330825 1.9786074 nan
2.0936074 -0.55416697 1.9743645 nan
2.0836022 -0.5552392 1.9705074 nan
2.0725982 -0.55601603 1.9662645 nan
2.0725803 -0.55960268 1.9662645 nan
2.0725627 -0.56318927 1.9662645 nan
2.0625577 -0.56414539 1.9624074 nan
2.0625401 -0.5677129 1.9624074 nan
2.0625224 -0.57128054 1.9624074 nan
2.0525179 -0.57216036 1.9585502 nan
2.0525002 -0.57570893 1.9585502 nan
2.0524826 -0.57925743 1.9585502 nan
2.0424786 -0.58006114 1.9546931 nan
2.0424609 -0.58359063 1.9546931 nan
2.0424433 -0.58712012 1.9546931 nan
2.0324397 -0.58784759 1.9508359 nan
2.0324221 -0.59135801 1.9508359 nan
2.0324049 -0.59486848 1.9508359 nan
2.0323873 -0.5983789 1.9508359 nan
2.0323701 -0.60188931 1.9508359 nan
2.0323524 -0.60539973 1.9508359 nan
2.0223494 -0.60599387 1.9469788 nan
2.0223322 -0.60948533 1.9469788 nan
2.0223148 -0.61297667 1.9469788 nan
2.0222974 -0.61646807 1.9469788 nan
2.0222802 -0.61995941 1.9469788 nan
2.0132761 -0.62074053 1.9435074 nan
2.0132589 -0.62421471 1.9435074 nan
2.0032568 -0.62463939 1.9396503 nan
2.0032396 -0.62809461 1.9396503 nan
2.0032225 -0.63154978 1.9396503 nan
1.9932206 -0.63189822 1.9357932 nan
1.9932035 -0.63533437 1.9357932 nan
1.9931865 -0.63877046 1.9357932 nan
1.9931694 -0.64220667 1.9357932 nan
1.9931524 -0.64564282 1.9357932 nan
1.9931353 -0.64907897 1.9357932 nan
1.9931182 -0.65251511 1.9357932 nan
1.9931011 -0.65595126 1.9357932 nan
1.9840986 -0.65645427 1.9323217 nan
1.9840815 -0.65987325 1.9323217 nan
1.9840646 -0.66329223 1.9323217 nan
1.9840477 -0.66671127 1.9323217 nan
1.9840306 -0.67013025 1.9323217 nan
1.9840137 -0.67354923 1.9323217 nan
1.9839966 -0.67696822 1.9323217 nan
1.9749948 -0.67733401 1.9288502 nan
1.974978 -0.68073589 1.9288502 nan
1.9659762 -0.6810503 1.9253788 nan
1.9569747 -0.68133038 1.9219074 nan
1.9569581 -0.68469793 1.9219074 nan
1.9569414 -0.68806547 1.9219074 nan
1.9569247 -0.69143307 1.9219074 nan
1.9569079 -0.69480067 1.9219074 nan
1.9568912 -0.69816822 1.9219074 nan
1.9568745 -0.70153576 1.9219074 nan
1.9568578 -0.70490342 1.9219074 nan
1.956841 -0.70827097 1.9219074 nan
1.9568243 -0.71163851 1.9219074 nan
1.9568076 -0.71500617 1.9219074 nan
1.9567909 -0.71837372 1.9219074 nan
1.9567742 -0.72174126 1.9219074 nan
1.9477738 -0.72178137 1.9184359 nan
1.9477571 -0.72513181 1.9184359 nan
1.9477406 -0.72848225 1.9184359 nan
1.9387406 -0.72845376 1.9149646 nan
1.9387242 -0.73178703 1.9149646 nan
1.9387076 -0.7351203 1.9149646 nan
1.938691 -0.73845363 1.9149646 nan
1.9296914 -0.73833948 1.9114931 nan
1.9386579 -0.74512017 1.9149646 nan
1.9386414 -0.7484535 1.9149646 nan
1.9386249 -0.75178677 1.9149646 nan
1.9386083 -0.7551201 1.9149646 nan
1.9385917 -0.75845343 1.9149646 nan
1.9295926 -0.75823641 1.9114931 nan
1.9385587 -0.76511997 1.9149646 nan
1.9295597 -0.76486862 1.9114931 nan
1.9295433 -0.76818484 1.9114931 nan
1.9205447 -0.76788205 1.9080217 nan
1.9205283 -0.77118105 1.9080217 nan
1.920512 -0.77447999 1.9080217 nan
1.9204956 -0.77777904 1.9080217 nan
1.9204792 -0.78107804 1.9080217 nan
1.9204628 -0.78437704 1.9080217 nan
1.9204465 -0.7876761 1.9080217 nan
1.9204301 -0.79097509 1.9080217 nan
1.9204137 -0.79427403 1.9080217 nan
1.9203974 -0.79757303 1.9080217 nan
1.9203809 -0.80087209 1.9080217 nan
1.9203646 -0.80417109 1.9080217 nan
1.9203482 -0.80747008 1.9080217 nan
1.9293128 -0.8146109 1.9114931 nan
1.9292964 -0.81792706 1.9114931 nan
1.9292799 -0.82124323 1.9114931 nan
1.9292635 -0.82455933 1.9114931 nan
1.929247 -0.82787549 1.9114931 nan
1.9382112 -0.83511913 1.9149646 nan
1.9381946 -0.8384524 1.9149646 nan
1.9381781 -0.84178567 1.9149646 nan
1.9381615 -0.845119 1.9149646 nan
1.9471252 -0.85244834 1.9184359 nan
1.9471086 -0.85579878 1.9184359 nan
1.9470919 -0.85914922 1.9184359 nan
1.9470754 -0.86249965 1.9184359 nan
1.9470587 -0.86585009 1.9184359 nan
1.9470421 -0.86920053 1.9184359 nan
1.9470254 -0.87255096 1.9184359 nan
1.9559885 -0.8800174 1.9219074 nan
1.9559718 -0.883385 1.9219074 nan
1.9559551 -0.88675261 1.9219074 nan
1.9559383 -0.89012015 1.9219074 nan
1.9559216 -0.89348775 1.9219074 nan
1.9648842 -0.90105712 1.9253788 nan
1.9738466 -0.90866071 1.9288502 nan
1.9648505 -0.90782654 1.9253788 nan
1.9738128 -0.9154644 1.9288502 nan
1.9737959 -0.91886628 1.9288502 nan
1.973779 -0.92226815 1.9288502 nan
1.9737622 -0.92567003 1.9288502 nan
1.9737452 -0.92907184 1.9288502 nan
1.9737284 -0.93247378 1.9288502 nan
1.9737115 -0.93587559 1.9288502 nan
1.9826729 -0.94365066 1.9323217 nan
1.982656 -0.9470697 1.9323217 nan
1.982639 -0.95048875 1.9323217 nan
1.9916003 -0.9583323 1.9357932 nan
1.9915831 -0.96176851 1.9357932 nan
1.9915661 -0.9652046 1.9357932 nan
1.991549 -0.96864074 1.9357932 nan
2.0015073 -0.97706932 1.9396503 nan
2.0014901 -0.98052454 1.9396503 nan
2.0014729 -0.98397976 1.9396503 nan
2.011431 -0.99248451 1.9435074 nan
2.020391 -1.0005205 1.9469788 nan
2.0203738 -1.0040119 1.9469788 nan
2.0303311 -1.01261 1.9508359 nan
2.0303137 -1.0161204 1.9508359 nan
2.0402708 -1.0247757 1.9546931 nan
2.0502279 -1.033469 1.9585502 nan
2.0502102 -1.0370175 1.9585502 nan
2.0501928 -1.040566 1.9585502 nan
2.216876 -0.50041151 2.0179465 nan
2.2048693 -0.50171 2.0133407 nan
2.2048502 -0.50554806 2.0133407 nan
2.2048311 -0.50938612 2.0133407 nan
2.2048125 -0.51322412 2.0133407 nan
2.1928062 -0.51440841 2.0087349 nan
2.1927872 -0.51822358 2.0087349 nan
2.1927681 -0.52203882 2.0087349 nan
2.169775 -0.52063608 1.9999074 nan
2.1697564 -0.52440745 1.9999074 nan
2.1587501 -0.52564138 1.9956855 nan
2.1587315 -0.52939183 1.9956855 nan
2.1587129 -0.53314227 1.9956855 nan
2.147707 -0.5342924 1.9914637 nan
2.1476884 -0.53802192 1.9914637 nan
2.1476698 -0.54175138 1.9914637 nan
2.1366644 -0.54281771 1.9872417 nan
2.1256595 -0.54384208 1.9830198 nan
2.1146543 -0.54482466 1.9787979 nan
2.1046481 -0.54601312 1.9749599 nan
2.10463 -0.54966068 1.9749599 nan
2.1046119 -0.55330825 1.9749599 nan
2.0936074 -0.55416697 1.9707379 nan
2.0836022 -0.5552392 1.9668998 nan
2.0725982 -0.55601603 1.9626778 nan
2.0725803 -0.55960268 1.9626778 nan
2.0725627 -0.56318927 1.9626778 nan
2.0625577 -0.56414539 1.9588398 -3.3844772e+38
2.0625401 -0.5677129 1.9588398 nan
2.0525353 -0.56861186 1.9550016 nan
2.0525179 -0.57216036 1.9550016 nan
2.0425134 -0.57300216 1.9511635 nan
2.0424957 -0.57653165 1.9511635 nan
2.0324919 -0.57731628 1.9473255 nan
2.0324745 -0.5808267 1.9473255 nan
2.0324569 -0.58433717 1.9473255 nan
2.0324397 -0.58784759 1.9473255 nan
2.0324221 -0.59135801 1.9473255 nan
2.0324049 -0.59486848 1.9473255 nan
2.0323873 -0.5983789 1.9473255 nan
2.0323701 -0.60188931 1.9473255 nan
2.0223668 -0.60250252 1.9434874 nan
2.0223494 -0.60599387 1.9434874 nan
2.0223322 -0.60948533 1.9434874 nan
2.0223148 -0.61297667 1.9434874 nan
2.0133107 -0.61379206 1.9400331 nan
2.0132933 -0.6172663 1.9400331 nan
2.0132761 -0.62074053 1.9400331 nan
2.003274 -0.62118417 1.936195 nan
2.0032568 -0.62463939 1.936195 nan
2.0032396 -0.62809461 1.936195 nan
1.9932376 -0.62846208 1.9323568 nan
1.9932206 -0.63189822 1.9323568 nan
1.9932035 -0.63533437 1.9323568 nan
1.9931865 -0.63877046 1.9323568 nan
1.9931694 -0.64220667 1.9323568 nan
1.9841664 -0.64277822 1.9289026 nan
1.9841495 -0.6461972 1.9289026 nan
1.9841324 -0.64961618 1.9289026 nan
1.9841155 -0.65303516 1.9289026 nan
1.9840986 -0.65645427 1.9289026 nan
1.9840815 -0.65987325 1.9289026 nan
1.9840646 -0.66329223 1.9289026 nan
1.9840477 -0.66671127 1.9289026 nan
1.9840306 -0.67013025 1.9289026 nan
1.9750286 -0.67053032 1.9254484 nan
1.9750117 -0.67393214 1.9254484 nan
1.9749948 -0.67733401 1.9254484 nan
1.965993 -0.67766553 1.921994 nan
1.9659762 -0.6810503 1.921994 nan
1.9569747 -0.68133038 1.9185398 nan
1.9569581 -0.68469793 1.9185398 nan
1.9479568 -0.68492663 1.9150856 nan
1.9479401 -0.68827701 1.9150856 nan
1.9479235 -0.69162744 1.9150856 nan
1.9479069 -0.69497794 1.9150856 nan
1.9478903 -0.69832832 1.9150856 nan
1.9478736 -0.70167875 1.9150856 nan
1.956841 -0.70827097 1.9185398 nan
1.9568243 -0.71163851 1.9185398 nan
1.9568076 -0.71500617 1.9185398 nan
1.9478071 -0.71508056 1.9150856 nan
1.9477905 -0.71843094 1.9150856 nan
1.9477738 -0.72178137 1.9150856 nan
1.9477571 -0.72513181 1.9150856 nan
1.9387572 -0.72512043 1.9116311 nan
1.9297572 -0.72507483 1.9081769 nan
1.9387242 -0.73178703 1.9116311 nan
1.9297243 -0.73170716 1.9081769 nan
1.9297079 -0.73502326 1.9081769 nan
1.9296914 -0.73833948 1.9081769 nan
1.929675 -0.74165559 1.9081769 nan
1.9296585 -0.74497175 1.9081769 nan
1.9296421 -0.74828792 1.9081769 nan
1.9296255 -0.75160408 1.9081769 nan
1.9296091 -0.75492018 1.9081769 nan
1.9295926 -0.75823641 1.9081769 nan
1.9295762 -0.76155251 1.9081769 nan
1.9205775 -0.76128399 1.9047227 nan
1.9205611 -0.76458299 1.9047227 nan
1.9205447 -0.76788205 1.9047227 nan
1.9205283 -0.77118105 1.9047227 nan
1.920512 -0.77447999 1.9047227 nan
1.9204956 -0.77777904 1.9047227 nan
1.9204792 -0.78107804 1.9047227 nan
1.9204628 -0.78437704 1.9047227 nan
1.9204465 -0.7876761 1.9047227 nan
1.9204301 -0.79097509 1.9047227 nan
1.9204137 -0.79427403 1.9047227 nan
1.9203974 -0.79757303 1.9047227 nan
1.9203809 -0.80087209 1.9047227 nan
1.9203646 -0.80417109 1.9047227 nan
1.9203482 -0.80747008 1.9047227 nan
1.9203318 -0.81076914 1.9047227 nan
1.9292964 -0.81792706 1.9081769 nan
1.9292799 -0.82124323 1.9081769 nan
1.9292635 -0.82455933 1.9081769 nan
1.929247 -0.82787549 1.9081769 nan
1.9292306 -0.83119166 1.9081769 nan
1.9381946 -0.8384524 1.9116311 nan
1.9381781 -0.84178567 1.9116311 nan
1.9381615 -0.845119 1.9116311 nan
1.9471252 -0.85244834 1.9150856 nan
1.9471086 -0.85579878 1.9150856 nan
1.9470919 -0.85914922 1.9150856 nan
1.9470754 -0.86249965 1.9150856 nan
1.9470587 -0.86585009 1.9150856 nan
1.9470421 -0.86920053 1.9150856 nan
1.9560052 -0.87664986 1.9185398 nan
1.9559885 -0.8800174 1.9185398 nan
1.9559718 -0.883385 1.9185398 nan
1.9559551 -0.88675261 1.9185398 nan
1.9559383 -0.89012015 1.9185398 nan
1.9559216 -0.89348775 1.9185398 nan
1.9648842 -0.90105712 1.921994 nan
1.9648674 -0.90444183 1.921994 nan
1.9648505 -0.90782654 1.921994 nan
1.9648337 -0.91121125 1.921994 nan
1.9648169 -0.91459596 1.921994 nan
1.973779 -0.92226815 1.9254484 nan
1.9647833 -0.92136544 1.921994 nan
1.9737452 -0.92907184 1.9254484 nan
1.9737284 -0.93247378 1.9254484 nan
1.9737115 -0.93587559 1.9254484 nan
1.9826729 -0.94365066 1.9289026 nan
1.982656 -0.9470697 1.9289026 nan
1.982639 -0.95048875 1.9289026 nan
1.9916003 -0.9583323 1.9323568 nan
1.9915831 -0.96176851 1.9323568 nan
1.9915661 -0.9652046 1.9323568 nan
1.991549 -0.96864074 1.9323568 nan
1.991532 -0.97207689 1.9323568 nan
2.0014901 -0.98052454 1.936195 nan
2.0114481 -0.98901027 1.9400331 nan
2.011431 -0.99248451 1.9400331 nan
2.020391 -1.0005205 1.9434874 nan
2.0203738 -1.0040119 1.9434874 nan
2.0303311 -1.01261 1.9473255 nan
2.0303137 -1.0161204 1.9473255 nan
2.0302963 -1.0196309 1.9473255 nan
2.0402534 -1.0283052 1.9511635 nan
2.0502102 -1.0370175 1.9550016 nan
2.0501928 -1.040566 1.9550016 nan
2.216876 -0.50041151 2.0140855 nan
2.216857 -0.5042724 2.0140855 nan
2.2168379 -0.50813329 2.0140855 nan
2.2048311 -0.50938612 2.0095026 nan
2.2048125 -0.51322412 2.0095026 nan
2.1928062 -0.51440841 2.0049198 nan
2.1927872 -0.51822358 2.0049198 nan
2.1927681 -0.52203882 2.0049198 nan
2.1817617 -0.52335846 2.0007188 nan
2.1697564 -0.52440745 1.996136 nan
2.1587501 -0.52564138 1.991935 nan
2.1587315 -0.52939183 1.991935 nan
2.1587129 -0.53314227 1.991935 nan
2.1586943 -0.53689265 1.991935 nan
2.1476884 -0.53802192 1.9877341 nan
2.1476698 -0.54175138 1.9877341 nan
2.1476512 -0.54548085 1.9877341 nan
2.1256595 -0.54384208 1.9793322 nan
2.1256409 -0.5475297 1.9793322 nan
2.1146359 -0.54849124 1.9751313 nan
2.10463 -0.54966068 1.9713122 nan
2.1046119 -0.55330825 1.9713122 nan
2.0936074 -0.55416697 1.9671111 nan
2.0836022 -0.5552392 1.9632921 nan
2.0725982 -0.55601603 1.9590912 nan
2.0725803 -0.55960268 1.9590912 nan
2.0625753 -0.56057775 1.9552722 nan
2.0625577 -0.56414539 1.9552722 nan
2.0625401 -0.5677129 1.9552722 nan
2.0525353 -0.56861186 1.9514531 nan
2.0525179 -0.57216036 1.9514531 nan
2.0425134 -0.57300216 1.947634 nan
2.0325093 -0.57380587 1.943815 nan
2.0324919 -0.57731628 1.943815 nan
2.0324745 -0.5808267 1.943815 nan
2.0324569 -0.58433717 1.943815 nan
2.0324397 -0.58784759 1.943815 nan
2.0224361 -0.58853698 1.939996 nan
2.0224187 -0.59202838 1.939996 nan
2.0224013 -0.59551972 1.939996 nan
2.0223842 -0.59901118 1.939996 nan
2.0223668 -0.60250252 1.939996 nan
2.0223494 -0.60599387 1.939996 nan
2.0223322 -0.60948533 1.939996 nan
2.0223148 -0.61297667 1.939996 nan
2.0133107 -0.61379206 1.9365588 nan
2.0132933 -0.6172663 1.9365588 nan
2.0132761 -0.62074053 1.9365588 nan
2.003274 -0.62118417 1.9327397 nan
2.0032568 -0.62463939 1.9327397 nan
1.9932547 -0.62502593 1.9289207 nan
1.9932376 -0.62846208 1.9289207 nan
1.9932206 -0.63189822 1.9289207 nan
1.9932035 -0.63533437 1.9289207 nan
1.9931865 -0.63877046 1.9289207 nan
1.9931694 -0.64220667 1.9289207 nan
1.9841664 -0.64277822 1.9254836 nan
1.9841495 -0.6461972 1.9254836 nan
1.9841324 -0.64961618 1.9254836 nan
1.9841155 -0.65303516 1.9254836 nan
1.9840986 -0.65645427 1.9254836 nan
1.9840815 -0.65987325 1.9254836 nan
1.9840646 -0.66329223 1.9254836 nan
1.9840477 -0.66671127 1.9254836 nan
1.9840306 -0.67013025 1.9254836 nan
1.9750286 -0.67053032 1.9220464 nan
1.9750117 -0.67393214 1.9220464 nan
1.9749948 -0.67733401 1.9220464 nan
1.965993 -0.67766553 1.9186094 nan
1.9569914 -0.67796272 1.9151721 nan
1.9569747 -0.68133038 1.9151721 nan
1.9569581 -0.68469793 1.9151721 nan
1.9569414 -0.68806547 1.9151721 nan
1.9479401 -0.68827701 1.9117351 nan
1.9479235 -0.69162744 1.9117351 nan
1.9479069 -0.69497794 1.9117351 nan
1.9478903 -0.69832832 1.9117351 nan
1.9568578 -0.70490342 1.9151721 nan
1.956841 -0.70827097 1.9151721 nan
1.9568243 -0.71163851 1.9151721 nan
1.9568076 -0.71500617 1.9151721 nan
1.9478071 -0.71508056 1.9117351 nan
1.9477905 -0.71843094 1.9117351 nan
1.9477738 -0.72178137 1.9117351 nan
1.9387738 -0.72178715 1.9082978 nan
1.9297737 -0.72175872 1.9048607 nan
1.9297572 -0.72507483 1.9048607 nan
1.9297408 -0.72839105 1.9048607 nan
1.9297243 -0.73170716 1.9048607 nan
1.9297079 -0.73502326 1.9048607 nan
1.9207084 -0.73489189 1.9014236 nan
1.9206921 -0.73819095 1.9014236 nan
1.9296585 -0.74497175 1.9048607 nan
1.9296421 -0.74828792 1.9048607 nan
1.9296255 -0.75160408 1.9048607 nan
1.9296091 -0.75492018 1.9048607 nan
1.9206102 -0.75468594 1.9014236 nan
1.9295762 -0.76155251 1.9048607 nan
1.9205775 -0.76128399 1.9014236 nan
1.9205611 -0.76458299 1.9014236 nan
1.9205447 -0.76788205 1.9014236 nan
1.9205283 -0.77118105 1.9014236 nan
1.920512 -0.77447999 1.9014236 nan
1.9204956 -0.77777904 1.9014236 nan
1.9204792 -0.78107804 1.9014236 nan
1.9204628 -0.78437704 1.9014236 nan
1.9204465 -0.7876761 1.9014236 nan
1.9204301 -0.79097509 1.9014236 nan
1.9204137 -0.79427403 1.9014236 nan
1.9203974 -0.79757303 1.9014236 nan
1.9203809 -0.80087209 1.9014236 nan
1.9203646 -0.80417109 1.9014236 nan
1.9203482 -0.80747008 1.9014236 nan
1.9203318 -0.81076914 1.9014236 nan
1.9292964 -0.81792706 1.9048607 nan
1.9292799 -0.82124323 1.9048607 nan
1.9292635 -0.82455933 1.9048607 nan
1.929247 -0.82787549 1.9048607 nan
1.9292306 -0.83119166 1.9048607 nan
1.9381946 -0.8384524 1.9082978 nan
1.9381781 -0.84178567 1.9082978 nan
1.9471419 -0.84909791 1.9117351 nan
1.9471252 -0.85244834 1.9117351 nan
1.9471086 -0.85579878 1.9117351 nan
1.9560721 -0.86317956 1.9151721 nan
1.9560554 -0.86654711 1.9151721 nan
1.9560387 -0.86991471 1.9151721 nan
1.9560219 -0.87328225 1.9151721 nan
1.9560052 -0.87664986 1.9151721 nan
1.9559885 -0.8800174 1.9151721 nan
1.9559718 -0.883385 1.9151721 nan
1.9559551 -0.88675261 1.9151721 nan
1.9559383 -0.89012015 1.9151721 nan
1.964901 -0.89767241 1.9186094 nan
1.9648842 -0.90105712 1.9186094 nan
1.9648674 -0.90444183 1.9186094 nan
1.9648505 -0.90782654 1.9186094 nan
1.9648337 -0.91121125 1.9186094 nan
1.9648169 -0.91459596 1.9186094 nan
1.973779 -0.92226815 1.9220464 nan
1.9737622 -0.92567003 1.9220464 nan
1.9737452 -0.92907184 1.9220464 nan
1.9737284 -0.93247378 1.9220464 nan
1.9737115 -0.93587559 1.9220464 nan
1.9826729 -0.94365066 1.9254836 nan
1.982656 -0.9470697 1.9254836 nan
1.9916173 -0.95489615 1.9289207 nan
1.9916003 -0.9583323 1.9289207 nan
1.9915831 -0.96176851 1.9289207 nan
1.9915661 -0.9652046 1.9289207 nan
1.991549 -0.96864074 1.9289207 nan
2.0015073 -0.97706932 1.9327397 nan
2.0014901 -0.98052454 1.9327397 nan
2.0114481 -0.98901027 1.9365588 nan
2.011431 -0.99248451 1.9365588 nan
2.020391 -1.0005205 1.939996 nan
2.0203738 -1.0040119 1.939996 nan
2.0303311 -1.01261 1.943815 nan
2.0303137 -1.0161204 1.943815 nan
2.0302963 -1.0196309 1.943815 nan
2.0302789 -1.0231413 1.943815 nan
2.040236 -1.0318346 1.947634 nan
2.0501928 -1.040566 1.9514531 nan
2.2288632 -0.50295109 2.0147846 nan
2.216857 -0.5042724 2.0102246 nan
2.2168379 -0.50813329 2.0102246 nan
2.2048311 -0.50938612 2.0056646 nan
2.2048125 -0.51322412 2.0056646 nan
2.2047935 -0.51706219 2.0056646 nan
2.1927872 -0.51822358 2.0011046 nan
2.1927681 -0.52203882 2.0011046 nan
2.1817617 -0.52335846 1.9969245 nan
2.1817427 -0.52715266 1.9969245 nan
2.1697376 -0.52817881 1.9923645 nan
2.1587315 -0.52939183 1.9881845 nan
2.1587129 -0.53314227 1.9881845 nan
2.1586943 -0.53689265 1.9881845 nan
2.1476884 -0.53802192 1.9840045 nan
2.1476698 -0.54175138 1.9840045 nan
2.1476512 -0.54548085 1.9840045 nan
2.1256595 -0.54384208 1.9756446 nan
2.1256409 -0.5475297 1.9756446 nan
2.1146359 -0.54849124 1.9714645 nan
2.10463 -0.54966068 1.9676645 nan
2.1046119 -0.55330825 1.9676645 nan
2.0936074 -0.55416697 1.9634845 nan
2.0836022 -0.5552392 1.9596846 nan
2.0725982 -0.55601603 1.9555045 nan
2.0725803 -0.55960268 1.9555045 nan
2.0625753 -0.56057775 1.9517045 nan
2.0625577 -0.56414539 1.9517045 nan
2.0625401 -0.5677129 1.9517045 nan
2.0525353 -0.56861186 1.9479046 nan
2.0525179 -0.57216036 1.9479046 nan
2.0425134 -0.57300216 1.9441046 nan
2.0325093 -0.57380587 1.9403045 nan
2.0324919 -0.57731628 1.9403045 nan
2.0324745 -0.5808267 1.9403045 nan
2.0224707 -0.58155417 1.9365046 nan
2.0224533 -0.58504564 1.9365046 nan
2.0224361 -0.58853698 1.9365046 nan
2.0224187 -0.59202838 1.9365046 nan
2.0224013 -0.59551972 1.9365046 nan
2.0223842 -0.59901118 1.9365046 nan
2.0223668 -0.60250252 1.9365046 nan
2.0223494 -0.60599387 1.9365046 nan
2.0133452 -0.60684353 1.9330845 nan
2.0133281 -0.61031777 1.9330845 nan
2.0133107 -0.61379206 1.9330845 nan
2.0033083 -0.61427379 1.9292846 nan
2.0032911 -0.61772901 1.9292846 nan
2.003274 -0.62118417 1.9292846 nan
2.0032568 -0.62463939 1.9292846 nan
1.9932547 -0.62502593 1.9254845 nan
1.9932376 -0.62846208 1.9254845 nan
1.9932206 -0.63189822 1.9254845 nan
1.9932035 -0.63533437 1.9254845 nan
1.9842004 -0.63594019 1.9220645 nan
1.9841833 -0.63935918 1.9220645 nan
1.9841664 -0.64277822 1.9220645 nan
1.9841495 -0.6461972 1.9220645 nan
1.9841324 -0.64961618 1.9220645 nan
1.9841155 -0.65303516 1.9220645 nan
1.9840986 -0.65645427 1.9220645 nan
1.9840815 -0.65987325 1.9220645 nan
1.9840646 -0.66329223 1.9220645 nan
1.9840477 -0.66671127 1.9220645 nan
1.9840306 -0.67013025 1.9220645 nan
1.9750286 -0.67053032 1.9186445 nan
1.9750117 -0.67393214 1.9186445 nan
1.9660099 -0.67428082 1.9152246 nan
1.965993 -0.67766553 1.9152246 nan
1.9569914 -0.67796272 1.9118046 nan
1.9569747 -0.68133038 1.9118046 nan
1.9569581 -0.68469793 1.9118046 nan
1.9569414 -0.68806547 1.9118046 nan
1.9479401 -0.68827701 1.9083846 nan
1.9479235 -0.69162744 1.9083846 nan
1.9479069 -0.69497794 1.9083846 nan
1.9478903 -0.69832832 1.9083846 nan
1.9568578 -0.70490342 1.9118046 nan
1.956841 -0.70827097 1.9118046 nan
1.9568243 -0.71163851 1.9118046 nan
1.9478238 -0.71173006 1.9083846 nan
1.9478071 -0.71508056 1.9083846 nan
1.9477905 -0.71843094 1.9083846 nan
1.9477738 -0.72178137 1.9083846 nan
1.9387738 -0.72178715 1.9049644 nan
1.9387572 -0.72512043 1.9049644 nan
1.9297572 -0.72507483 1.9015446 nan
1.9387242 -0.73178703 1.9049644 nan
1.9297243 -0.73170716 1.9015446 nan
1.9297079 -0.73502326 1.9015446 nan
1.9207084 -0.73489189 1.8981245 nan
1.9206921 -0.73819095 1.8981245 nan
1.9206758 -0.74148995 1.8981245 nan
1.9206593 -0.74478894 1.8981245 nan
1.920643 -0.748088 1.8981245 nan
1.9206266 -0.751387 1.8981245 nan
1.9206102 -0.75468594 1.8981245 nan
1.9205939 -0.757985 1.8981245 nan
1.9205775 -0.76128399 1.8981245 nan
1.9205611 -0.76458299 1.8981245 nan
1.9205447 -0.76788205 1.8981245 nan
1.9205283 -0.77118105 1.8981245 nan
1.920512 -0.77447999 1.8981245 nan
1.9204956 -0.77777904 1.8981245 nan
1.9204792 -0.78107804 1.8981245 nan
1.9204628 -0.78437704 1.8981245 nan
1.9204465 -0.7876761 1.8981245 nan
1.9204301 -0.79097509 1.8981245 nan
1.9204137 -0.79427403 1.8981245 nan
1.9203974 -0.79757303 1.8981245 nan
1.9203809 -0.80087209 1.8981245 nan
1.9203646 -0.80417109 1.8981245 nan
1.9203482 -0.80747008 1.8981245 nan
1.9293128 -0.8146109 1.9015446 nan
1.9292964 -0.81792706 1.9015446 nan
1.9382608 -0.82511926 1.9049644 nan
1.9382442 -0.82845253 1.9049644 nan
1.9382278 -0.8317858 1.9049644 nan
1.9382112 -0.83511913 1.9049644 nan
1.9381946 -0.8384524 1.9049644 nan
1.9381781 -0.84178567 1.9049644 nan
1.9471419 -0.84909791 1.9083846 nan
1.9471252 -0.85244834 1.9083846 nan
1.9471086 -0.85579878 1.9083846 nan
1.9560721 -0.86317956 1.9118046 nan
1.9560554 -0.86654711 1.9118046 nan
1.9560387 -0.86991471 1.9118046 nan
1.9560219 -0.87328225 1.9118046 nan
1.9560052 -0.87664986 1.9118046 nan
1.9559885 -0.8800174 1.9118046 nan
1.9649514 -0.88751823 1.9152246 nan
1.9649346 -0.89090294 1.9152246 nan
1.9649178 -0.89428765 1.9152246 nan
1.964901 -0.89767241 1.9152246 nan
1.9738635 -0.90525883 1.9186445 nan
1.9738466 -0.90866071 1.9186445 nan
1.9648505 -0.90782654 1.9152246 nan
1.9738128 -0.9154644 1.9186445 nan
1.9737959 -0.91886628 1.9186445 nan
1.973779 -0.92226815 1.9186445 nan
1.9737622 -0.92567003 1.9186445 nan
1.9737452 -0.92907184 1.9186445 nan
1.9737284 -0.93247378 1.9186445 nan
1.9737115 -0.93587559 1.9186445 nan
1.9826729 -0.94365066 1.9220645 nan
1.982656 -0.9470697 1.9220645 nan
1.9916173 -0.95489615 1.9254845 nan
1.9916003 -0.9583323 1.9254845 nan
1.9915831 -0.96176851 1.9254845 nan
1.9915661 -0.9652046 1.9254845 nan
2.0015244 -0.97361416 1.9292846 nan
2.0015073 -0.97706932 1.9292846 nan
2.0014901 -0.98052454 1.9292846 nan
2.0114481 -0.98901027 1.9330845 nan
2.0204084 -0.99702907 1.9365046 nan
2.020391 -1.0005205 1.9365046 nan
2.0203738 -1.0040119 1.9365046 nan
2.0303311 -1.01261 1.9403045 nan
2.0303137 -1.0161204 1.9403045 nan
2.0302963 -1.0196309 1.9403045 nan
2.0402534 -1.0283052 1.9441046 nan
2.0502102 -1.0370175 1.9479046 nan
2.0601671 -1.045768 1.9517045 nan
2.2288632 -0.50295109 2.0109007 nan
2.216857 -0.5042724 2.0063636 nan
2.2168379 -0.50813329 2.0063636 nan
2.2048311 -0.50938612 2.0018265 nan
2.2048125 -0.51322412 2.0018265 nan
2.2047935 -0.51706219 2.0018265 nan
2.1927872 -0.51822358 1.9972893 nan
2.1927681 -0.52203882 1.9972893 nan
2.1817617 -0.52335846 1.9931302 nan
2.1817427 -0.52715266 1.9931302 nan
2.1697376 -0.52817881 1.9885931 nan
2.1587315 -0.52939183 1.9844341 nan
2.1587129 -0.53314227 1.9844341 nan
2.1586943 -0.53689265 1.9844341 nan
2.1476884 -0.53802192 1.980275 nan
2.1476698 -0.54175138 1.980275 nan
2.1476512 -0.54548085 1.980275 nan
2.136646 -0.54652625 1.9761159 nan
2.1256409 -0.5475297 1.971957 nan
2.1146359 -0.54849124 1.9677979 nan
2.10463 -0.54966068 1.9640169 nan
2.0936255 -0.55054039 1.9598579 nan
2.0836201 -0.55163163 1.9560769 nan
2.0726161 -0.55242944 1.9519179 nan
2.0725982 -0.55601603 1.9519179 nan
2.062593 -0.55701023 1.9481369 nan
2.0625753 -0.56057775 1.9481369 nan
2.0625577 -0.56414539 1.9481369 nan
2.0625401 -0.5677129 1.9481369 nan
2.0525353 -0.56861186 1.944356 nan
2.0525179 -0.57216036 1.944356 nan
2.0425134 -0.57300216 1.940575 nan
2.0325093 -0.57380587 1.936794 nan
2.0324919 -0.57731628 1.936794 nan
2.0324745 -0.5808267 1.936794 nan
2.0224707 -0.58155417 1.9330131 nan
2.0224533 -0.58504564 1.9330131 nan
2.0224361 -0.58853698 1.9330131 nan
2.0224187 -0.59202838 1.9330131 nan
2.0224013 -0.59551972 1.9330131 nan
2.0223842 -0.59901118 1.9330131 nan
2.0223668 -0.60250252 1.9330131 nan
2.0133624 -0.6033693 1.9296103 nan
2.0133452 -0.60684353 1.9296103 nan
2.0133281 -0.61031777 1.9296103 nan
2.0033255 -0.61081856 1.9258293 nan
2.0033083 -0.61427379 1.9258293 nan
2.0032911 -0.61772901 1.9258293 nan
1.9932888 -0.61815363 1.9220483 nan
1.9932717 -0.62158978 1.9220483 nan
1.9932547 -0.62502593 1.9220483 nan
1.9842513 -0.62568319 1.9186455 nan
1.9932206 -0.63189822 1.9220483 nan
1.9842173 -0.63252121 1.9186455 nan
1.9842004 -0.63594019 1.9186455 nan
1.9841833 -0.63935918 1.9186455 nan
1.9841664 -0.64277822 1.9186455 nan
1.9841495 -0.6461972 1.9186455 nan
1.9841324 -0.64961618 1.9186455 nan
1.9841155 -0.65303516 1.9186455 nan
1.9840986 -0.65645427 1.9186455 nan
1.9840815 -0.65987325 1.9186455 nan
1.9840646 -0.66329223 1.9186455 nan
1.9840477 -0.66671127 1.9186455 nan
1.9750454 -0.66712844 1.9152427 nan
1.9750286 -0.67053032 1.9152427 nan
1.9660267 -0.67089611 1.9118397 nan
1.9660099 -0.67428082 1.9118397 nan
1.965993 -0.67766553 1.9118397 nan
1.9569914 -0.67796272 1.9084369 nan
1.9569747 -0.68133038 1.9084369 nan
1.9569581 -0.68469793 1.9084369 nan
1.9569414 -0.68806547 1.9084369 nan
1.9479401 -0.68827701 1.9050341 nan
1.9569079 -0.69480067 1.9084369 nan
1.9479069 -0.69497794 1.9050341 nan
1.9478903 -0.69832832 1.9050341 nan
1.9478736 -0.70167875 1.9050341 nan
1.956841 -0.70827097 1.9084369 nan
1.9478403 -0.70837963 1.9050341 nan
1.9478238 -0.71173006 1.9050341 nan
1.9478071 -0.71508056 1.9050341 nan
1.9477905 -0.71843094 1.9050341 nan
1.9477738 -0.72178137 1.9050341 nan
1.9387738 -0.72178715 1.9016311 nan
1.9297737 -0.72175872 1.8982284 nan
1.9297572 -0.72507483 1.8982284 nan
1.9297408 -0.72839105 1.8982284 nan
1.9297243 -0.73170716 1.8982284 nan
1.9297079 -0.73502326 1.8982284 nan
1.9207084 -0.73489189 1.8948255 nan
1.9206921 -0.73819095 1.8948255 nan
1.9206758 -0.74148995 1.8948255 nan
1.9206593 -0.74478894 1.8948255 nan
1.920643 -0.748088 1.8948255 nan
1.9206266 -0.751387 1.8948255 nan
1.9206102 -0.75468594 1.8948255 nan
1.9205939 -0.757985 1.8948255 nan
1.9205775 -0.76128399 1.8948255 nan
1.9205611 -0.76458299 1.8948255 nan
1.9205447 -0.76788205 1.8948255 nan
1.9205283 -0.77118105 1.8948255 nan
1.920512 -0.77447999 1.8948255 nan
1.9204956 -0.77777904 1.8948255 nan
1.9204792 -0.78107804 1.8948255 nan
1.9204628 -0.78437704 1.8948255 nan
1.9204465 -0.7876761 1.8948255 nan
1.9204301 -0.79097509 1.8948255 nan
1.9204137 -0.79427403 1.8948255 nan
1.9203974 -0.79757303 1.8948255 nan
1.9203809 -0.80087209 1.8948255 nan
1.9293457 -0.80797857 1.8982284 nan
1.9293293 -0.81129479 1.8982284 nan
1.9293128 -0.8146109 1.8982284 nan
1.9292964 -0.81792706 1.8982284 nan
1.9382608 -0.82511926 1.9016311 nan
1.9382442 -0.82845253 1.9016311 nan
1.9382278 -0.8317858 1.9016311 nan
1.9382112 -0.83511913 1.9016311 nan
1.9381946 -0.8384524 1.9016311 nan
1.9381781 -0.84178567 1.9016311 nan
1.9471419 -0.84909791 1.9050341 nan
1.9471252 -0.85244834 1.9050341 nan
1.9471086 -0.85579878 1.9050341 nan
1.9560721 -0.86317956 1.9084369 nan
1.9560554 -0.86654711 1.9084369 nan
1.9560387 -0.86991471 1.9084369 nan
1.9560219 -0.87328225 1.9084369 nan
1.9560052 -0.87664986 1.9084369 nan
1.9559885 -0.8800174 1.9084369 nan
1.9649514 -0.88751823 1.9118397 nan
1.9649346 -0.89090294 1.9118397 nan
1.9649178 -0.89428765 1.9118397 nan
1.964901 -0.89767241 1.9118397 nan
1.9738635 -0.90525883 1.9152427 nan
1.9738466 -0.90866071 1.9152427 nan
1.9738296 -0.91206259 1.9152427 nan
1.9738128 -0.9154644 1.9152427 nan
1.9737959 -0.91886628 1.9152427 nan
1.973779 -0.92226815 1.9152427 nan
1.9737622 -0.92567003 1.9152427 nan
1.9737452 -0.92907184 1.9152427 nan
1.9737284 -0.93247378 1.9152427 nan
1.9737115 -0.93587559 1.9152427 nan
1.9826729 -0.94365066 1.9186455 nan
1.982656 -0.9470697 1.9186455 -3.3840095e+38
1.982639 -0.95048875 1.9186455 nan
1.982622 -0.95390773 1.9186455 nan
1.9915831 -0.96176851 1.9220483 nan
1.9915661 -0.9652046 1.9220483 nan
2.0015244 -0.97361416 1.9258293 nan
2.0015073 -0.97706932 1.9258293 nan
2.0014901 -0.98052454 1.9258293 nan
2.0114481 -0.98901027 1.9296103 nan
2.0204084 -0.99702907 1.9330131 nan
2.020391 -1.0005205 1.9330131 nan
2.0203738 -1.0040119 1.9330131 nan
2.0303311 -1.01261 1.936794 nan
2.0303137 -1.0161204 1.936794 nan
2.0302963 -1.0196309 1.936794 nan
2.0402534 -1.0283052 1.940575 nan
2.0502102 -1.0370175 1.944356 nan
2.0601671 -1.045768 1.9481369 nan
2.0601492 -1.0493355 1.9481369 nan
2.2288632 -0.50295109 2.0070169 nan
2.216857 -0.5042724 2.0025027 nan
2.2168379 -0.50813329 2.0025027 nan
2.2048311 -0.50938612 1.9979883 nan
2.2048125 -0.51322412 1.9979883 nan
2.2047935 -0.51706219 1.9979883 nan
2.1927872 -0.51822358 1.993474 nan
2.1927681 -0.52203882 1.993474 nan
2.1817617 -0.52335846 1.989336 nan
2.1817427 -0.52715266 1.989336 nan
2.1697376 -0.52817881 1.9848217 nan
2.1697187 -0.53195018 1.9848217 nan
2.1587129 -0.53314227 1.9806836 nan
2.1586943 -0.53689265 1.9806836 nan
2.1476884 -0.53802192 1.9765456 nan
2.1476698 -0.54175138 1.9765456 nan
2.1476512 -0.54548085 1.9765456 nan
2.136646 -0.54652625 1.9724073 nan
2.1256409 -0.5475297 1.9682693 nan
2.1146359 -0.54849124 1.9641311 nan
2.10463 -0.54966068 1.9603693 nan
2.1046119 -0.55330825 1.9603693 nan
2.0836201 -0.55163163 1.9524693 nan
2.0726161 -0.55242944 1.9483311 nan
2.0725982 -0.55601603 1.9483311 nan
2.062593 -0.55701023 1.9445693 nan
2.0625753 -0.56057775 1.9445693 nan
2.0625577 -0.56414539 1.9445693 nan
2.0625401 -0.5677129 1.9445693 nan
2.0525353 -0.56861186 1.9408073 nan
2.0525179 -0.57216036 1.9408073 nan
2.0425134 -0.57300216 1.9370455 nan
2.0325093 -0.57380587 1.9332836 nan
2.0324919 -0.57731628 1.9332836 nan
2.0324745 -0.5808267 1.9332836 nan
2.0224707 -0.58155417 1.9295217 nan
2.0224533 -0.58504564 1.9295217 nan
2.0224361 -0.58853698 1.9295217 nan
2.0134315 -0.58947235 1.926136 nan
2.0224013 -0.59551972 1.9295217 nan
2.0133967 -0.59642082 1.926136 nan
2.0133796 -0.599895 1.926136 nan
2.0133624 -0.6033693 1.926136 nan
2.0033596 -0.60390824 1.922374 nan
2.0033426 -0.6073634 1.922374 nan
2.0033255 -0.61081856 1.922374 nan
2.0033083 -0.61427379 1.922374 nan
1.9933058 -0.61471742 1.9186121 nan
1.9932888 -0.61815363 1.9186121 nan
1.9932717 -0.62158978 1.9186121 nan
1.9932547 -0.62502593 1.9186121 nan
1.9842513 -0.62568319 1.9152265 nan
1.9842343 -0.62910217 1.9152265 nan
1.9842173 -0.63252121 1.9152265 nan
1.9842004 -0.63594019 1.9152265 nan
1.9841833 -0.63935918 1.9152265 nan
1.9841664 -0.64277822 1.9152265 nan
1.9841495 -0.6461972 1.9152265 nan
1.9841324 -0.64961618 1.9152265 nan
1.9841155 -0.65303516 1.9152265 nan
1.9840986 -0.65645427 1.9152265 nan
1.9750961 -0.65692288 1.9118407 nan
1.9750793 -0.66032469 1.9118407 nan
1.9750624 -0.66372657 1.9118407 nan
1.9750454 -0.66712844 1.9118407 nan
1.9750286 -0.67053032 1.9118407 nan
1.9660267 -0.67089611 1.908455 nan
1.9660099 -0.67428082 1.908455 nan
1.965993 -0.67766553 1.908455 nan
1.9569914 -0.67796272 1.9050694 nan
1.9569747 -0.68133038 1.9050694 nan
1.9569581 -0.68469793 1.9050694 nan
1.9569414 -0.68806547 1.9050694 nan
1.9479401 -0.68827701 1.9016836 nan
1.9479235 -0.69162744 1.9016836 nan
1.9479069 -0.69497794 1.9016836 nan
1.9478903 -0.69832832 1.9016836 nan
1.9478736 -0.70167875 1.9016836 nan
1.947857 -0.70502925 1.9016836 nan
1.9478403 -0.70837963 1.9016836 nan
1.9478238 -0.71173006 1.9016836 nan
1.9478071 -0.71508056 1.9016836 nan
1.9477905 -0.71843094 1.9016836 nan
1.9477738 -0.72178137 1.9016836 nan
1.9387738 -0.72178715 1.8982978 nan
1.9297737 -0.72175872 1.8949121 nan
1.9297572 -0.72507483 1.8949121 nan
1.9297408 -0.72839105 1.8949121 nan
1.9297243 -0.73170716 1.8949121 nan
1.9297079 -0.73502326 1.8949121 nan
1.9207084 -0.73489189 1.8915265 nan
1.9206921 -0.73819095 1.8915265 nan
1.9206758 -0.74148995 1.8915265 nan
1.9206593 -0.74478894 1.8915265 nan
1.920643 -0.748088 1.8915265 nan
1.9206266 -0.751387 1.8915265 nan
1.9206102 -0.75468594 1.8915265 nan
1.9205939 -0.757985 1.8915265 nan
1.9205775 -0.76128399 1.8915265 nan
1.9205611 -0.76458299 1.8915265 nan
1.9205447 -0.76788205 1.8915265 nan
1.9205283 -0.77118105 1.8915265 nan
1.920512 -0.77447999 1.8915265 nan
1.9204956 -0.77777904 1.8915265 nan
1.9204792 -0.78107804 1.8915265 nan
1.9204628 -0.78437704 1.8915265 nan
1.9204465 -0.7876761 1.8915265 nan
1.9204301 -0.79097509 1.8915265 nan
1.9204137 -0.79427403 1.8915265 nan
1.9203974 -0.79757303 1.8915265 nan
1.9203809 -0.80087209 1.8915265 nan
1.9293457 -0.80797857 1.8949121 nan
1.9293293 -0.81129479 1.8949121 nan
1.9293128 -0.8146109 1.8949121 nan
1.9382774 -0.82178593 1.8982978 nan
1.9382608 -0.82511926 1.8982978 nan
1.9382442 -0.82845253 1.8982978 nan
1.9382278 -0.8317858 1.8982978 nan
1.9382112 -0.83511913 1.8982978 nan
1.9381946 -0.8384524 1.8982978 nan
1.9471585 -0.84574753 1.9016836 nan
1.9471419 -0.84909791 1.9016836 nan
1.9471252 -0.85244834 1.9016836 nan
1.9560888 -0.85981196 1.9050694 nan
1.9560721 -0.86317956 1.9050694 nan
1.9560554 -0.86654711 1.9050694 nan
1.9560387 -0.86991471 1.9050694 nan
1.9560219 -0.87328225 1.9050694 nan
1.9560052 -0.87664986 1.9050694 nan
1.9649682 -0.88413352 1.908455 nan
1.9649514 -0.88751823 1.908455 nan
1.9649346 -0.89090294 1.908455 nan
1.9649178 -0.89428765 1.908455 nan
1.9738803 -0.90185696 1.9118407 nan
1.9738635 -0.90525883 1.9118407 nan
1.9738466 -0.90866071 1.9118407 nan
1.9738296 -0.91206259 1.9118407 nan
1.9738128 -0.9154644 1.9118407 nan
1.9737959 -0.91886628 1.9118407 nan
1.9827578 -0.92655569 1.9152265 nan
1.9827408 -0.92997468 1.9152265 nan
1.9827238 -0.93339366 1.9152265 nan
1.9827069 -0.9368127 1.9152265 nan
1.9826899 -0.94023168 1.9152265 nan
1.9826729 -0.94365066 1.9152265 nan
1.982656 -0.9470697 1.9152265 -3.3571639e+38
1.982639 -0.95048875 1.9152265 nan
1.9916003 -0.9583323 1.9186121 nan
1.9915831 -0.96176851 1.9186121 nan
1.9915661 -0.9652046 1.9186121 nan
2.0015244 -0.97361416 1.922374 nan
2.0015073 -0.97706932 1.922374 nan
2.0014901 -0.98052454 1.922374 nan
2.0114481 -0.98901027 1.926136 nan
2.0204084 -0.99702907 1.9295217 nan
2.020391 -1.0005205 1.9295217 nan
2.0203738 -1.0040119 1.9295217 nan
2.0203564 -1.0075033 1.9295217 nan
2.0303137 -1.0161204 1.9332836 nan
2.0302963 -1.0196309 1.9332836 nan
2.0302789 -1.0231413 1.9332836 nan
2.040236 -1.0318346 1.9370455 nan
2.0501928 -1.040566 1.9408073 nan
2.0601492 -1.0493355 1.9445693 nan
2.2288632 -0.50295109 2.0031331 nan
2.216857 -0.5042724 1.9986417 nan
2.2168379 -0.50813329 1.9986417 nan
2.2168183 -0.51199424 1.9986417 nan
2.2048125 -0.51322412 1.9941502 nan
2.2047935 -0.51706219 1.9941502 nan
2.1927872 -0.51822358 1.9896588 nan
2.1927681 -0.52203882 1.9896588 nan
2.1817617 -0.52335846 1.9855417 nan
2.1817427 -0.52715266 1.9855417 nan
2.1697376 -0.52817881 1.9810503 nan
2.1697187 -0.53195018 1.9810503 nan
2.1587129 -0.53314227 1.9769331 nan
2.1586943 -0.53689265 1.9769331 nan
2.1476884 -0.53802192 1.972816 nan
2.1476698 -0.54175138 1.972816 nan
2.1366644 -0.54281771 1.9686987 nan
2.136646 -0.54652625 1.9686987 nan
2.1256409 -0.5475297 1.9645817 nan
2.1146359 -0.54849124 1.9604645 nan
2.10463 -0.54966068 1.9567217 nan
2.0936255 -0.55054039 1.9526045 nan
2.0836201 -0.55163163 1.9488616 nan
2.0726161 -0.55242944 1.9447446 nan
2.0626109 -0.55344266 1.9410017 nan
2.062593 -0.55701023 1.9410017 nan
2.0625753 -0.56057775 1.9410017 nan
2.0625577 -0.56414539 1.9410017 nan
2.0525529 -0.5650633 1.9372588 nan
2.0525353 -0.56861186 1.9372588 nan
2.042531 -0.56947267 1.933516 nan
2.0425134 -0.57300216 1.933516 nan
2.0225227 -0.57108003 1.9260302 nan
2.0225053 -0.57457143 1.9260302 nan
2.0224881 -0.57806283 1.9260302 nan
2.0224707 -0.58155417 1.9260302 nan
2.0224533 -0.58504564 1.9260302 nan
2.0134487 -0.58599806 1.9226617 nan
2.0134315 -0.58947235 1.9226617 nan
2.0134141 -0.59294659 1.9226617 nan
2.0133967 -0.59642082 1.9226617 nan
2.0133796 -0.599895 1.9226617 nan
2.0033767 -0.60045302 1.9189188 nan
2.0033596 -0.60390824 1.9189188 nan
2.0033426 -0.6073634 1.9189188 nan
2.0033255 -0.61081856 1.9189188 nan
1.9933228 -0.61128134 1.9151759 nan
1.9933058 -0.61471742 1.9151759 nan
1.9932888 -0.61815363 1.9151759 nan
1.9932717 -0.62158978 1.9151759 nan
1.9932547 -0.62502593 1.9151759 nan
1.9842513 -0.62568319 1.9118073 nan
1.9932206 -0.63189822 1.9151759 nan
1.9842173 -0.63252121 1.9118073 nan
1.9842004 -0.63594019 1.9118073 nan
1.9841833 -0.63935918 1.9118073 nan
1.9841664 -0.64277822 1.9118073 nan
1.9841495 -0.6461972 1.9118073 nan
