# .PCD v0.7 - Point Cloud Data file format
VERSION 0.7
FIELDS x y z rgb
SIZE 4 4 4 4
TYPE F F F F
COUNT 1 1 1 1
WIDTH 1046
HEIGHT 1
VIEWPOINT 0 0 0 1 0 0 0
POINTS 1046
DATA ascii
2.5820713 -0.0086505562 1.3561473 -2.3022237e+38
2.5820608 -0.013206735 1.3561473 -2.3155681e+38
2.5820506 -0.017762918 1.3561473 -2.3155683e+38
2.5820401 -0.022319097 1.3561473 -2.3155687e+38
2.5820296 -0.026875276 1.3561473 -2.3156206e+38
2.5990198 -0.03116281 1.3569731 -2.3422571e+38
2.5990093 -0.035751369 1.3569731 -2.3555496e+38
2.5989988 -0.040339924 1.3569731 -2.368842e+38
2.5989883 -0.044928487 1.3569731 -2.3687384e+38
2.5989778 -0.049517047 1.3569731 -2.2887772e+38
2.5989673 -0.054105606 1.3569731 -2.2093901e+38
2.5989566 -0.058694169 1.3569731 -2.9025645e+38
2.5989461 -0.063282728 1.3569731 nan
2.5989356 -0.067871287 1.3569731 nan
2.5989251 -0.072459847 1.3569731 -3.3543986e+38
2.5989146 -0.077048406 1.3569731 -2.5936701e+38
2.5989041 -0.081636965 1.3569731 -1.8383e+38
2.5988936 -0.086225525 1.3569731 -3.1464528e+38
2.6158824 -0.090966389 1.3577988 nan
2.5988724 -0.095402643 1.3569731 nan
2.5988619 -0.099991202 1.3569731 nan
2.6158507 -0.10482921 1.3577988 nan
2.6158402 -0.10945015 1.3577988 nan
2.6158295 -0.11407109 1.3577988 nan
2.615819 -0.11869203 1.3577988 nan
2.5988095 -0.122934 1.3569731 nan
2.6157978 -0.12793392 1.3577988 nan
2.6157873 -0.13255486 1.3577988 nan
2.7229309 0.36625418 1.3581245 nan
2.7229199 0.36143136 1.3581245 nan
2.7419164 0.35980397 1.3590112 nan
2.7228978 0.35178563 1.3581245 nan
2.7228868 0.34696281 1.3581245 nan
2.741883 0.34522685 1.3590112 -3.0997134e+38
2.7418718 0.34036782 1.3590112 -3.3143654e+38
2.7418606 0.33550879 1.3590112 nan
2.7608564 0.33362812 1.3598979 nan
2.7048252 0.3200613 1.3572845 -3.3680507e+38
2.7048142 0.31527275 1.3572845 -2.6348878e+38
2.7048032 0.31048417 1.3572845 -1.902415e+38
2.6867859 0.30301118 1.3564445 -2.075842e+38
2.7047813 0.30090708 1.3572845 -2.2354532e+38
2.6867642 0.29350263 1.3564445 -2.2354532e+38
2.6867533 0.28874835 1.3564445 -2.2355566e+38
2.6687367 0.28144678 1.3556045 -2.222212e+38
2.6687257 0.27672678 1.3556045 -2.222212e+38
2.6507092 0.26952809 1.3547645 -2.2089195e+38
2.6506984 0.26484239 1.3547645 -2.2088674e+38
2.6506877 0.26015669 1.3547645 -2.208867e+38
2.6506767 0.25547099 1.3547645 -2.1955224e+38
2.633661 0.24857378 1.3539711 -2.195522e+38
2.6336503 0.24392045 1.3539711 -2.195522e+38
2.6506445 0.24141386 1.3547645 -2.1822814e+38
2.6506338 0.23672819 1.3547645 -2.1822291e+38
2.6506231 0.23204246 1.3547645 -2.1688845e+38
2.6506124 0.22735676 1.3547645 -2.1688847e+38
2.6506016 0.22267106 1.3547645 -2.1555407e+38
2.6505909 0.21798536 1.3547645 -2.1555411e+38
2.6505802 0.21329966 1.3547645 -2.1423009e+38
2.6505694 0.20861396 1.3547645 -2.1423524e+38
2.6505587 0.20392823 1.3547645 -2.1290076e+38
2.650548 0.19924256 1.3547645 -2.1289553e+38
2.6505373 0.19455683 1.3547645 -2.142195e+38
2.6505265 0.18987116 1.3547645 -2.1553833e+38
2.6505158 0.18518543 1.3547645 -2.1420387e+38
2.6505051 0.18049975 1.3547645 -2.1419354e+38
2.6504943 0.17581402 1.3547645 -2.1286436e+38
2.6504834 0.17112833 1.3547645 -2.1152998e+38
2.6504726 0.16644263 1.3547645 -2.1153e+38
2.6504619 0.16175692 1.3547645 -2.1153e+38
2.6504512 0.15707122 1.3547645 -2.1020075e+38
2.6504405 0.15238552 1.3547645 -2.1019556e+38
2.6504297 0.14769982 1.3547645 -2.0753708e+38
2.650419 0.14301412 1.3547645 -2.0620266e+38
2.6504083 0.1383284 1.3547645 -2.0354937e+38
2.6503975 0.1336427 1.3547645 -2.0089094e+38
2.6503868 0.128957 1.3547645 -2.0222017e+38
2.6503761 0.1242713 1.3547645 -2.0355461e+38
2.6503654 0.1195856 1.3547645 -2.0488905e+38
2.6503546 0.1148999 1.3547645 -2.0621817e+38
2.6333408 0.10897413 1.3539711 -2.1154016e+38
2.6333303 0.10432079 1.3539711 -2.1552792e+38
2.6333196 0.09966749 1.3539711 -2.1419876e+38
2.6333089 0.09501417 1.3539711 -2.1419876e+38
2.6162956 0.089250281 1.3531778 -2.1553318e+38
2.5992827 0.083551183 1.3523844 -2.1685721e+38
2.5992723 0.078962639 1.3523844 -2.1818644e+38
2.5992618 0.07437408 1.3523844 -2.1818123e+38
2.5992513 0.06978552 1.3523844 -2.1819678e+38
2.5992408 0.065196946 1.3523844 -2.1820721e+38
2.5992303 0.060608387 1.3523844 -2.1820723e+38
2.5992196 0.056019828 1.3523844 -2.1821244e+38
2.5992091 0.051431261 1.3523844 -2.1821765e+38
2.5991986 0.046842702 1.3523844 -2.1955729e+38
2.5991881 0.04225415 1.3523844 -2.1955211e+38
2.5821757 0.036911234 1.3515911 -2.1954692e+38
2.5821655 0.032355048 1.3515911 -2.1955211e+38
2.582155 0.027798869 1.3515911 -2.1955209e+38
2.5821445 0.023242697 1.3515911 -2.2088647e+38
2.582134 0.018686511 1.3515911 -2.2221572e+38
2.5821235 0.014130339 1.3515911 -2.2222091e+38
2.5821133 0.0095741525 1.3515911 -2.2222098e+38
2.5821028 0.0050179809 1.3515911 -2.2488466e+38
2.5820923 0.00046180189 1.3515911 -2.2622426e+38
2.5820818 -0.0040943846 1.3515911 -2.2755864e+38
2.5820713 -0.0086505562 1.3515911 -2.2889312e+38
2.5820608 -0.013206735 1.3515911 -2.3022239e+38
2.5820506 -0.017762918 1.3515911 -2.3156202e+38
2.5820401 -0.022319097 1.3515911 -2.3155683e+38
2.5820296 -0.026875276 1.3515911 -2.3155683e+38
2.5990198 -0.03116281 1.3523844 -2.3289644e+38
2.5990093 -0.035751369 1.3523844 -2.342309e+38
2.5989988 -0.040339924 1.3523844 -2.3556017e+38
2.6159885 -0.044756986 1.3531778 -2.3821349e+38
2.5989778 -0.049517047 1.3523844 -2.3286549e+38
2.5989673 -0.054105606 1.3523844 -2.2748087e+38
2.5989566 -0.058694169 1.3523844 -2.5688465e+38
2.5989461 -0.063282728 1.3523844 -2.8623224e+38
2.6159356 -0.067861691 1.3531778 -2.7289913e+38
2.6159248 -0.072482631 1.3531778 -2.5956456e+38
2.5989146 -0.077048406 1.3523844 -2.7011973e+38
2.5989041 -0.081636965 1.3523844 -2.8202204e+38
2.6158931 -0.086345449 1.3531778 nan
2.6328821 -0.091118693 1.3539711 nan
2.6158719 -0.095587328 1.3531778 nan
2.5988619 -0.099991202 1.3523844 nan
2.6158507 -0.10482921 1.3531778 nan
2.6328394 -0.10973198 1.3539711 nan
2.6158295 -0.11407109 1.3531778 nan
2.615819 -0.11869203 1.3531778 nan
2.5988095 -0.122934 1.3523844 nan
2.7229309 0.36625418 1.3533016 -3.1694575e+38
2.7229199 0.36143136 1.3533016 nan
2.7419164 0.35980397 1.3541521 nan
2.7228978 0.35178563 1.3533016 nan
2.7228868 0.34696281 1.3533016 nan
2.7228756 0.34213996 1.3533016 nan
2.7228646 0.33731714 1.3533016 -3.1941653e+38
2.7228537 0.33249429 1.3533016 -2.9689211e+38
2.7608564 0.33362812 1.3550026 -3.1017374e+38
2.7228315 0.32284859 1.3533016 -3.2343468e+38
2.7048142 0.31527275 1.3524959 -2.5288676e+38
2.7048032 0.31048417 1.3524959 -1.823545e+38
2.7047923 0.30569559 1.3524959 -1.9827396e+38
2.7047813 0.30090708 1.3524959 -2.1419375e+38
2.6867642 0.29350263 1.3516902 -2.1686277e+38
2.6867533 0.28874835 1.3516902 -2.1821277e+38
2.6687367 0.28144678 1.3508844 -2.1954719e+38
2.6687257 0.27672678 1.3508844 -2.1955234e+38
2.6507092 0.26952809 1.3500788 -2.2088155e+38
2.6506984 0.26484239 1.3500788 -2.2088672e+38
2.6506877 0.26015669 1.3500788 -2.1955747e+38
2.6336718 0.25322708 1.3493178 -2.1822822e+38
2.633661 0.24857378 1.3493178 -2.182282e+38
2.6336503 0.24392045 1.3493178 -2.1689895e+38
2.6686502 0.24368688 1.3508844 -2.1690412e+38
2.6686392 0.23896688 1.3508844 -2.1689889e+38
2.6686285 0.23424691 1.3508844 -2.1688847e+38
2.6686175 0.22952691 1.3508844 -2.1688847e+38
2.6686068 0.22480693 1.3508844 -2.1688329e+38
2.668596 0.22008693 1.3508844 -2.1555928e+38
2.6505802 0.21329966 1.3500788 -2.1290082e+38
2.6505694 0.20861396 1.3500788 -2.1024235e+38
2.6505587 0.20392823 1.3500788 -2.1157153e+38
2.650548 0.19924256 1.3500788 -2.1289553e+38
2.6505373 0.19455683 1.3500788 -2.1421954e+38
2.6505265 0.18987116 1.3500788 -2.1553835e+38
2.6505158 0.18518543 1.3500788 -2.1685715e+38
2.6505051 0.18049975 1.3500788 -2.1685198e+38
2.6504943 0.17581402 1.3500788 -2.1684683e+38
2.6504834 0.17112833 1.3500788 -2.1684685e+38
2.6504726 0.16644263 1.3500788 -2.1551766e+38
2.6504619 0.16175692 1.3500788 -2.1286438e+38
2.6504512 0.15707122 1.3500788 -2.1285916e+38
2.6504405 0.15238552 1.3500788 -2.1152996e+38
2.6504297 0.14769982 1.3500788 -2.1152998e+38
2.650419 0.14301412 1.3500788 -2.1019553e+38
2.6504083 0.1383284 1.3500788 -2.0753706e+38
2.6503975 0.1336427 1.3500788 -2.0354418e+38
2.6503868 0.128957 1.3500788 -2.0353901e+38
2.6503761 0.1242713 1.3500788 -2.0354937e+38
2.6503654 0.1195856 1.3500788 -2.0621302e+38
2.6503546 0.1148999 1.3500788 -2.075474e+38
2.6333408 0.10897413 1.3493178 -2.1154026e+38
2.6333303 0.10432079 1.3493178 -2.1552796e+38
2.6333196 0.09966749 1.3493178 -2.1685721e+38
2.6333089 0.09501417 1.3493178 -2.1685723e+38
2.6162956 0.089250281 1.3485569 -2.1819167e+38
2.5992827 0.083551183 1.347796 -2.1818648e+38
2.5992723 0.078962639 1.347796 -2.1818131e+38
2.5822594 0.073360667 1.3470349 -2.1819167e+38
2.5822489 0.068804488 1.3470349 -2.1819686e+38
2.5822384 0.064248309 1.3470349 -2.1820206e+38
2.5992303 0.060608387 1.347796 -2.1688321e+38
2.5822177 0.055135936 1.3470349 -2.1422478e+38
2.5822072 0.050579771 1.3470349 -2.1688325e+38
2.5821967 0.046023585 1.3470349 -2.1955214e+38
2.5991881 0.04225415 1.347796 -2.1821774e+38
2.5991776 0.037665583 1.347796 -2.1689368e+38
2.5991671 0.033077024 1.347796 -2.1955211e+38
2.582155 0.027798869 1.3470349 -2.2088134e+38
2.5821445 0.023242697 1.3470349 -2.2221576e+38
2.5991356 0.019311346 1.347796 -2.2221578e+38
2.5821235 0.014130339 1.3470349 -2.2221578e+38
2.5821133 0.0095741525 1.3470349 -2.2089177e+38
2.5821028 0.0050179809 1.3470349 -2.2355546e+38
2.5820923 0.00046180189 1.3470349 -2.2621908e+38
2.5820818 -0.0040943846 1.3470349 -2.2755351e+38
2.5820713 -0.0086505562 1.3470349 -2.2755353e+38
2.5820608 -0.013206735 1.3470349 -2.2887758e+38
2.5820506 -0.017762918 1.3470349 -2.3022239e+38
2.5820401 -0.022319097 1.3470349 -2.3155161e+38
2.5990303 -0.02657425 1.347796 -2.3156202e+38
2.5990198 -0.03116281 1.347796 -2.315776e+38
2.5990093 -0.035751369 1.347796 -2.3157244e+38
2.5989988 -0.040339924 1.347796 -2.3557055e+38
2.6159885 -0.044756986 1.3485569 -2.3821865e+38
2.5989778 -0.049517047 1.347796 -2.3688427e+38
2.5989673 -0.054105606 1.347796 -2.3420492e+38
2.5989566 -0.058694169 1.347796 -2.2489503e+38
2.5989461 -0.063282728 1.347796 -2.1430295e+38
2.6159356 -0.067861691 1.3485569 -1.9961414e+38
2.6159248 -0.072482631 1.3485569 -1.8372577e+38
2.5989146 -0.077048406 1.347796 -2.8217698e+38
2.5989041 -0.081636965 1.347796 nan
2.6158931 -0.086345449 1.3485569 nan
2.6328821 -0.091118693 1.3493178 nan
2.6158719 -0.095587328 1.3485569 nan
2.5988619 -0.099991202 1.347796 nan
2.6158507 -0.10482921 1.3485569 nan
2.6328394 -0.10973198 1.3493178 nan
2.632829 -0.11438531 1.3493178 nan
2.722909 0.35660851 1.3484788 nan
2.7228978 0.35178563 1.3484788 nan
2.7228868 0.34696281 1.3484788 nan
2.7228756 0.34213996 1.3484788 nan
2.7048581 0.33442697 1.3477074 nan
2.7228537 0.33249429 1.3484788 -3.2605158e+38
2.7608564 0.33362812 1.3501073 -3.2609225e+38
2.7048252 0.3200613 1.3477074 -3.2607736e+38
2.7048142 0.31527275 1.3477074 -2.7813755e+38
2.7048032 0.31048417 1.3477074 -2.3157238e+38
2.7047923 0.30569559 1.3477074 -2.1948405e+38
2.6867752 0.29825687 1.3469359 -2.087883e+38
2.6867642 0.29350263 1.3469359 -2.1551271e+38
2.6867533 0.28874835 1.3469359 -2.2352447e+38
2.6687367 0.28144678 1.3461645 -2.2352968e+38
2.6687257 0.27672678 1.3461645 -2.2354002e+38
2.668715 0.27200678 1.3461645 -2.2221595e+38
2.6687043 0.26728681 1.3461645 -2.2088672e+38
2.6686933 0.2625668 1.3461645 -2.208867e+38
2.6506767 0.25547099 1.3453931 -2.208867e+38
2.650666 0.25078526 1.3453931 -2.1955745e+38
2.6506553 0.24609959 1.3453931 -2.1955743e+38
2.6686502 0.24368688 1.3461645 -2.1822816e+38
2.6686392 0.23896688 1.3461645 -2.1689889e+38
2.6686285 0.23424691 1.3461645 -2.1556443e+38
2.6686175 0.22952691 1.3461645 -2.1556445e+38
2.6686068 0.22480693 1.3461645 -2.1555926e+38
2.668596 0.22008693 1.3461645 -2.1556445e+38
2.6505802 0.21329966 1.3453931 -2.1423001e+38
2.6505694 0.20861396 1.3453931 -2.1289559e+38
2.6505587 0.20392823 1.3453931 -2.1289557e+38
2.650548 0.19924256 1.3453931 -2.1422478e+38
2.6505373 0.19455683 1.3453931 -2.1421957e+38
2.6505265 0.18987116 1.3453931 -2.1420395e+38
2.6505158 0.18518543 1.3453931 -2.1552792e+38
2.6505051 0.18049975 1.3453931 -2.181864e+38
2.6504943 0.17581402 1.3453931 -2.1685198e+38
2.6684878 0.17288706 1.3461645 -2.1685202e+38
2.6684768 0.16816707 1.3461645 -2.141988e+38
2.6504619 0.16175692 1.3453931 -2.1286955e+38
2.6504512 0.15707122 1.3453931 -2.1153509e+38
2.6684444 0.15400711 1.3461645 -2.1020071e+38
2.6504297 0.14769982 1.3453931 -2.1020075e+38
2.6684227 0.14456712 1.3461645 -2.0886631e+38
2.668412 0.13984714 1.3461645 -2.0753187e+38
2.6503975 0.1336427 1.3453931 -2.0618706e+38
2.6503868 0.128957 1.3453931 -2.0619745e+38
2.6503761 0.1242713 1.3453931 -2.0752665e+38
2.6503654 0.1195856 1.3453931 -2.0886623e+38
2.6503546 0.1148999 1.3453931 -2.1153511e+38
2.6503439 0.11021419 1.3453931 -2.141988e+38
2.6333303 0.10432079 1.3446645 -2.1685723e+38
2.6333196 0.09966749 1.3446645 -2.1818644e+38
2.6333089 0.09501417 1.3446645 -2.1818648e+38
2.6162956 0.089250281 1.343936 -2.1951573e+38
2.5992827 0.083551183 1.3432074 -2.1951056e+38
2.5992723 0.078962639 1.3432074 -2.1952615e+38
2.5992618 0.07437408 1.3432074 -2.1954173e+38
2.5822489 0.068804488 1.3424788 -2.1820212e+38
2.5992408 0.065196946 1.3432074 -2.1819691e+38
2.5992303 0.060608387 1.3432074 -2.1688321e+38
2.5822177 0.055135936 1.3424788 -2.1555922e+38
2.5822072 0.050579771 1.3424788 -2.1688847e+38
2.5821967 0.046023585 1.3424788 -2.1822293e+38
2.5821862 0.041467406 1.3424788 -2.1689374e+38
2.5821757 0.036911234 1.3424788 -2.1689889e+38
2.5821655 0.032355048 1.3424788 -2.1955211e+38
2.582155 0.027798869 1.3424788 -2.2088138e+38
2.5821445 0.023242697 1.3424788 -2.2221582e+38
2.582134 0.018686511 1.3424788 -2.2354507e+38
2.5821235 0.014130339 1.3424788 -2.2355026e+38
2.5821133 0.0095741525 1.3424788 -2.2355546e+38
2.5821028 0.0050179809 1.3424788 -2.2355546e+38
2.5820923 0.00046180189 1.3424788 -2.2488471e+38
2.5820818 -0.0040943846 1.3424788 -2.2621915e+38
2.5820713 -0.0086505562 1.3424788 -2.2621395e+38
2.5820608 -0.013206735 1.3424788 -2.2755355e+38
2.5820506 -0.017762918 1.3424788 -2.3021719e+38
2.5820401 -0.022319097 1.3424788 -2.3022237e+38
2.5990303 -0.02657425 1.3432074 -2.3156719e+38
2.5990198 -0.03116281 1.3432074 -2.3156721e+38
2.5990093 -0.035751369 1.3432074 -2.3156206e+38
2.5989988 -0.040339924 1.3432074 -2.3423092e+38
2.6159885 -0.044756986 1.343936 -2.3689457e+38
2.5989778 -0.049517047 1.3432074 -2.3689976e+38
2.5989673 -0.054105606 1.3432074 -2.3691534e+38
2.5989566 -0.058694169 1.3432074 -2.3289648e+38
2.5989461 -0.063282728 1.3432074 -2.2887732e+38
2.5989356 -0.067871287 1.3432074 -2.1158145e+38
2.6159248 -0.072482631 1.343936 -1.9426603e+38
2.5989146 -0.077048406 1.3432074 -2.9433804e+38
2.5989041 -0.081636965 1.3432074 nan
2.5988936 -0.086225525 1.3432074 nan
2.6328821 -0.091118693 1.3446645 nan
2.6158719 -0.095587328 1.343936 nan
2.5988619 -0.099991202 1.3432074 nan
2.7228868 0.34696281 1.3436559 nan
2.704869 0.33921555 1.3429188 nan
2.7048581 0.33442697 1.3429188 nan
2.7048471 0.32963842 1.3429188 nan
2.7048361 0.32484987 1.3429188 nan
2.7048252 0.3200613 1.3429188 -3.2874125e+38
2.7048142 0.31527275 1.3429188 -3.0467493e+38
2.7048032 0.31048417 1.3429188 -2.793622e+38
2.7047923 0.30569559 1.3429188 -2.419618e+38
2.6867752 0.29825687 1.3421817 -2.034923e+38
2.6867642 0.29350263 1.3421817 -2.1552829e+38
2.6867533 0.28874835 1.3421817 -2.2750692e+38
2.6687367 0.28144678 1.3414445 -2.2750694e+38
2.6687257 0.27672678 1.3414445 -2.2619327e+38
2.668715 0.27200678 1.3414445 -2.2355037e+38
2.6687043 0.26728681 1.3414445 -2.208867e+38
2.6686933 0.2625668 1.3414445 -2.2221591e+38
2.6506767 0.25547099 1.3407073 -2.2221591e+38
2.650666 0.25078526 1.3407073 -2.2221591e+38
2.6506553 0.24609959 1.3407073 -2.2088666e+38
2.6686502 0.24368688 1.3414445 -2.1822301e+38
2.6686392 0.23896688 1.3414445 -2.1556451e+38
2.6686285 0.23424691 1.3414445 -2.155593e+38
2.6686175 0.22952691 1.3414445 -2.1423003e+38
2.6686068 0.22480693 1.3414445 -2.1422482e+38
2.668596 0.22008693 1.3414445 -2.1422999e+38
2.6505802 0.21329966 1.3407073 -2.1422999e+38
2.6505694 0.20861396 1.3407073 -2.142248e+38
2.6505587 0.20392823 1.3407073 -2.1555401e+38
2.650548 0.19924256 1.3407073 -2.1555397e+38
2.6505373 0.19455683 1.3407073 -2.142195e+38
2.6505265 0.18987116 1.3407073 -2.1287987e+38
2.6505158 0.18518543 1.3407073 -2.1552792e+38
2.6505051 0.18049975 1.3407073 -2.1818638e+38
2.6504943 0.17581402 1.3407073 -2.1685196e+38
2.6504834 0.17112833 1.3407073 -2.1552796e+38
2.6504726 0.16644263 1.3407073 -2.1420399e+38
2.6504619 0.16175692 1.3407073 -2.1287476e+38
2.6504512 0.15707122 1.3407073 -2.1154553e+38
2.6684444 0.15400711 1.3414445 -2.0888188e+38
2.6504297 0.14769982 1.3407073 -2.088819e+38
2.6684227 0.14456712 1.3414445 -2.0753708e+38
2.668412 0.13984714 1.3414445 -2.088559e+38
2.6503975 0.1336427 1.3407073 -2.088559e+38
2.6503868 0.128957 1.3407073 -2.1019551e+38
2.6503761 0.1242713 1.3407073 -2.1019547e+38
2.6503654 0.1195856 1.3407073 -2.1285391e+38
2.6503546 0.1148999 1.3407073 -2.1418837e+38
2.6503439 0.11021419 1.3407073 -2.1685204e+38
2.6503332 0.10552849 1.3407073 -2.1818127e+38
2.6333196 0.09966749 1.3400111 -2.195105e+38
2.6333089 0.09501417 1.3400111 -2.1951571e+38
2.6162956 0.089250281 1.3393149 -2.2084496e+38
2.6162851 0.084629357 1.3393149 -2.2085017e+38
2.6162746 0.080008417 1.3393149 -2.2086055e+38
2.5992618 0.07437408 1.3386188 -2.1953656e+38
2.5992513 0.06978552 1.3386188 -2.1820735e+38
2.5992408 0.065196946 1.3386188 -2.1687808e+38
2.5992303 0.060608387 1.3386188 -2.1688323e+38
2.5992196 0.056019828 1.3386188 -2.1555924e+38
2.5992091 0.051431261 1.3386188 -2.1556445e+38
2.5991986 0.046842702 1.3386188 -2.1556449e+38
2.5991881 0.04225415 1.3386188 -2.1689376e+38
2.5991776 0.037665583 1.3386188 -2.1689372e+38
2.5821655 0.032355048 1.3379226 -2.1954694e+38
2.582155 0.027798869 1.3379226 -2.2088138e+38
2.5821445 0.023242697 1.3379226 -2.2353986e+38
2.582134 0.018686511 1.3379226 -2.248743e+38
2.5821235 0.014130339 1.3379226 -2.2487951e+38
2.5821133 0.0095741525 1.3379226 -2.2487951e+38
2.5821028 0.0050179809 1.3379226 -2.2487951e+38
2.5820923 0.00046180189 1.3379226 -2.235555e+38
2.5820818 -0.0040943846 1.3379226 -2.2488475e+38
2.5820713 -0.0086505562 1.3379226 -2.2488994e+38
2.5820608 -0.013206735 1.3379226 -2.2755357e+38
2.5820506 -0.017762918 1.3379226 -2.2888801e+38
2.5820401 -0.022319097 1.3379226 -2.3021204e+38
2.5990303 -0.02657425 1.3386188 -2.3155687e+38
2.5990198 -0.03116281 1.3386188 -2.3156208e+38
2.5990093 -0.035751369 1.3386188 -2.3023806e+38
2.615999 -0.040136039 1.3393149 -2.3289654e+38
2.6159885 -0.044756986 1.3393149 -2.3557055e+38
2.6159778 -0.049377926 1.3393149 -2.382342e+38
2.6159673 -0.053998865 1.3393149 -2.3956866e+38
2.6159568 -0.058619805 1.3393149 -2.4222197e+38
2.6159461 -0.063240752 1.3393149 -2.4354077e+38
2.6159356 -0.067861691 1.3393149 -2.2357635e+38
2.7048361 0.32484987 1.3381302 nan
2.7048252 0.3200613 1.3381302 nan
2.7048142 0.31527275 1.3381302 -3.1141926e+38
2.7048032 0.31048417 1.3381302 -2.7675559e+38
2.7047923 0.30569559 1.3381302 -2.327354e+38
2.6867752 0.29825687 1.3374274 -1.9021576e+38
2.6867642 0.29350263 1.3374274 -2.0753732e+38
2.6867533 0.28874835 1.3374274 -2.2484844e+38
2.6687367 0.28144678 1.3367245 -2.2485361e+38
2.6687257 0.27672678 1.3367245 -2.2619322e+38
2.668715 0.27200678 1.3367245 -2.2486919e+38
2.6687043 0.26728681 1.3367245 -2.2353994e+38
2.6686933 0.2625668 1.3367245 -2.2221069e+38
2.6506767 0.25547099 1.3360217 -2.2221069e+38
2.650666 0.25078526 1.3360217 -2.2088146e+38
2.6506553 0.24609959 1.3360217 -2.2088148e+38
2.6686502 0.24368688 1.3367245 -2.1822303e+38
2.6686392 0.23896688 1.3367245 -2.1555419e+38
2.6686285 0.23424691 1.3367245 -2.1555936e+38
2.6686175 0.22952691 1.3367245 -2.1688331e+38
2.6686068 0.22480693 1.3367245 -2.1555401e+38
2.668596 0.22008693 1.3367245 -2.1555401e+38
2.6505802 0.21329966 1.3360217 -2.155592e+38
2.6505694 0.20861396 1.3360217 -2.1422478e+38
2.6505587 0.20392823 1.3360217 -2.1555399e+38
2.650548 0.19924256 1.3360217 -2.1555392e+38
2.6505373 0.19455683 1.3360217 -2.1554348e+38
2.6505265 0.18987116 1.3360217 -2.1553829e+38
2.6505158 0.18518543 1.3360217 -2.1553309e+38
2.6505051 0.18049975 1.3360217 -2.1686232e+38
2.6504943 0.17581402 1.3360217 -2.168623e+38
2.6504834 0.17112833 1.3360217 -2.1553314e+38
2.6504726 0.16644263 1.3360217 -2.1420916e+38
2.6504619 0.16175692 1.3360217 -2.1287478e+38
2.6504512 0.15707122 1.3360217 -2.1154557e+38
2.6684444 0.15400711 1.3367245 -2.1154036e+38
2.6504297 0.14769982 1.3360217 -2.1020592e+38
2.6684227 0.14456712 1.3367245 -2.1019551e+38
2.668412 0.13984714 1.3367245 -2.1019549e+38
2.6503975 0.1336427 1.3360217 -2.101903e+38
2.6503868 0.128957 1.3360217 -2.1019549e+38
2.6503761 0.1242713 1.3360217 -2.115247e+38
2.6503654 0.1195856 1.3360217 -2.1418833e+38
2.6503546 0.1148999 1.3360217 -2.1684681e+38
2.6503439 0.11021419 1.3360217 -2.1951047e+38
2.6503332 0.10552849 1.3360217 -2.2216895e+38
2.6333196 0.09966749 1.3353578 -2.2217416e+38
2.6333089 0.09501417 1.3353578 -2.2217938e+38
2.6162956 0.089250281 1.334694 -2.2085015e+38
2.6162851 0.084629357 1.334694 -2.1952611e+38
2.6162746 0.080008417 1.334694 -2.1952611e+38
2.5992618 0.07437408 1.3340302 -2.1819695e+38
2.5992513 0.06978552 1.3340302 -2.1687816e+38
2.5992408 0.065196946 1.3340302 -2.1688331e+38
2.5992303 0.060608387 1.3340302 -2.1555403e+38
2.5992196 0.056019828 1.3340302 -2.1554887e+38
2.5992091 0.051431261 1.3340302 -2.1555928e+38
2.5991986 0.046842702 1.3340302 -2.1688855e+38
2.5991881 0.04225415 1.3340302 -2.1689376e+38
2.5991776 0.037665583 1.3340302 -2.1689891e+38
2.5821655 0.032355048 1.3333664 -2.182281e+38
2.582155 0.027798869 1.3333664 -2.1955735e+38
2.5821445 0.023242697 1.3333664 -2.2088658e+38
2.582134 0.018686511 1.3333664 -2.2221584e+38
2.5821235 0.014130339 1.3333664 -2.2355028e+38
2.5821133 0.0095741525 1.3333664 -2.2620876e+38
2.5821028 0.0050179809 1.3333664 -2.2487953e+38
2.5820923 0.00046180189 1.3333664 -2.2487955e+38
2.5820818 -0.0040943846 1.3333664 -2.2356073e+38
2.5820713 -0.0086505562 1.3333664 -2.2356592e+38
2.5820608 -0.013206735 1.3333664 -2.2490032e+38
2.5820506 -0.017762918 1.3333664 -2.275692e+38
2.5820401 -0.022319097 1.3333664 -2.2889326e+38
2.5990303 -0.02657425 1.3340302 -2.3023289e+38
2.5990198 -0.03116281 1.3340302 -2.3023291e+38
2.5990093 -0.035751369 1.3340302 -2.3156733e+38
2.615999 -0.040136039 1.334694 -2.3423617e+38
2.6159885 -0.044756986 1.334694 -2.3557579e+38
2.6159778 -0.049377926 1.334694 -2.3823941e+38
2.6159673 -0.053998865 1.334694 -2.4090316e+38
2.6159568 -0.058619805 1.334694 -2.4223767e+38
2.6159461 -0.063240752 1.334694 -2.4358791e+38
2.6329355 -0.067852087 1.3353578 -2.2894585e+38
2.7048252 0.3200613 1.3333416 nan
2.7048142 0.31527275 1.3333416 -3.1943134e+38
2.7048032 0.31048417 1.3333416 -2.7274726e+38
2.6867859 0.30301118 1.3326731 -2.2465606e+38
2.6867752 0.29825687 1.3326731 -1.7554742e+38
2.6867642 0.29350263 1.3326731 -1.9955672e+38
2.6867533 0.28874835 1.3326731 -2.221899e+38
2.6867425 0.28399405 1.3326731 -2.235295e+38
2.6867316 0.2792398 1.3326731 -2.2485874e+38
2.668715 0.27200678 1.3320045 -2.2485357e+38
2.6687043 0.26728681 1.3320045 -2.2486394e+38
2.6686933 0.2625668 1.3320045 -2.2353988e+38
2.6686826 0.25784686 1.3320045 -2.2088142e+38
2.6686716 0.25312686 1.3320045 -2.2088142e+38
2.6686609 0.24840689 1.3320045 -2.2088144e+38
2.6686502 0.24368688 1.3320045 -2.1822301e+38
2.6686392 0.23896688 1.3320045 -2.1555934e+38
2.6686285 0.23424691 1.3320045 -2.1688853e+38
2.6686175 0.22952691 1.3320045 -2.1821252e+38
2.6686068 0.22480693 1.3320045 -2.1821246e+38
2.668596 0.22008693 1.3320045 -2.1688323e+38
2.6505802 0.21329966 1.3313359 -2.155592e+38
2.6505694 0.20861396 1.3313359 -2.1422478e+38
2.6505587 0.20392823 1.3313359 -2.1555403e+38
2.650548 0.19924256 1.3313359 -2.1554879e+38
2.6505373 0.19455683 1.3313359 -2.168676e+38
2.6505265 0.18987116 1.3313359 -2.1686758e+38
2.6505158 0.18518543 1.3313359 -2.1686234e+38
2.6505051 0.18049975 1.3313359 -2.1553311e+38
2.6504943 0.17581402 1.3313359 -2.1553829e+38
2.6504834 0.17112833 1.3313359 -2.1554352e+38
2.6504726 0.16644263 1.3313359 -2.142195e+38
2.6504619 0.16175692 1.3313359 -2.1287993e+38
2.6684554 0.15872709 1.3320045 -2.1287476e+38
2.6684444 0.15400711 1.3320045 -2.1286955e+38
2.6684337 0.14928712 1.3320045 -2.1285916e+38
2.6684227 0.14456712 1.3320045 -2.1152472e+38
2.668412 0.13984714 1.3320045 -2.1152989e+38
2.6684012 0.13512716 1.3320045 -2.1019545e+38
2.6683903 0.13040717 1.3320045 -2.1151949e+38
2.6503761 0.1242713 1.3313359 -2.1152466e+38
2.6503654 0.1195856 1.3313359 -2.1551752e+38
2.6503546 0.1148999 1.3313359 -2.1817597e+38
2.6503439 0.11021419 1.3313359 -2.2216366e+38
2.6503332 0.10552849 1.3313359 -2.2615657e+38
2.6333196 0.09966749 1.3307045 -2.2615661e+38
2.6333089 0.09501417 1.3307045 -2.248326e+38
2.6162956 0.089250281 1.3300731 -2.2216897e+38
2.6162851 0.084629357 1.3300731 -2.1819688e+38
2.6162746 0.080008417 1.3300731 -2.1819691e+38
2.5992618 0.07437408 1.3294417 -2.168677e+38
2.5992513 0.06978552 1.3294417 -2.1687293e+38
2.5822384 0.064248309 1.3288102 -2.1555405e+38
2.5822279 0.059692115 1.3288102 -2.1555403e+38
2.5822177 0.055135936 1.3288102 -2.1555405e+38
2.5822072 0.050579771 1.3288102 -2.1689368e+38
2.5821967 0.046023585 1.3288102 -2.168937e+38
2.5821862 0.041467406 1.3288102 -2.1689891e+38
2.5821757 0.036911234 1.3288102 -2.1689889e+38
2.5821655 0.032355048 1.3288102 -2.1822812e+38
2.582155 0.027798869 1.3288102 -2.1822812e+38
2.5821445 0.023242697 1.3288102 -2.1955735e+38
2.5991356 0.019311346 1.3294417 -2.1956256e+38
2.5821235 0.014130339 1.3288102 -2.2355026e+38
2.5821133 0.0095741525 1.3288102 -2.2620874e+38
2.5821028 0.0050179809 1.3288102 -2.2620878e+38
2.5820923 0.00046180189 1.3288102 -2.2621397e+38
2.5820818 -0.0040943846 1.3288102 -2.2356071e+38
2.5820713 -0.0086505562 1.3288102 -2.2091264e+38
2.5820608 -0.013206735 1.3288102 -2.2357631e+38
2.5820506 -0.017762918 1.3288102 -2.2623998e+38
2.5820401 -0.022319097 1.3288102 -2.2756405e+38
2.5990303 -0.02657425 1.3294417 -2.2757446e+38
2.5990198 -0.03116281 1.3294417 -2.3022774e+38
2.6160097 -0.035515107 1.3300731 -2.3290177e+38
2.615999 -0.040136039 1.3300731 -2.3424139e+38
2.6159885 -0.044756986 1.3300731 -2.35581e+38
2.6159778 -0.049377926 1.3300731 -2.3957907e+38
2.6159673 -0.053998865 1.3300731 -2.4223762e+38
2.6159568 -0.058619805 1.3300731 -2.4356176e+38
2.6159461 -0.063240752 1.3300731 -2.4357227e+38
2.7048142 0.31527275 1.3285531 -3.1675767e+38
2.7048032 0.31048417 1.3285531 -2.7147007e+38
2.6867859 0.30301118 1.3279188 -2.260838e+38
2.6867752 0.29825687 1.3279188 -1.8079675e+38
2.6867642 0.29350263 1.3279188 -2.008755e+38
2.6867533 0.28874835 1.3279188 -2.2088138e+38
2.6687367 0.28144678 1.3272845 -2.2353461e+38
2.6687257 0.27672678 1.3272845 -2.2485868e+38
2.668715 0.27200678 1.3272845 -2.2486392e+38
2.6687043 0.26728681 1.3272845 -2.2486909e+38
2.6686933 0.2625668 1.3272845 -2.2221059e+38
2.6686826 0.25784686 1.3272845 -2.1955214e+38
2.633661 0.24857378 1.3260511 -2.1955214e+38
2.6506553 0.24609959 1.3266501 -2.208814e+38
2.6686502 0.24368688 1.3272845 -2.182178e+38
2.6686392 0.23896688 1.3272845 -2.1688334e+38
2.6686285 0.23424691 1.3272845 -2.1688327e+38
2.6686175 0.22952691 1.3272845 -2.1688325e+38
2.6686068 0.22480693 1.3272845 -2.1688323e+38
2.668596 0.22008693 1.3272845 -2.1688323e+38
2.6505802 0.21329966 1.3266501 -2.1555401e+38
2.6505694 0.20861396 1.3266501 -2.1421961e+38
2.6505587 0.20392823 1.3266501 -2.1554885e+38
2.650548 0.19924256 1.3266501 -2.1553847e+38
2.6505373 0.19455683 1.3266501 -2.1554364e+38
2.6505265 0.18987116 1.3266501 -2.1686762e+38
2.6505158 0.18518543 1.3266501 -2.1686236e+38
2.6505051 0.18049975 1.3266501 -2.1685198e+38
2.6504943 0.17581402 1.3266501 -2.1686754e+38
2.6504834 0.17112833 1.3266501 -2.1821234e+38
2.6684768 0.16816707 1.3272845 -2.1687273e+38
2.6504619 0.16175692 1.3266501 -2.1554354e+38
2.6684554 0.15872709 1.3272845 -2.1420395e+38
2.6684444 0.15400711 1.3272845 -2.1419876e+38
2.6684337 0.14928712 1.3272845 -2.1418316e+38
2.6684227 0.14456712 1.3272845 -2.1284872e+38
2.668412 0.13984714 1.3272845 -2.1285389e+38
2.6684012 0.13512716 1.3272845 -2.1285389e+38
2.6683903 0.13040717 1.3272845 -2.1285387e+38
2.6683795 0.12568718 1.3272845 -2.1284866e+38
2.6683688 0.12096719 1.3272845 -2.1551228e+38
2.6503546 0.1148999 1.3266501 -2.1684668e+38
2.6503439 0.11021419 1.3266501 -2.1950512e+38
2.6503332 0.10552849 1.3266501 -2.2216883e+38
2.6333196 0.09966749 1.3260511 -2.2083966e+38
2.6333089 0.09501417 1.3260511 -2.2083968e+38
2.6162956 0.089250281 1.3254521 -2.1952086e+38
2.6162851 0.084629357 1.3254521 -2.1820725e+38
2.5992723 0.078962639 1.3248531 -2.182021e+38
2.5992618 0.07437408 1.3248531 -2.1819171e+38
2.5822489 0.068804488 1.324254 -2.1687287e+38
2.5822384 0.064248309 1.324254 -2.1688325e+38
2.5822279 0.059692115 1.324254 -2.1688325e+38
2.5822177 0.055135936 1.324254 -2.182125e+38
2.5822072 0.050579771 1.324254 -2.1821769e+38
2.5821967 0.046023585 1.324254 -2.1821769e+38
2.5821862 0.041467406 1.324254 -2.1822289e+38
2.5821757 0.036911234 1.324254 -2.1689887e+38
2.5821655 0.032355048 1.324254 -2.1823331e+38
2.582155 0.027798869 1.324254 -2.1823331e+38
2.5991461 0.023899905 1.3248531 -2.1956254e+38
2.582134 0.018686511 1.324254 -2.2089698e+38
2.5821235 0.014130339 1.324254 -2.2355544e+38
2.5821133 0.0095741525 1.324254 -2.2620874e+38
2.5821028 0.0050179809 1.324254 -2.2621397e+38
2.5820923 0.00046180189 1.324254 -2.2621915e+38
2.5820818 -0.0040943846 1.324254 -2.2489509e+38
2.5820713 -0.0086505562 1.324254 -2.2357629e+38
2.5820608 -0.013206735 1.324254 -2.2491073e+38
2.5820506 -0.017762918 1.324254 -2.2624e+38
2.5820401 -0.022319097 1.324254 -2.2756926e+38
2.5990303 -0.02657425 1.3248531 -2.3023813e+38
2.5990198 -0.03116281 1.3248531 -2.3156216e+38
2.6160097 -0.035515107 1.3254521 -2.3423102e+38
2.615999 -0.040136039 1.3254521 -2.3557063e+38
2.6159885 -0.044756986 1.3254521 -2.382343e+38
2.6159778 -0.049377926 1.3254521 -2.4090314e+38
2.6159673 -0.053998865 1.3254521 -2.4490131e+38
2.6159568 -0.058619805 1.3254521 -2.3692085e+38
2.6159461 -0.063240752 1.3254521 -2.2896108e+38
2.7048142 0.31527275 1.3237644 -3.154541e+38
2.7048032 0.31048417 1.3237644 -2.6880097e+38
2.6867859 0.30301118 1.3231645 -2.2740244e+38
2.6867752 0.29825687 1.3231645 -1.8486218e+38
2.6867642 0.29350263 1.3231645 -2.0226179e+38
2.6867533 0.28874835 1.3231645 -2.1954173e+38
2.6687367 0.28144678 1.3225645 -2.2220017e+38
2.6687257 0.27672678 1.3225645 -2.2486383e+38
2.668715 0.27200678 1.3225645 -2.2486905e+38
2.6687043 0.26728681 1.3225645 -2.2353461e+38
2.6686933 0.2625668 1.3225645 -2.2087096e+38
2.6686826 0.25784686 1.3225645 -2.1689366e+38
2.650666 0.25078526 1.3219645 -2.182281e+38
2.6506553 0.24609959 1.3219645 -2.1954694e+38
2.6686502 0.24368688 1.3225645 -2.1953139e+38
2.6686392 0.23896688 1.3225645 -2.1821252e+38
2.6686285 0.23424691 1.3225645 -2.1687808e+38
2.6686175 0.22952691 1.3225645 -2.1554887e+38
2.6686068 0.22480693 1.3225645 -2.1687293e+38
2.668596 0.22008693 1.3225645 -2.1687812e+38
2.6685851 0.21536693 1.3225645 -2.1555411e+38
2.6505694 0.20861396 1.3219645 -2.1421969e+38
2.6505587 0.20392823 1.3219645 -2.1554372e+38
2.650548 0.19924256 1.3219645 -2.1554889e+38
2.6505373 0.19455683 1.3219645 -2.1554887e+38
2.6505265 0.18987116 1.3219645 -2.1553843e+38
2.6505158 0.18518543 1.3219645 -2.168624e+38
2.6505051 0.18049975 1.3219645 -2.1686236e+38
2.6504943 0.17581402 1.3219645 -2.1820194e+38
2.6504834 0.17112833 1.3219645 -2.1953116e+38
2.6684768 0.16816707 1.3225645 -2.1819155e+38
2.6504619 0.16175692 1.3219645 -2.1686754e+38
2.6684554 0.15872709 1.3225645 -2.1686238e+38
2.6684444 0.15400711 1.3225645 -2.155176e+38
2.6684337 0.14928712 1.3225645 -2.1550202e+38
2.6864264 0.14612015 1.3231645 -2.1417797e+38
2.6864154 0.14136587 1.3231645 -2.1417273e+38
2.6864045 0.13661161 1.3231645 -2.1418312e+38
2.6863937 0.13185734 1.3231645 -2.1418833e+38
2.6683795 0.12568718 1.3225645 -2.1417793e+38
2.6683688 0.12096719 1.3225645 -2.1550713e+38
2.6683578 0.11624719 1.3225645 -2.155123e+38
2.6503439 0.11021419 1.3219645 -2.1684153e+38
2.6503332 0.10552849 1.3219645 -2.1817597e+38
2.6333196 0.09966749 1.3213978 -2.1684677e+38
2.6333089 0.09501417 1.3213978 -2.1553316e+38
2.6162956 0.089250281 1.3208312 -2.1687281e+38
2.6162851 0.084629357 1.3208312 -2.1687283e+38
2.6162746 0.080008417 1.3208312 -2.182021e+38
2.5992618 0.07437408 1.3202645 -2.1953133e+38
2.5992513 0.06978552 1.3202645 -2.1820212e+38
2.5992408 0.065196946 1.3202645 -2.1688327e+38
2.5992303 0.060608387 1.3202645 -2.182125e+38
2.5822177 0.055135936 1.3196979 -2.1954692e+38
2.5992091 0.051431261 1.3202645 -2.1954692e+38
2.5821967 0.046023585 1.3196979 -2.1954692e+38
2.5821862 0.041467406 1.3196979 -2.1822289e+38
2.5821757 0.036911234 1.3196979 -2.1689887e+38
2.5821655 0.032355048 1.3196979 -2.1823329e+38
2.582155 0.027798869 1.3196979 -2.1823331e+38
2.5821445 0.023242697 1.3196979 -2.1956773e+38
2.582134 0.018686511 1.3196979 -2.2089698e+38
2.5821235 0.014130339 1.3196979 -2.2355546e+38
2.5821133 0.0095741525 1.3196979 -2.2488471e+38
2.5821028 0.0050179809 1.3196979 -2.2488473e+38
2.5820923 0.00046180189 1.3196979 -2.2488992e+38
2.5820818 -0.0040943846 1.3196979 -2.2489513e+38
2.5820713 -0.0086505562 1.3196979 -2.2490554e+38
2.5820608 -0.013206735 1.3196979 -2.2623998e+38
2.5820506 -0.017762918 1.3196979 -2.262348e+38
2.5990407 -0.021985691 1.3202645 -2.2888809e+38
2.5990303 -0.02657425 1.3202645 -2.3155693e+38
2.5990198 -0.03116281 1.3202645 -2.3421019e+38
2.6160097 -0.035515107 1.3208312 -2.3556021e+38
2.615999 -0.040136039 1.3208312 -2.3823426e+38
2.6159885 -0.044756986 1.3208312 -2.3956351e+38
2.6159778 -0.049377926 1.3208312 -2.4355643e+38
2.6159673 -0.053998865 1.3208312 -2.4622012e+38
2.6159568 -0.058619805 1.3208312 -2.3025386e+38
2.6159461 -0.063240752 1.3208312 -2.1427723e+38
2.7048142 0.31527275 1.3189759 -2.941498e+38
2.7048032 0.31048417 1.3189759 -2.475746e+38
2.6867859 0.30301118 1.3184102 -2.2348203e+38
2.6867752 0.29825687 1.3184102 -1.99442e+38
2.6867642 0.29350263 1.3184102 -2.0886113e+38
2.6867533 0.28874835 1.3184102 -2.1686766e+38
2.6687367 0.28144678 1.3178445 -2.208709e+38
2.6687257 0.27672678 1.3178445 -2.2353455e+38
2.668715 0.27200678 1.3178445 -2.2220532e+38
2.6687043 0.26728681 1.3178445 -2.2220015e+38
2.6506877 0.26015669 1.3172787 -2.1955207e+38
2.6506767 0.25547099 1.3172787 -2.1690402e+38
2.650666 0.25078526 1.3172787 -2.1689885e+38
2.6506553 0.24609959 1.3172787 -2.1689366e+38
2.6686502 0.24368688 1.3178445 -2.1688845e+38
2.6686392 0.23896688 1.3178445 -2.1689364e+38
2.6686285 0.23424691 1.3178445 -2.1688325e+38
2.6686175 0.22952691 1.3178445 -2.1555411e+38
2.6686068 0.22480693 1.3178445 -2.1554898e+38
2.668596 0.22008693 1.3178445 -2.1687303e+38
2.6505802 0.21329966 1.3172787 -2.15549e+38
2.6505694 0.20861396 1.3172787 -2.155438e+38
2.6505587 0.20392823 1.3172787 -2.1554898e+38
2.650548 0.19924256 1.3172787 -2.1555413e+38
2.6505373 0.19455683 1.3172787 -2.1554889e+38
2.6505265 0.18987116 1.3172787 -2.1553326e+38
2.6505158 0.18518543 1.3172787 -2.1686762e+38
2.6505051 0.18049975 1.3172787 -2.1952601e+38
2.6504943 0.17581402 1.3172787 -2.1952593e+38
2.6504834 0.17112833 1.3172787 -2.2084997e+38
2.6684768 0.16816707 1.3178445 -2.1952074e+38
2.6504619 0.16175692 1.3172787 -2.1819155e+38
2.6684554 0.15872709 1.3178445 -2.1685717e+38
2.6684444 0.15400711 1.3178445 -2.1551241e+38
2.6684337 0.14928712 1.3178445 -2.1551243e+38
2.6864264 0.14612015 1.3184102 -2.1418835e+38
2.6864154 0.14136587 1.3184102 -2.1285389e+38
2.6864045 0.13661161 1.3184102 -2.1285391e+38
2.6863937 0.13185734 1.3184102 -2.1284874e+38
2.6683795 0.12568718 1.3178445 -2.1284353e+38
2.6683688 0.12096719 1.3178445 -2.128487e+38
2.6683578 0.11624719 1.3178445 -2.1418312e+38
2.6503439 0.11021419 1.3172787 -2.1551235e+38
2.6503332 0.10552849 1.3172787 -2.1684677e+38
2.6503224 0.10084279 1.3172787 -2.155279e+38
2.6333089 0.09501417 1.3167444 -2.1554873e+38
2.6332982 0.09036085 1.3167444 -2.1687281e+38
2.6162851 0.084629357 1.3162102 -2.1819686e+38
2.6162746 0.080008417 1.3162102 -2.1953131e+38
2.6162639 0.075387478 1.3162102 -2.2086055e+38
2.5992513 0.06978552 1.315676 -2.1954173e+38
2.5992408 0.065196946 1.315676 -2.1688847e+38
2.5992303 0.060608387 1.315676 -2.1821769e+38
2.5992196 0.056019828 1.315676 -2.1954692e+38
2.5992091 0.051431261 1.315676 -2.2087615e+38
2.5821967 0.046023585 1.3151417 -2.2087096e+38
2.5821862 0.041467406 1.3151417 -2.1955211e+38
2.5821757 0.036911234 1.3151417 -2.1822289e+38
2.5821655 0.032355048 1.3151417 -2.1955731e+38
2.582155 0.027798869 1.3151417 -2.1956252e+38
2.5821445 0.023242697 1.3151417 -2.2089177e+38
2.582134 0.018686511 1.3151417 -2.2089698e+38
2.5821235 0.014130339 1.3151417 -2.2222623e+38
2.5821133 0.0095741525 1.3151417 -2.2356065e+38
2.5821028 0.0050179809 1.3151417 -2.2488988e+38
2.5820923 0.00046180189 1.3151417 -2.2754837e+38
2.5820818 -0.0040943846 1.3151417 -2.2755361e+38
2.5820713 -0.0086505562 1.3151417 -2.2755882e+38
2.5820608 -0.013206735 1.3151417 -2.2755884e+38
2.5990515 -0.017397128 1.315676 -2.2755884e+38
2.5990407 -0.021985691 1.315676 -2.3022249e+38
2.5990303 -0.02657425 1.315676 -2.3289131e+38
2.5990198 -0.03116281 1.315676 -2.3422052e+38
2.6160097 -0.035515107 1.3162102 -2.3557055e+38
2.615999 -0.040136039 1.3162102 -2.3822903e+38
2.6159885 -0.044756986 1.3162102 -2.4089274e+38
2.6159778 -0.049377926 1.3162102 -2.462201e+38
2.6159673 -0.053998865 1.3162102 -2.5154739e+38
2.6159568 -0.058619805 1.3162102 -2.3689471e+38
2.5989461 -0.063282728 1.315676 -2.2222657e+38
2.7048142 0.31527275 1.3141873 -2.7269533e+38
2.7048032 0.31048417 1.3141873 -2.2486367e+38
2.6867859 0.30301118 1.313656 -2.1949979e+38
2.6867752 0.29825687 1.313656 -2.141571e+38
2.6867642 0.29350263 1.313656 -2.142092e+38
2.6867533 0.28874835 1.313656 -2.1421959e+38
2.6687367 0.28144678 1.3131245 -2.1821763e+38
2.6687257 0.27672678 1.3131245 -2.2220532e+38
2.668715 0.27200678 1.3131245 -2.2087609e+38
2.6506984 0.26484239 1.3125931 -2.195469e+38
2.6506877 0.26015669 1.3125931 -2.1822289e+38
2.6506767 0.25547099 1.3125931 -2.1556447e+38
2.650666 0.25078526 1.3125931 -2.155593e+38
2.6506553 0.24609959 1.3125931 -2.1423007e+38
2.6686502 0.24368688 1.3131245 -2.1555928e+38
2.6686392 0.23896688 1.3131245 -2.1555409e+38
2.6686285 0.23424691 1.3131245 -2.1554368e+38
2.6686175 0.22952691 1.3131245 -2.1554891e+38
2.6686068 0.22480693 1.3131245 -2.1555415e+38
2.668596 0.22008693 1.3131245 -2.1554896e+38
2.6685851 0.21536693 1.3131245 -2.1554378e+38
2.6505694 0.20861396 1.3125931 -2.1554894e+38
2.6505587 0.20392823 1.3125931 -2.1554372e+38
2.650548 0.19924256 1.3125931 -2.1422484e+38
2.6505373 0.19455683 1.3125931 -2.1555405e+38
2.6505265 0.18987116 1.3125931 -2.1554881e+38
2.6505158 0.18518543 1.3125931 -2.1820204e+38
2.6505051 0.18049975 1.3125931 -2.2085524e+38
2.6504943 0.17581402 1.3125931 -2.2084999e+38
2.6504834 0.17112833 1.3125931 -2.2084997e+38
2.6684768 0.16816707 1.3131245 -2.2084995e+38
2.6684661 0.16344708 1.3131245 -2.1951553e+38
2.6864591 0.16038297 1.313656 -2.1818113e+38
2.6864481 0.1556287 1.313656 -2.1552273e+38
2.6684337 0.14928712 1.3131245 -2.1552277e+38
2.6864264 0.14612015 1.313656 -2.1418835e+38
2.6864154 0.14136587 1.313656 -2.1285395e+38
2.6864045 0.13661161 1.313656 -2.1019028e+38
2.6863937 0.13185734 1.313656 -2.1018507e+38
2.6683795 0.12568718 1.3131245 -2.1018507e+38
2.6683688 0.12096719 1.3131245 -2.115143e+38
2.6503546 0.1148999 1.3125931 -2.1284355e+38
2.6503439 0.11021419 1.3125931 -2.141676e+38
2.6503332 0.10552849 1.3125931 -2.1418833e+38
2.6503224 0.10084279 1.3125931 -2.1552273e+38
2.6333089 0.09501417 1.3120911 -2.1553835e+38
2.6332982 0.09036085 1.3120911 -2.1820725e+38
2.6162851 0.084629357 1.3115892 -2.1953652e+38
2.6162746 0.080008417 1.3115892 -2.2087098e+38
2.6162639 0.075387478 1.3115892 -2.2220023e+38
2.6162534 0.070766523 1.3115892 -2.195522e+38
2.5992408 0.065196946 1.3110874 -2.1689372e+38
2.5992303 0.060608387 1.3110874 -2.1822293e+38
2.5992196 0.056019828 1.3110874 -2.1954692e+38
2.5992091 0.051431261 1.3110874 -2.2087094e+38
2.5821967 0.046023585 1.3105855 -2.2220536e+38
2.5821862 0.041467406 1.3105855 -2.2088132e+38
2.5821757 0.036911234 1.3105855 -2.1955209e+38
2.5821655 0.032355048 1.3105855 -2.2088651e+38
2.582155 0.027798869 1.3105855 -2.2088656e+38
2.5821445 0.023242697 1.3105855 -2.2088658e+38
2.5991356 0.019311346 1.3110874 -2.2089698e+38
2.5991249 0.014722794 1.3110874 -2.2222625e+38
2.5991144 0.010134228 1.3110874 -2.2223142e+38
2.5991039 0.0055456683 1.3110874 -2.2621391e+38
2.5990934 0.00095710903 1.3110874 -2.2887758e+38
2.5820818 -0.0040943846 1.3105855 -2.288776e+38
2.5820713 -0.0086505562 1.3105855 -2.2888281e+38
2.5820608 -0.013206735 1.3105855 -2.2888283e+38
2.5820506 -0.017762918 1.3105855 -2.275588e+38
2.5990407 -0.021985691 1.3110874 -2.3022245e+38
2.5990303 -0.02657425 1.3110874 -2.328861e+38
2.5990198 -0.03116281 1.3110874 -2.3421532e+38
2.6160097 -0.035515107 1.3115892 -2.3555496e+38
2.615999 -0.040136039 1.3115892 -2.3953749e+38
2.6159885 -0.044756986 1.3115892 -2.4221677e+38
2.6159778 -0.049377926 1.3115892 -2.4888376e+38
2.6159673 -0.053998865 1.3115892 -2.5552988e+38
2.6159568 -0.058619805 1.3115892 -2.4355643e+38
2.5989461 -0.063282728 1.3110874 -2.3022271e+38
2.5989356 -0.067871287 1.3110874 -3.0600441e+38
2.7228315 0.32284859 1.3098959 -2.6353123e+38
2.7228205 0.31802574 1.3098959 -2.4214396e+38
2.7048032 0.31048417 1.3093988 -2.2083461e+38
2.7047923 0.30569559 1.3093988 -2.1816561e+38
2.6867752 0.29825687 1.3089017 -2.1550721e+38
2.6867642 0.29350263 1.3089017 -2.1554362e+38
2.6867533 0.28874835 1.3089017 -2.155592e+38
2.6687367 0.28144678 1.3084044 -2.1821763e+38
2.6687257 0.27672678 1.3084044 -2.2087609e+38
2.668715 0.27200678 1.3084044 -2.208709e+38
2.6687043 0.26728681 1.3084044 -2.1954173e+38
2.6506877 0.26015669 1.3079073 -2.1821774e+38
2.6506767 0.25547099 1.3079073 -2.1688336e+38
2.650666 0.25078526 1.3079073 -2.168834e+38
2.6506553 0.24609959 1.3079073 -2.1555417e+38
2.6506445 0.24141386 1.3079073 -2.1688338e+38
2.6686392 0.23896688 1.3084044 -2.1688336e+38
2.6686285 0.23424691 1.3084044 -2.1820737e+38
2.6686175 0.22952691 1.3084044 -2.1820737e+38
2.6686068 0.22480693 1.3084044 -2.1688334e+38
2.668596 0.22008693 1.3084044 -2.1688336e+38
2.6505802 0.21329966 1.3079073 -2.1688338e+38
2.6505694 0.20861396 1.3079073 -2.1688331e+38
2.6505587 0.20392823 1.3079073 -2.1555922e+38
2.650548 0.19924256 1.3079073 -2.1423518e+38
2.6505373 0.19455683 1.3079073 -2.1422997e+38
2.6505265 0.18987116 1.3079073 -2.1555399e+38
2.6505158 0.18518543 1.3079073 -2.1687281e+38
2.6685095 0.18232703 1.3084044 -2.181968e+38
2.6684985 0.17760706 1.3084044 -2.1819674e+38
2.6684878 0.17288706 1.3084044 -2.1952074e+38
2.6684768 0.16816707 1.3084044 -2.1951548e+38
2.6684661 0.16344708 1.3084044 -2.1951029e+38
2.6864591 0.16038297 1.3089017 -2.1685182e+38
2.6864481 0.1556287 1.3089017 -2.1552786e+38
2.6864374 0.15087442 1.3089017 -2.1418831e+38
2.6864264 0.14612015 1.3089017 -2.1284876e+38
2.6864154 0.14136587 1.3089017 -2.1151957e+38
2.6864045 0.13661161 1.3089017 -2.1151953e+38
2.6863937 0.13185734 1.3089017 -2.1019024e+38
2.6683795 0.12568718 1.3084044 -2.0886103e+38
2.6683688 0.12096719 1.3084044 -2.0885586e+38
2.6683578 0.11624719 1.3084044 -2.088559e+38
2.6503439 0.11021419 1.3079073 -2.1151957e+38
2.6503332 0.10552849 1.3079073 -2.1286953e+38
2.6503224 0.10084279 1.3079073 -2.1419871e+38
2.6333089 0.09501417 1.3074378 -2.168676e+38
2.6332982 0.09036085 1.3074378 -2.1820725e+38
2.6162851 0.084629357 1.3069683 -2.1954694e+38
2.6162746 0.080008417 1.3069683 -2.2087104e+38
2.6162639 0.075387478 1.3069683 -2.2220031e+38
2.6162534 0.070766523 1.3069683 -2.1954706e+38
2.6162426 0.066145584 1.3069683 -2.182178e+38
2.6162322 0.061524644 1.3069683 -2.1821776e+38
2.5992196 0.056019828 1.3064988 -2.1822291e+38
2.5992091 0.051431261 1.3064988 -2.1955207e+38
2.5821967 0.046023585 1.3060292 -2.1955727e+38
2.5991881 0.04225415 1.3064988 -2.2088649e+38
2.5821757 0.036911234 1.3060292 -2.208813e+38
2.5821655 0.032355048 1.3060292 -2.2221572e+38
2.582155 0.027798869 1.3060292 -2.2221576e+38
2.5821445 0.023242697 1.3060292 -2.2222619e+38
2.582134 0.018686511 1.3060292 -2.2223142e+38
2.5821235 0.014130339 1.3060292 -2.2356067e+38
2.5991144 0.010134228 1.3064988 -2.2489509e+38
2.5991039 0.0055456683 1.3064988 -2.2754833e+38
2.5990934 0.00095710903 1.3064988 -2.3020679e+38
2.5820818 -0.0040943846 1.3060292 -2.2887756e+38
2.5820713 -0.0086505562 1.3060292 -2.2754835e+38
2.5820608 -0.013206735 1.3060292 -2.2755357e+38
2.5820506 -0.017762918 1.3060292 -2.2755876e+38
2.5990407 -0.021985691 1.3064988 -2.3021721e+38
2.5990303 -0.02657425 1.3064988 -2.3287569e+38
2.5990198 -0.03116281 1.3064988 -2.3421013e+38
2.6160097 -0.035515107 1.3069683 -2.3687899e+38
2.615999 -0.040136039 1.3069683 -2.3954266e+38
2.6159885 -0.044756986 1.3069683 -2.43546e+38
2.6329782 -0.049238805 1.3074378 -2.5020261e+38
2.6159673 -0.053998865 1.3069683 -2.5554027e+38
2.6159568 -0.058619805 1.3069683 -2.2889855e+38
2.6159461 -0.063240752 1.3069683 -2.0359144e+38
2.6159356 -0.067861691 1.3069683 -3.0623808e+38
2.7418272 0.32093167 1.3055617 -2.1150941e+38
2.7228093 0.31320292 1.305073 -2.1684176e+38
2.7047923 0.30569559 1.3046103 -2.1682606e+38
2.7047813 0.30090708 1.3046103 -2.1552798e+38
2.6867642 0.29350263 1.3041474 -2.1555916e+38
2.6867533 0.28874835 1.3041474 -2.1555399e+38
2.6867425 0.28399405 1.3041474 -2.1821246e+38
2.6687257 0.27672678 1.3036845 -2.1954169e+38
2.668715 0.27200678 1.3036845 -2.195365e+38
2.6687043 0.26728681 1.3036845 -2.1954171e+38
2.6506877 0.26015669 1.3032216 -2.1954694e+38
2.6506767 0.25547099 1.3032216 -2.1821256e+38
2.650666 0.25078526 1.3032216 -2.1821262e+38
2.6506553 0.24609959 1.3032216 -2.168834e+38
2.6506445 0.24141386 1.3032216 -2.1821264e+38
2.6686392 0.23896688 1.3036845 -2.1820745e+38
2.6686285 0.23424691 1.3036845 -2.1953668e+38
2.6686175 0.22952691 1.3036845 -2.2086587e+38
2.6686068 0.22480693 1.3036845 -2.1954181e+38
2.668596 0.22008693 1.3036845 -2.1688334e+38
2.6685851 0.21536693 1.3036845 -2.1688334e+38
2.6685743 0.21064696 1.3036845 -2.1688849e+38
2.6505587 0.20392823 1.3032216 -2.1556441e+38
2.650548 0.19924256 1.3032216 -2.1422997e+38
2.6685419 0.19648698 1.3036845 -2.1422478e+38
2.6505265 0.18987116 1.3032216 -2.1421437e+38
2.6685202 0.18704703 1.3036845 -2.1420395e+38
2.6685095 0.18232703 1.3036845 -2.1420912e+38
2.6684985 0.17760706 1.3036845 -2.1686754e+38
2.6684878 0.17288706 1.3036845 -2.1819151e+38
2.6864808 0.16989152 1.3041474 -2.1818628e+38
2.6684661 0.16344708 1.3036845 -2.1818626e+38
2.6864591 0.16038297 1.3041474 -2.1685184e+38
2.6864481 0.1556287 1.3041474 -2.155175e+38
2.6864374 0.15087442 1.3041474 -2.1418316e+38
2.6864264 0.14612015 1.3041474 -2.1151947e+38
2.6864154 0.14136587 1.3041474 -2.1151943e+38
2.6864045 0.13661161 1.3041474 -2.115142e+38
2.6863937 0.13185734 1.3041474 -2.088557e+38
2.6683795 0.12568718 1.3036845 -2.0619209e+38
2.6683688 0.12096719 1.3036845 -2.0619732e+38
2.6683578 0.11624719 1.3036845 -2.0486814e+38
2.6683471 0.1115272 1.3036845 -2.0886107e+38
2.6503332 0.10552849 1.3032216 -2.1153511e+38
2.6503224 0.10084279 1.3032216 -2.1419354e+38
2.6333089 0.09501417 1.3027844 -2.1687281e+38
2.6332982 0.09036085 1.3027844 -2.1821244e+38
2.6332877 0.08570753 1.3027844 -2.1954173e+38
2.6162746 0.080008417 1.3023473 -2.20871e+38
2.6162639 0.075387478 1.3023473 -2.2220025e+38
2.6162534 0.070766523 1.3023473 -2.2087104e+38
2.6162426 0.066145584 1.3023473 -2.1821774e+38
2.6162322 0.061524644 1.3023473 -2.1821252e+38
2.6162214 0.056903705 1.3023473 -2.1689362e+38
2.5992091 0.051431261 1.3019102 -2.1689877e+38
2.5991986 0.046842702 1.3019102 -2.1689879e+38
2.5991881 0.04225415 1.3019102 -2.1955727e+38
2.5991776 0.037665583 1.3019102 -2.2221574e+38
2.5821655 0.032355048 1.301473 -2.2355018e+38
2.5991566 0.028488472 1.3019102 -2.2355542e+38
2.5821445 0.023242697 1.301473 -2.2356065e+38
2.5991356 0.019311346 1.3019102 -2.2223142e+38
2.5991249 0.014722794 1.3019102 -2.248899e+38
2.5991144 0.010134228 1.3019102 -2.2621913e+38
