# .PCD v0.7 - Point Cloud Data file format
VERSION 0.7
FIELDS x y z rgb
SIZE 4 4 4 4
TYPE F F F F
COUNT 1 1 1 1
WIDTH 1032
HEIGHT 1
VIEWPOINT 0 0 0 1 0 0 0
POINTS 1032
DATA ascii
2.6681716 -0.020627249 1.8889645 -2.2355045e+38
2.6681609 -0.02534724 1.8889645 -2.2356087e+38
2.6681499 -0.030067228 1.8889645 -2.2356611e+38
2.6501384 -0.035037376 1.8842502 -2.2357649e+38
2.6501276 -0.039723076 1.8842502 -2.2491091e+38
2.6501169 -0.04440878 1.8842502 -2.2491604e+38
2.6501062 -0.049094483 1.8842502 -2.2757965e+38
2.6500955 -0.053780187 1.8842502 -2.2889851e+38
2.6500847 -0.058465887 1.8842502 -2.2889334e+38
2.650074 -0.063151591 1.8842502 -2.2888819e+38
2.6330631 -0.067846887 1.8797979 -2.2624533e+38
2.6330523 -0.072500214 1.8797979 -2.2357655e+38
2.6500416 -0.077208698 1.8842502 -2.2223181e+38
2.6500309 -0.081894398 1.8842502 -2.1956291e+38
2.6500201 -0.086580098 1.8842502 -2.2087652e+38
2.6500094 -0.091265805 1.8842502 -2.2087643e+38
2.6499987 -0.095951505 1.8842502 -2.1953157e+38
2.6499879 -0.10063721 1.8842502 -2.1688346e+38
2.6679769 -0.10558704 1.8889645 -2.1688863e+38
2.6499665 -0.11000861 1.8842502 -2.1554902e+38
2.6679552 -0.11502701 1.8889645 -2.1685745e+38
2.6679444 -0.119747 1.8889645 -2.1819707e+38
2.6499343 -0.12406571 1.8842502 -2.1553342e+38
2.6499236 -0.12875143 1.8842502 -2.1288016e+38
2.6499128 -0.13343713 1.8842502 -2.1287498e+38
2.6499021 -0.13812283 1.8842502 -2.1288016e+38
2.6498914 -0.14280853 1.8842502 -2.1288014e+38
2.6498806 -0.14749423 1.8842502 -2.1288533e+38
2.6498699 -0.15217993 1.8842502 -2.1289052e+38
2.6498592 -0.15686563 1.8842502 -2.1289052e+38
2.6498482 -0.16155133 1.8842502 -2.1289052e+38
2.6498375 -0.16623704 1.8842502 -2.128905e+38
2.6498268 -0.17092274 1.8842502 -2.128905e+38
2.649816 -0.17560846 1.8842502 -2.1289052e+38
2.6498053 -0.18029416 1.8842502 -2.1289573e+38
2.6497946 -0.18497986 1.8842502 -2.1289577e+38
2.6327858 -0.18883325 1.8797979 -2.1290101e+38
2.6327751 -0.19348657 1.8797979 -2.1158218e+38
2.6327643 -0.19813989 1.8797979 -2.1158737e+38
2.6327538 -0.2027932 1.8797979 -2.115978e+38
2.6157453 -0.20648471 1.8753455 -2.1691994e+38
2.6157346 -0.21110564 1.8753455 -2.2225247e+38
2.6157241 -0.21572658 1.8753455 -2.2624539e+38
2.6157134 -0.22034752 1.8753455 -2.3024348e+38
2.6157029 -0.22496848 1.8753455 -2.3157273e+38
2.6156921 -0.22958942 1.8753455 -2.3291236e+38
2.6156816 -0.23421036 1.8753455 -2.3557084e+38
2.6156712 -0.23883128 1.8753455 -2.3691055e+38
2.6155863 -0.27579883 1.8753455 -2.6243223e+38
2.6155758 -0.28041977 1.8753455 -2.7704366e+38
2.6155651 -0.28504068 1.8753455 -2.9059641e+38
2.6325405 -0.29585963 1.8797979 nan
2.6495261 -0.30212241 1.8842502 nan
2.6495154 -0.30680811 1.8842502 nan
3.0834692 0.10874195 1.9921446 nan
3.0834565 0.10323147 1.9921446 nan
3.0594406 0.096336067 1.9859045 nan
2.7993941 0.07636264 1.9183044 -2.385057e+38
2.7993829 0.071393132 1.9183044 -2.3960519e+38
2.7993715 0.066423625 1.9183044 -2.4090882e+38
2.7793579 0.060452342 1.9131045 -2.4503185e+38
2.7793467 0.055520944 1.9131045 -2.5050993e+38
2.7793353 0.050589524 1.9131045 -2.5841798e+38
2.7793241 0.045658104 1.9131045 -2.676238e+38
2.7603106 0.039919779 1.9081645 -2.648977e+38
2.7412975 0.034253821 1.9032245 -2.6222351e+38
2.7412865 0.029394783 1.9032245 -2.5555124e+38
2.7222736 0.02383741 1.8982846 -2.4888938e+38
2.7222624 0.019014567 1.8982846 -2.4355675e+38
2.7222514 0.014191724 1.8982846 -2.3821378e+38
2.7042391 0.0088101402 1.8936045 -2.3553964e+38
2.7042282 0.0040215775 1.8936045 -2.3285516e+38
2.7042172 -0.00076697767 1.8936045 -2.2886221e+38
2.7042062 -0.0055555329 1.8936045 -2.2620371e+38
2.6861942 -0.010765687 1.8889246 -2.2354521e+38
2.6681824 -0.015907265 1.8842444 -2.2222639e+38
2.6681716 -0.020627249 1.8842444 -2.2223158e+38
2.6681609 -0.02534724 1.8842444 -2.2091799e+38
2.6501491 -0.030351672 1.8795645 -2.2224726e+38
2.6501384 -0.035037376 1.8795645 -2.2224726e+38
2.6501276 -0.039723076 1.8795645 -2.2358168e+38
2.6501169 -0.04440878 1.8795645 -2.2491604e+38
2.6501062 -0.049094483 1.8795645 -2.2623482e+38
2.6500955 -0.053780187 1.8795645 -2.275589e+38
2.6500847 -0.058465887 1.8795645 -2.2754854e+38
2.650074 -0.063151591 1.8795645 -2.2754334e+38
2.6330631 -0.067846887 1.8751445 -2.2488487e+38
2.6330523 -0.072500214 1.8751445 -2.2354012e+38
2.6500416 -0.077208698 1.8795645 -2.2088173e+38
2.6500309 -0.081894398 1.8795645 -2.1821281e+38
2.6500201 -0.086580098 1.8795645 -2.168835e+38
2.6500094 -0.091265805 1.8795645 -2.1555423e+38
2.6499987 -0.095951505 1.8795645 -2.1288535e+38
2.6499879 -0.10063721 1.8795645 -2.1022689e+38
2.6499772 -0.10532291 1.8795645 -2.1023208e+38
2.6499665 -0.11000861 1.8795645 -2.1155612e+38
2.6679552 -0.11502701 1.8842444 -2.1154573e+38
2.6679444 -0.119747 1.8842444 -2.1020614e+38
2.6499343 -0.12406571 1.8795645 -2.0888732e+38
2.6499236 -0.12875143 1.8795645 -2.0622884e+38
2.6499128 -0.13343713 1.8795645 -2.0755805e+38
2.6499021 -0.13812283 1.8795645 -2.0755803e+38
2.6498914 -0.14280853 1.8795645 -2.1021647e+38
2.6498806 -0.14749423 1.8795645 -2.1288009e+38
2.6498699 -0.15217993 1.8795645 -2.1022681e+38
2.6498592 -0.15686563 1.8795645 -2.0889762e+38
2.6498482 -0.16155133 1.8795645 -2.1023208e+38
2.6498375 -0.16623704 1.8795645 -2.1156131e+38
2.6498268 -0.17092274 1.8795645 -2.1156129e+38
2.649816 -0.17560846 1.8795645 -2.102321e+38
2.6498053 -0.18029416 1.8795645 -2.1023214e+38
2.6497946 -0.18497986 1.8795645 -2.1023217e+38
2.6327858 -0.18883325 1.8751445 -2.0891334e+38
2.6327751 -0.19348657 1.8751445 -2.0892377e+38
2.6327643 -0.19813989 1.8751445 -2.102634e+38
2.6327538 -0.2027932 1.8751445 -2.1160301e+38
2.6157453 -0.20648471 1.8707244 -2.1692512e+38
2.6157346 -0.21110564 1.8707244 -2.2358687e+38
2.6157241 -0.21572658 1.8707244 -2.2625056e+38
2.6157134 -0.22034752 1.8707244 -2.289194e+38
2.6157029 -0.22496848 1.8707244 -2.3024863e+38
2.6156921 -0.22958942 1.8707244 -2.3291751e+38
2.6156816 -0.23421036 1.8707244 -2.3425195e+38
2.6156712 -0.23883128 1.8707244 -2.3692096e+38
2.6156604 -0.24345222 1.8707244 -2.3958475e+38
2.6156499 -0.24807318 1.8707244 -2.4092454e+38
2.6155863 -0.27579883 1.8707244 -2.7307656e+38
2.6155758 -0.28041977 1.8707244 -2.6110882e+38
2.6155651 -0.28504068 1.8707244 -2.5064184e+38
2.632551 -0.2912063 1.8751445 nan
2.6155438 -0.29428256 1.8707244 nan
2.6495261 -0.30212241 1.8795645 nan
2.6495154 -0.30680811 1.8795645 nan
2.6495047 -0.31149381 1.8795645 nan
3.0834818 0.11425242 1.986634 nan
3.0834692 0.10874195 1.986634 nan
3.0834565 0.10323147 1.986634 nan
3.0594406 0.096336067 1.9804398 -3.2468761e+38
2.7993941 0.07636264 1.9133351 -1.8109397e+38
2.7993829 0.071393132 1.9133351 -2.1167595e+38
2.7993715 0.066423625 1.9133351 -2.4097638e+38
2.79936 0.061454117 1.9133351 -2.4371822e+38
2.7793467 0.055520944 1.9081731 -2.4644442e+38
2.7793353 0.050589524 1.9081731 -2.4908756e+38
2.7793241 0.045658104 1.9081731 -2.5166785e+38
2.7603106 0.039919779 1.9032693 -2.5424295e+38
2.7412975 0.034253821 1.8983655 -2.568857e+38
2.7412865 0.029394783 1.8983655 -2.5287713e+38
2.7222736 0.02383741 1.8934617 -2.475445e+38
2.7222624 0.019014567 1.8934617 -2.4221706e+38
2.7222514 0.014191724 1.8934617 -2.3554486e+38
2.7042391 0.0088101402 1.8888159 -2.3552398e+38
2.7042282 0.0040215775 1.8888159 -2.3418429e+38
2.7042172 -0.00076697767 1.8888159 -2.3019135e+38
2.7042062 -0.0055555329 1.8888159 -2.2620363e+38
2.6861942 -0.010765687 1.8841703 -2.2354513e+38
2.6681824 -0.015907265 1.8795245 -2.2089708e+38
2.6681716 -0.020627249 1.8795245 -2.1957826e+38
2.6681609 -0.02534724 1.8795245 -2.182543e+38
2.6501491 -0.030351672 1.8748789 -2.1958881e+38
2.6501384 -0.035037376 1.8748789 -2.2091286e+38
2.6501276 -0.039723076 1.8748789 -2.2357653e+38
2.6501169 -0.04440878 1.8748789 -2.2490051e+38
2.6501062 -0.049094483 1.8748789 -2.2489006e+38
2.6500955 -0.053780187 1.8748789 -2.2488485e+38
2.6500847 -0.058465887 1.8748789 -2.2487446e+38
2.650074 -0.063151591 1.8748789 -2.2486925e+38
2.6330631 -0.067846887 1.8704913 -2.2352962e+38
2.6330523 -0.072500214 1.8704913 -2.2219522e+38
2.6500416 -0.077208698 1.8748789 -2.1954199e+38
2.6500309 -0.081894398 1.8748789 -2.1554388e+38
2.6500201 -0.086580098 1.8748789 -2.128802e+38
2.6500094 -0.091265805 1.8748789 -2.0889249e+38
2.6499987 -0.095951505 1.8748789 -2.0622884e+38
2.6499879 -0.10063721 1.8748789 -2.0225154e+38
2.6499772 -0.10532291 1.8748789 -2.0491e+38
2.6499665 -0.11000861 1.8748789 -2.0756326e+38
2.6499557 -0.11469431 1.8748789 -2.0490481e+38
2.649945 -0.11938001 1.8748789 -2.0223597e+38
2.6679335 -0.12446699 1.8795245 -2.0091191e+38
2.6499236 -0.12875143 1.8748789 -1.9958268e+38
2.6499128 -0.13343713 1.8748789 -2.0091189e+38
2.6499021 -0.13812283 1.8748789 -2.0223589e+38
2.6498914 -0.14280853 1.8748789 -2.0755278e+38
2.6498806 -0.14749423 1.8748789 -2.1154563e+38
2.6678686 -0.15278691 1.8795245 -2.0755793e+38
2.6498592 -0.15686563 1.8748789 -2.0357546e+38
2.6498482 -0.16155133 1.8748789 -2.0756837e+38
2.6498375 -0.16623704 1.8748789 -2.1022685e+38
2.6498268 -0.17092274 1.8748789 -2.0889764e+38
2.649816 -0.17560846 1.8748789 -2.0757363e+38
2.6498053 -0.18029416 1.8748789 -2.0756846e+38
2.6497946 -0.18497986 1.8748789 -2.0624965e+38
2.6327858 -0.18883325 1.8704913 -2.0624969e+38
2.6327751 -0.19348657 1.8704913 -2.0494128e+38
2.6327643 -0.19813989 1.8704913 -2.0761014e+38
2.6157558 -0.20186377 1.8661036 -2.102738e+38
2.6157453 -0.20648471 1.8661036 -2.1692516e+38
2.6157346 -0.21110564 1.8661036 -2.2358172e+38
2.6157241 -0.21572658 1.8661036 -2.2491618e+38
2.6157134 -0.22034752 1.8661036 -2.262558e+38
2.6157029 -0.22496848 1.8661036 -2.2891946e+38
2.6156921 -0.22958942 1.8661036 -2.3158315e+38
2.6156816 -0.23421036 1.8661036 -2.3424682e+38
2.6156712 -0.23883128 1.8661036 -2.3691578e+38
2.6156604 -0.24345222 1.8661036 -2.3957438e+38
2.6156499 -0.24807318 1.8661036 -2.4225375e+38
2.6155863 -0.27579883 1.8661036 -2.823395e+38
2.6155758 -0.28041977 1.8661036 -2.4633652e+38
2.6325617 -0.286553 1.8704913 -2.0947198e+38
2.632551 -0.2912063 1.8704913 nan
2.6155438 -0.29428256 1.8661036 nan
2.6495261 -0.30212241 1.8748789 nan
2.6495154 -0.30680811 1.8748789 nan
3.0834692 0.10874195 1.9811236 nan
3.0834565 0.10323147 1.9811236 nan
2.7994056 0.081332147 1.9083655 -2.9414021e+38
2.7993941 0.07636264 1.9083655 -1.7679945e+38
2.7993829 0.071393132 1.9083655 -2.116449e+38
2.7993715 0.066423625 1.9083655 -2.4634009e+38
2.7793579 0.060452342 1.9032416 -2.5170917e+38
2.7793467 0.055520944 1.9032416 -2.5708352e+38
2.7793353 0.050589524 1.9032416 -2.5304943e+38
2.7793241 0.045658104 1.9032416 -2.4900939e+38
2.7603106 0.039919779 1.8983741 -2.5157913e+38
2.7412975 0.034253821 1.8935064 -2.5288232e+38
2.7412865 0.029394783 1.8935064 -2.4754456e+38
2.7222736 0.02383741 1.8886387 -2.4353596e+38
2.7222624 0.019014567 1.8886387 -2.3821372e+38
2.7222514 0.014191724 1.8886387 -2.3420516e+38
2.7042391 0.0088101402 1.8840274 -2.3419466e+38
2.7042282 0.0040215775 1.8840274 -2.328446e+38
2.7042172 -0.00076697767 1.8840274 -2.3019127e+38
2.7042062 -0.0055555329 1.8840274 -2.2752758e+38
2.6861942 -0.010765687 1.879416 -2.2487426e+38
2.6681824 -0.015907265 1.8748045 -2.2355546e+38
2.6681716 -0.020627249 1.8748045 -2.2223144e+38
2.6681609 -0.02534724 1.8748045 -2.2223156e+38
2.6501491 -0.030351672 1.8701931 -2.2223686e+38
2.6501384 -0.035037376 1.8701931 -2.2223171e+38
2.6501276 -0.039723076 1.8701931 -2.2223694e+38
2.6501169 -0.04440878 1.8701931 -2.2356611e+38
2.6501062 -0.049094483 1.8701931 -2.2223162e+38
2.6500955 -0.053780187 1.8701931 -2.2089197e+38
2.6500847 -0.058465887 1.8701931 -2.2353998e+38
2.650074 -0.063151591 1.8701931 -2.2619322e+38
2.6500633 -0.06783729 1.8701931 -2.2484838e+38
2.6330523 -0.072500214 1.8658378 -2.2350357e+38
2.6500416 -0.077208698 1.8701931 -2.2084512e+38
2.6500309 -0.081894398 1.8701931 -2.1818149e+38
2.6500201 -0.086580098 1.8701931 -2.1287496e+38
2.6500094 -0.091265805 1.8701931 -2.0755288e+38
2.6499987 -0.095951505 1.8701931 -2.0623404e+38
2.6499879 -0.10063721 1.8701931 -2.0624444e+38
2.6499772 -0.10532291 1.8701931 -2.0756328e+38
2.6499665 -0.11000861 1.8701931 -2.0888213e+38
2.6499557 -0.11469431 1.8701931 -2.0622367e+38
2.649945 -0.11938001 1.8701931 -2.0488921e+38
2.6499343 -0.12406571 1.8701931 -2.0223591e+38
2.6499236 -0.12875143 1.8701931 -2.0090668e+38
2.6499128 -0.13343713 1.8701931 -2.0356513e+38
2.6499021 -0.13812283 1.8701931 -2.0754759e+38
2.6498914 -0.14280853 1.8701931 -2.0888194e+38
2.6498806 -0.14749423 1.8701931 -2.1154038e+38
2.6498699 -0.15217993 1.8701931 -2.0755268e+38
2.6498592 -0.15686563 1.8701931 -2.0489426e+38
2.6498482 -0.16155133 1.8701931 -2.0756312e+38
2.6498375 -0.16623704 1.8701931 -2.0888203e+38
2.6498268 -0.17092274 1.8701931 -2.0889764e+38
2.649816 -0.17560846 1.8701931 -2.0890803e+38
2.6498053 -0.18029416 1.8701931 -2.0624957e+38
2.6497946 -0.18497986 1.8701931 -2.0493079e+38
2.6327858 -0.18883325 1.8658378 -2.0626527e+38
2.6327751 -0.19348657 1.8658378 -2.0893415e+38
2.6327643 -0.19813989 1.8658378 -2.1159263e+38
2.6327538 -0.2027932 1.8658378 -2.1425632e+38
2.6157453 -0.20648471 1.8614826 -2.1825443e+38
2.6157346 -0.21110564 1.8614826 -2.2225254e+38
2.6157241 -0.21572658 1.8614826 -2.2358698e+38
2.6157134 -0.22034752 1.8614826 -2.2625066e+38
2.6157029 -0.22496848 1.8614826 -2.2891433e+38
2.6156921 -0.22958942 1.8614826 -2.3158321e+38
2.6156816 -0.23421036 1.8614826 -2.3424688e+38
2.6156712 -0.23883128 1.8614826 -2.3691063e+38
2.6156604 -0.24345222 1.8614826 -2.3957438e+38
2.6155863 -0.27579883 1.8614826 -2.6645097e+38
2.6155758 -0.28041977 1.8614826 -2.3448745e+38
2.6325617 -0.286553 1.8658378 -2.0399397e+38
2.632551 -0.2912063 1.8658378 -3.320057e+38
2.6155438 -0.29428256 1.8614826 nan
2.6495261 -0.30212241 1.8701931 nan
2.6495154 -0.30680811 1.8701931 nan
2.6675007 -0.31326652 1.8748045 nan
2.7994056 0.081332147 1.9033959 -2.6187447e+38
2.7993941 0.07636264 1.9033959 -1.7291529e+38
2.7993829 0.071393132 1.9033959 -2.1176971e+38
2.7993715 0.066423625 1.9033959 -2.5032787e+38
2.7793579 0.060452342 1.8983102 -2.5836052e+38
2.7793467 0.055520944 1.8983102 -2.6637757e+38
2.7793353 0.050589524 1.8983102 -2.5702117e+38
2.7793241 0.045658104 1.8983102 -2.4629877e+38
2.7603106 0.039919779 1.8934789 -2.4751346e+38
2.7412975 0.034253821 1.8886473 -2.4886338e+38
2.7412865 0.029394783 1.8886473 -2.4353083e+38
2.7222736 0.02383741 1.883816 -2.3820861e+38
2.7222624 0.019014567 1.883816 -2.3555005e+38
2.7222514 0.014191724 1.883816 -2.328863e+38
2.7042391 0.0088101402 1.8792388 -2.3287579e+38
2.7042282 0.0040215775 1.8792388 -2.3153614e+38
2.7042172 -0.00076697767 1.8792388 -2.302017e+38
2.7042062 -0.0055555329 1.8792388 -2.275328e+38
2.6861942 -0.010765687 1.8746617 -2.2752235e+38
2.6681824 -0.015907265 1.8700845 -2.2620872e+38
2.6681716 -0.020627249 1.8700845 -2.2621395e+38
2.6501598 -0.025665972 1.8655074 -2.2488996e+38
2.6501491 -0.030351672 1.8655074 -2.2356079e+38
2.6501384 -0.035037376 1.8655074 -2.2223158e+38
2.6501276 -0.039723076 1.8655074 -2.222316e+38
2.6501169 -0.04440878 1.8655074 -2.2090231e+38
2.6501062 -0.049094483 1.8655074 -2.1957305e+38
2.6500955 -0.053780187 1.8655074 -2.1689899e+38
2.6500847 -0.058465887 1.8655074 -2.2220033e+38
2.650074 -0.063151591 1.8655074 -2.2617763e+38
2.6500633 -0.06783729 1.8655074 -2.2615686e+38
2.6330523 -0.072500214 1.8611846 -2.2482763e+38
2.6500416 -0.077208698 1.8655074 -2.2215362e+38
2.6500309 -0.081894398 1.8655074 -2.1951074e+38
2.6500201 -0.086580098 1.8655074 -2.1287498e+38
2.6500094 -0.091265805 1.8655074 -2.0489962e+38
2.6499987 -0.095951505 1.8655074 -2.0756846e+38
2.6499879 -0.10063721 1.8655074 -2.088873e+38
2.6499772 -0.10532291 1.8655074 -2.0887691e+38
2.6499665 -0.11000861 1.8655074 -2.0887691e+38
2.6499557 -0.11469431 1.8655074 -2.0887172e+38
2.649945 -0.11938001 1.8655074 -2.0754765e+38
2.6499343 -0.12406571 1.8655074 -2.0489436e+38
2.6499236 -0.12875143 1.8655074 -2.0091185e+38
2.6499128 -0.13343713 1.8655074 -2.0622874e+38
2.6499021 -0.13812283 1.8655074 -2.1154042e+38
2.6498914 -0.14280853 1.8655074 -2.115404e+38
2.6498806 -0.14749423 1.8655074 -2.1021115e+38
2.6678686 -0.15278691 1.8700845 -2.088819e+38
2.6678579 -0.1575069 1.8700845 -2.0622347e+38
2.6498482 -0.16155133 1.8655074 -2.0756829e+38
2.6498375 -0.16623704 1.8655074 -2.0756833e+38
2.6678255 -0.17166686 1.8700845 -2.0890801e+38
2.649816 -0.17560846 1.8655074 -2.0890801e+38
2.6498053 -0.18029416 1.8655074 -2.0624957e+38
2.6497946 -0.18497986 1.8655074 -2.0226712e+38
2.6327858 -0.18883325 1.8611846 -2.0759448e+38
2.6327751 -0.19348657 1.8611846 -2.1158737e+38
2.6327643 -0.19813989 1.8611846 -2.1424587e+38
2.6327538 -0.2027932 1.8611846 -2.1691477e+38
2.6157453 -0.20648471 1.8568616 -2.1957848e+38
2.6157346 -0.21110564 1.8568616 -2.2091292e+38
2.6157241 -0.21572658 1.8568616 -2.2357659e+38
2.6157134 -0.22034752 1.8568616 -2.2491103e+38
2.6157029 -0.22496848 1.8568616 -2.2756953e+38
2.6156921 -0.22958942 1.8568616 -2.3024358e+38
2.6156816 -0.23421036 1.8568616 -2.3290725e+38
2.6326685 -0.24001978 1.8611846 -2.3557096e+38
2.6156604 -0.24345222 1.8568616 -2.382295e+38
2.6156499 -0.24807318 1.8568616 -2.4090884e+38
2.6155863 -0.27579883 1.8568616 -2.4908265e+38
2.6155758 -0.28041977 1.8568616 -2.2382237e+38
2.6325617 -0.286553 1.8611846 -1.9866622e+38
2.632551 -0.2912063 1.8611846 -3.0521268e+38
2.6325405 -0.29585963 1.8611846 nan
2.6495261 -0.30212241 1.8655074 nan
2.6675115 -0.30854651 1.8700845 nan
2.6675007 -0.31326652 1.8700845 nan
2.7993941 0.07636264 1.8984264 -1.7281114e+38
2.7993829 0.071393132 1.8984264 -2.1029528e+38
2.7993715 0.066423625 1.8984264 -2.476124e+38
2.7793579 0.060452342 1.8933787 -2.5438843e+38
2.7793467 0.055520944 1.8933787 -2.6247797e+38
2.7793353 0.050589524 1.8933787 -2.5568638e+38
2.7793241 0.045658104 1.8933787 -2.4892066e+38
2.7603106 0.039919779 1.8885837 -2.4622048e+38
2.7412975 0.034253821 1.8837883 -2.4488081e+38
2.7412865 0.029394783 1.8837883 -2.3954305e+38
2.7222736 0.02383741 1.878993 -2.342105e+38
2.7222624 0.019014567 1.878993 -2.3156234e+38
2.7222514 0.014191724 1.878993 -2.2890898e+38
2.7042391 0.0088101402 1.8744502 -2.2889328e+38
2.7042282 0.0040215775 1.8744502 -2.288829e+38
2.7042172 -0.00076697767 1.8744502 -2.2754326e+38
2.7042062 -0.0055555329 1.8744502 -2.2753282e+38
2.6861942 -0.010765687 1.8699074 -2.262087e+38
2.6681824 -0.015907265 1.8653646 -2.2621393e+38
2.6681716 -0.020627249 1.8653646 -2.2621397e+38
2.6501598 -0.025665972 1.8608217 -2.2754318e+38
2.6501491 -0.030351672 1.8608217 -2.2488471e+38
2.6501384 -0.035037376 1.8608217 -2.2355028e+38
2.6501276 -0.039723076 1.8608217 -2.2090221e+38
2.6501169 -0.04440878 1.8608217 -2.1957294e+38
2.6501062 -0.049094483 1.8608217 -2.1823848e+38
2.6500955 -0.053780187 1.8608217 -2.1822295e+38
2.6500847 -0.058465887 1.8608217 -2.1954181e+38
2.650074 -0.063151591 1.8608217 -2.208555e+38
2.6500633 -0.06783729 1.8608217 -2.2085035e+38
2.6500525 -0.07252299 1.8608217 -2.2085037e+38
2.6500416 -0.077208698 1.8608217 -2.1818153e+38
2.6500309 -0.081894398 1.8608217 -2.168575e+38
2.6500201 -0.086580098 1.8608217 -2.1286979e+38
2.6500094 -0.091265805 1.8608217 -2.0888211e+38
2.6499987 -0.095951505 1.8608217 -2.1021651e+38
2.6499879 -0.10063721 1.8608217 -2.1153535e+38
2.6499772 -0.10532291 1.8608217 -2.1020612e+38
2.6499665 -0.11000861 1.8608217 -2.088717e+38
2.6499557 -0.11469431 1.8608217 -2.0754765e+38
2.6679444 -0.119747 1.8653646 -2.0622359e+38
2.6679335 -0.12446699 1.8653646 -2.0356511e+38
2.6679227 -0.12918697 1.8653646 -2.0091181e+38
2.6499128 -0.13343713 1.8608217 -2.0357023e+38
2.6499021 -0.13812283 1.8608217 -2.0622868e+38
2.6678903 -0.14334694 1.8653646 -2.0888192e+38
2.6498806 -0.14749423 1.8608217 -2.1154038e+38
2.6678686 -0.15278691 1.8653646 -2.0754748e+38
2.6498592 -0.15686563 1.8608217 -2.0487866e+38
2.6678469 -0.16222689 1.8653646 -2.0622866e+38
2.6498375 -0.16623704 1.8608217 -2.0756312e+38
2.6678255 -0.17166686 1.8653646 -2.0756835e+38
2.649816 -0.17560846 1.8608217 -2.0757359e+38
2.6498053 -0.18029416 1.8608217 -2.0624438e+38
2.6497946 -0.18497986 1.8608217 -2.0624961e+38
2.6327858 -0.18883325 1.8565311 -2.0891328e+38
2.6327751 -0.19348657 1.8565311 -2.1157697e+38
2.6327643 -0.19813989 1.8565311 -2.1557508e+38
2.6327538 -0.2027932 1.8565311 -2.18244e+38
2.6327431 -0.20744653 1.8565311 -2.1957329e+38
2.6157346 -0.21110564 1.8522408 -2.2223177e+38
2.6157241 -0.21572658 1.8522408 -2.2356621e+38
2.6157134 -0.22034752 1.8522408 -2.2490065e+38
2.6157029 -0.22496848 1.8522408 -2.2756432e+38
2.6156921 -0.22958942 1.8522408 -2.2890395e+38
2.6156816 -0.23421036 1.8522408 -2.3156762e+38
2.6326685 -0.24001978 1.8565311 -2.3423131e+38
2.6156604 -0.24345222 1.8522408 -2.3689497e+38
2.6156499 -0.24807318 1.8522408 -2.3956915e+38
2.6156287 -0.25731504 1.8522408 -2.4483974e+38
2.6156075 -0.26655692 1.8522408 -2.556401e+38
2.615597 -0.27117789 1.8522408 -2.5434213e+38
2.6155863 -0.27579883 1.8522408 -2.5308064e+38
2.6325724 -0.28189969 1.8565311 -2.2648073e+38
2.6495583 -0.28806531 1.8608217 -1.9987558e+38
2.6495476 -0.29275101 1.8608217 -2.678637e+38
2.6495368 -0.29743671 1.8608217 -3.3587323e+38
2.6495261 -0.30212241 1.8608217 nan
2.6495154 -0.30680811 1.8608217 nan
2.6495047 -0.31149381 1.8608217 nan
2.6494939 -0.31617951 1.8608217 nan
2.7993941 0.07636264 1.8934569 -1.7154947e+38
2.7993829 0.071393132 1.8934569 -2.0898165e+38
2.7993715 0.066423625 1.8934569 -2.4497989e+38
2.7793579 0.060452342 1.8884474 -2.5176109e+38
2.7793467 0.055520944 1.8884474 -2.5706234e+38
2.7793353 0.050589524 1.8884474 -2.5431554e+38
2.7793241 0.045658104 1.8884474 -2.5025498e+38
2.7603106 0.039919779 1.8836883 -2.4622038e+38
2.7412975 0.034253821 1.8789294 -2.4088266e+38
2.7412865 0.029394783 1.8789294 -2.3554496e+38
2.7222736 0.02383741 1.8741703 -2.30228e+38
2.7222624 0.019014567 1.8741703 -2.2756951e+38
2.7222514 0.014191724 1.8741703 -2.2490578e+38
2.7042391 0.0088101402 1.8696617 -2.2622454e+38
2.7042282 0.0040215775 1.8696617 -2.2622452e+38
2.7042172 -0.00076697767 1.8696617 -2.2621412e+38
2.7042062 -0.0055555329 1.8696617 -2.2621405e+38
2.6861942 -0.010765687 1.8651531 -2.2621399e+38
2.6681824 -0.015907265 1.8606446 -2.2621921e+38
2.6681716 -0.020627249 1.8606446 -2.2754845e+38
2.6501598 -0.025665972 1.856136 -2.2887243e+38
2.6501491 -0.030351672 1.856136 -2.2620874e+38
2.6501384 -0.035037376 1.856136 -2.2355546e+38
2.6501276 -0.039723076 1.856136 -2.2090219e+38
2.6501169 -0.04440878 1.856136 -2.1823852e+38
2.6501062 -0.049094483 1.856136 -2.1823331e+38
2.6500955 -0.053780187 1.856136 -2.1822295e+38
2.6500847 -0.058465887 1.856136 -2.1688336e+38
2.650074 -0.063151591 1.856136 -2.1554898e+38
2.6500633 -0.06783729 1.856136 -2.1553863e+38
2.6500525 -0.07252299 1.856136 -2.1553344e+38
2.6500416 -0.077208698 1.856136 -2.1552827e+38
2.6500309 -0.081894398 1.856136 -2.14199e+38
2.6500201 -0.086580098 1.856136 -2.1419898e+38
2.6500094 -0.091265805 1.856136 -2.1286975e+38
2.6499987 -0.095951505 1.856136 -2.1286973e+38
2.6499879 -0.10063721 1.856136 -2.1286975e+38
2.6499772 -0.10532291 1.856136 -2.1021651e+38
2.6499665 -0.11000861 1.856136 -2.0754765e+38
2.6679552 -0.11502701 1.8606446 -2.0621842e+38
2.6679444 -0.119747 1.8606446 -2.0489434e+38
2.6679335 -0.12446699 1.8606446 -2.0223065e+38
2.6679227 -0.12918697 1.8606446 -1.9958256e+38
2.667912 -0.13390696 1.8606446 -2.0091696e+38
2.667901 -0.13862695 1.8606446 -2.0091177e+38
2.6678903 -0.14334694 1.8606446 -2.0621828e+38
2.6678796 -0.14806692 1.8606446 -2.1153e+38
2.6678686 -0.15278691 1.8606446 -2.0754231e+38
2.6678579 -0.1575069 1.8606446 -2.0355982e+38
2.6678469 -0.16222689 1.8606446 -2.0489424e+38
2.6498375 -0.16623704 1.856136 -2.062287e+38
2.6678255 -0.17166686 1.8606446 -2.0622876e+38
2.649816 -0.17560846 1.856136 -2.0623397e+38
2.6498053 -0.18029416 1.856136 -2.0756844e+38
2.6497946 -0.18497986 1.856136 -2.0890288e+38
2.6327858 -0.18883325 1.8518779 -2.1023732e+38
2.6327751 -0.19348657 1.8518779 -2.1157697e+38
2.6327643 -0.19813989 1.8518779 -2.1557508e+38
2.6327538 -0.2027932 1.8518779 -2.1956282e+38
2.6327431 -0.20744653 1.8518779 -2.2090248e+38
2.6327324 -0.21209985 1.8518779 -2.2222653e+38
2.6327217 -0.21675317 1.8518779 -2.2355578e+38
2.6327112 -0.22140649 1.8518779 -2.2489541e+38
2.6157029 -0.22496848 1.8476198 -2.2622983e+38
2.6156921 -0.22958942 1.8476198 -2.2756947e+38
2.6156816 -0.23421036 1.8476198 -2.3022273e+38
2.6156712 -0.23883128 1.8476198 -2.3156238e+38
2.6156604 -0.24345222 1.8476198 -2.3553972e+38
2.6156392 -0.25269413 1.8476198 -2.4219126e+38
2.6156287 -0.25731504 1.8476198 -2.4620513e+38
2.615597 -0.27117789 1.8476198 -2.530076e+38
2.6155863 -0.27579883 1.8476198 -2.570266e+38
2.6325724 -0.28189969 1.8518779 -2.2913377e+38
2.6325617 -0.286553 1.8518779 -1.9989094e+38
2.632551 -0.2912063 1.8518779 -2.3048932e+38
2.6325405 -0.29585963 1.8518779 -2.6004996e+38
2.6495261 -0.30212241 1.856136 nan
2.6495154 -0.30680811 1.856136 nan
2.6495047 -0.31149381 1.856136 nan
2.6494939 -0.31617951 1.856136 nan
2.7994056 0.081332147 1.8884873 -2.7407056e+38
2.7993941 0.07636264 1.8884873 -1.7147684e+38
2.7993829 0.071393132 1.8884873 -2.0894011e+38
2.7993715 0.066423625 1.8884873 -2.4763315e+38
2.7793579 0.060452342 1.883516 -2.5835007e+38
2.7793467 0.055520944 1.883516 -2.6899418e+38
2.7793353 0.050589524 1.883516 -2.5693754e+38
2.7793241 0.045658104 1.883516 -2.4625162e+38
2.7603106 0.039919779 1.8787931 -2.4089298e+38
2.7412975 0.034253821 1.8740702 -2.3687934e+38
2.7412865 0.029394783 1.8740702 -2.3421569e+38
2.7222736 0.02383741 1.8693473 -2.3022281e+38
2.7222624 0.019014567 1.8693473 -2.2756434e+38
2.7222514 0.014191724 1.8693473 -2.2489545e+38
2.7042391 0.0088101402 1.8648732 -2.2489539e+38
2.7042282 0.0040215775 1.8648732 -2.2489537e+38
2.7042172 -0.00076697767 1.8648732 -2.2489016e+38
2.7042062 -0.0055555329 1.8648732 -2.2489012e+38
2.6861942 -0.010765687 1.8603988 -2.2489525e+38
2.6681824 -0.015907265 1.8559246 -2.2489525e+38
2.6681716 -0.020627249 1.8559246 -2.2621927e+38
2.6681609 -0.02534724 1.8559246 -2.2754843e+38
2.6681499 -0.030067228 1.8559246 -2.2620874e+38
2.6501384 -0.035037376 1.8514502 -2.2487949e+38
2.6501276 -0.039723076 1.8514502 -2.2089177e+38
2.6501169 -0.04440878 1.8514502 -2.1689372e+38
2.6501062 -0.049094483 1.8514502 -2.1556968e+38
2.6500955 -0.053780187 1.8514502 -2.1423526e+38
2.6500847 -0.058465887 1.8514502 -2.1423007e+38
2.650074 -0.063151591 1.8514502 -2.1422494e+38
2.6500633 -0.06783729 1.8514502 -2.1554382e+38
2.6500525 -0.07252299 1.8514502 -2.1686786e+38
2.6500416 -0.077208698 1.8514502 -2.1553344e+38
2.6500309 -0.081894398 1.8514502 -2.155334e+38
2.6500201 -0.086580098 1.8514502 -2.1420413e+38
2.6500094 -0.091265805 1.8514502 -2.128749e+38
2.6499987 -0.095951505 1.8514502 -2.1154565e+38
2.6499879 -0.10063721 1.8514502 -2.1021647e+38
2.6499772 -0.10532291 1.8514502 -2.0888207e+38
2.6499665 -0.11000861 1.8514502 -2.0754765e+38
2.6679552 -0.11502701 1.8559246 -2.0356513e+38
2.6679444 -0.119747 1.8559246 -2.0090664e+38
2.6679335 -0.12446699 1.8559246 -1.9958773e+38
2.6679227 -0.12918697 1.8559246 -1.982637e+38
2.667912 -0.13390696 1.8559246 -2.0091696e+38
2.667901 -0.13862695 1.8559246 -2.0357023e+38
2.6678903 -0.14334694 1.8559246 -2.0621828e+38
2.6678796 -0.14806692 1.8559246 -2.0886116e+38
2.6678686 -0.15278691 1.8559246 -2.075475e+38
2.6678579 -0.1575069 1.8559246 -2.0755789e+38
2.6678469 -0.16222689 1.8559246 -2.0755268e+38
2.6678362 -0.16694687 1.8559246 -2.0888199e+38
2.6678255 -0.17166686 1.8559246 -2.1021127e+38
2.6678145 -0.17638685 1.8559246 -2.1154052e+38
2.6498053 -0.18029416 1.8514502 -2.1155093e+38
2.6497946 -0.18497986 1.8514502 -2.1156133e+38
2.6497838 -0.18966556 1.8514502 -2.1156652e+38
2.6327751 -0.19348657 1.8472245 -2.1291139e+38
2.6327643 -0.19813989 1.8472245 -2.1556469e+38
2.6327538 -0.2027932 1.8472245 -2.18218e+38
2.6157453 -0.20648471 1.8429987 -2.2088686e+38
2.6157346 -0.21110564 1.8429987 -2.2355053e+38
2.6157241 -0.21572658 1.8429987 -2.2355574e+38
2.6157134 -0.22034752 1.8429987 -2.2356613e+38
2.6157029 -0.22496848 1.8429987 -2.2357132e+38
2.6156921 -0.22958942 1.8429987 -2.235817e+38
2.6156816 -0.23421036 1.8429987 -2.2491093e+38
2.6156712 -0.23883128 1.8429987 -2.2624539e+38
2.6156604 -0.24345222 1.8429987 -2.2890389e+38
2.6156499 -0.24807318 1.8429987 -2.3289685e+38
2.6156392 -0.25269413 1.8429987 -2.3821903e+38
2.6156287 -0.25731504 1.8429987 -2.4356209e+38
2.6156075 -0.26655692 1.8429987 -2.5027611e+38
2.615597 -0.27117789 1.8429987 -2.5563479e+38
2.6155863 -0.27579883 1.8429987 -2.5965894e+38
2.6325724 -0.28189969 1.8472245 -2.4238946e+38
2.6325617 -0.286553 1.8472245 -2.2514083e+38
2.632551 -0.2912063 1.8472245 -2.3581118e+38
2.6325405 -0.29585963 1.8472245 -2.4791542e+38
2.6495261 -0.30212241 1.8514502 nan
2.6495154 -0.30680811 1.8514502 nan
2.6495047 -0.31149381 1.8514502 nan
2.6494939 -0.31617951 1.8514502 nan
2.7994056 0.081332147 1.8835179 -2.6585647e+38
2.7993941 0.07636264 1.8835179 -1.7155475e+38
2.7993829 0.071393132 1.8835179 -2.103264e+38
2.7993715 0.066423625 1.8835179 -2.4896751e+38
2.7793579 0.060452342 1.8785845 -2.6500654e+38
2.7793467 0.055520944 1.8785845 -2.7956042e+38
2.7793353 0.050589524 1.8785845 -2.6084207e+38
2.7793241 0.045658104 1.8785845 -2.4089832e+38
2.7603106 0.039919779 1.8738978 -2.3688453e+38
2.7412975 0.034253821 1.8692112 -2.3289163e+38
2.7412865 0.029394783 1.8692112 -2.3155719e+38
2.7222736 0.02383741 1.8645246 -2.3022275e+38
2.7222624 0.019014567 1.8645246 -2.275591e+38
2.7222514 0.014191724 1.8645246 -2.2489541e+38
2.7222404 0.0093688741 1.8645246 -2.2489537e+38
2.7042282 0.0040215775 1.8600845 -2.2356613e+38
2.7042172 -0.00076697767 1.8600845 -2.2356613e+38
2.7042062 -0.0055555329 1.8600845 -2.2224207e+38
2.6861942 -0.010765687 1.8556445 -2.2357647e+38
2.6861832 -0.015519958 1.8556445 -2.2356604e+38
2.6681716 -0.020627249 1.8512045 -2.2488485e+38
2.6681609 -0.02534724 1.8512045 -2.2620882e+38
2.6681499 -0.030067228 1.8512045 -2.2619318e+38
2.6501384 -0.035037376 1.8467646 -2.2486913e+38
2.6501276 -0.039723076 1.8467646 -2.2088142e+38
2.6501169 -0.04440878 1.8467646 -2.1556451e+38
2.6501062 -0.049094483 1.8467646 -2.1291127e+38
2.6500955 -0.053780187 1.8467646 -2.1024758e+38
2.6500847 -0.058465887 1.8467646 -2.1157679e+38
2.650074 -0.063151591 1.8467646 -2.1289048e+38
2.6500633 -0.06783729 1.8467646 -2.1554378e+38
2.6500525 -0.07252299 1.8467646 -2.1686782e+38
2.6500416 -0.077208698 1.8467646 -2.1685745e+38
2.6500309 -0.081894398 1.8467646 -2.1685743e+38
2.6500201 -0.086580098 1.8467646 -2.1552821e+38
2.6500094 -0.091265805 1.8467646 -2.1287492e+38
2.6499987 -0.095951505 1.8467646 -2.1021645e+38
2.6499879 -0.10063721 1.8467646 -2.0755799e+38
2.6499772 -0.10532291 1.8467646 -2.075528e+38
2.6679661 -0.11030702 1.8512045 -2.0622357e+38
2.6679552 -0.11502701 1.8512045 -2.0090666e+38
2.6679444 -0.119747 1.8512045 -1.9560009e+38
2.6679335 -0.12446699 1.8512045 -1.9561563e+38
2.6679227 -0.12918697 1.8512045 -1.9560007e+38
2.667912 -0.13390696 1.8512045 -2.0091181e+38
2.667901 -0.13862695 1.8512045 -2.0622351e+38
2.6678903 -0.14334694 1.8512045 -2.062183e+38
2.6678796 -0.14806692 1.8512045 -2.0488388e+38
2.6678686 -0.15278691 1.8512045 -2.0754752e+38
2.6678579 -0.1575069 1.8512045 -2.1020081e+38
2.6678469 -0.16222689 1.8512045 -2.1020081e+38
2.6678362 -0.16694687 1.8512045 -2.1020085e+38
2.6678255 -0.17166686 1.8512045 -2.1285415e+38
2.649816 -0.17560846 1.8467646 -2.1552299e+38
2.6498053 -0.18029416 1.8467646 -2.1419377e+38
2.6497946 -0.18497986 1.8467646 -2.1288011e+38
2.6497838 -0.18966556 1.8467646 -2.1421973e+38
2.6497731 -0.19435126 1.8467646 -2.1423015e+38
2.6327643 -0.19813989 1.8425713 -2.1555425e+38
2.6327538 -0.2027932 1.8425713 -2.168939e+38
2.6327431 -0.20744653 1.8425713 -2.2088163e+38
2.6157346 -0.21110564 1.8383778 -2.2487454e+38
2.6327217 -0.21675317 1.8425713 -2.2355574e+38
2.6157134 -0.22034752 1.8383778 -2.222369e+38
2.6157029 -0.22496848 1.8383778 -2.2091286e+38
2.6156921 -0.22958942 1.8383778 -2.182596e+38
2.6156816 -0.23421036 1.8383778 -2.1959402e+38
2.6156712 -0.23883128 1.8383778 -2.1959406e+38
2.6156604 -0.24345222 1.8383778 -2.2358178e+38
2.6156499 -0.24807318 1.8383778 -2.2757993e+38
2.6156287 -0.25731504 1.8383778 -2.4089325e+38
2.6156075 -0.26655692 1.8383778 -2.5158974e+38
2.615597 -0.27117789 1.8383778 -2.5693801e+38
2.6155863 -0.27579883 1.8383778 -2.6227062e+38
2.6325724 -0.28189969 1.8425713 -2.5694345e+38
2.6325617 -0.286553 1.8425713 -2.5036501e+38
2.632551 -0.2912063 1.8425713 -2.4235871e+38
2.6495368 -0.29743671 1.8467646 -2.3470622e+38
2.6495261 -0.30212241 1.8467646 nan
2.6495154 -0.30680811 1.8467646 nan
2.6495047 -0.31149381 1.8467646 nan
2.6494939 -0.31617951 1.8467646 nan
2.7993941 0.07636264 1.8785484 -1.7280611e+38
2.7993829 0.071393132 1.8785484 -2.0763153e+38
2.7993715 0.066423625 1.8785484 -2.4366092e+38
2.79936 0.061454117 1.8785484 -2.5429477e+38
2.7793467 0.055520944 1.8736532 -2.649077e+38
2.7793353 0.050589524 1.8736532 -2.5154778e+38
2.7793241 0.045658104 1.8736532 -2.3955347e+38
2.7603106 0.039919779 1.8690026 -2.3688451e+38
2.7412975 0.034253821 1.8643522 -2.3421565e+38
2.7412865 0.029394783 1.8643522 -2.3288119e+38
2.7412753 0.024535753 1.8643522 -2.3021752e+38
2.7222624 0.019014567 1.8597016 -2.2755385e+38
2.7222514 0.014191724 1.8597016 -2.2488499e+38
2.7222404 0.0093688741 1.8597016 -2.235713e+38
2.7222292 0.0045460314 1.8597016 -2.2224207e+38
2.7042172 -0.00076697767 1.8552959 -2.2091803e+38
2.7042062 -0.0055555329 1.8552959 -2.2091805e+38
2.7041953 -0.010344099 1.8552959 -2.2091286e+38
2.6861832 -0.015519958 1.8508902 -2.2223164e+38
2.6861725 -0.020274229 1.8508902 -2.2355041e+38
2.6681609 -0.02534724 1.8464845 -2.248744e+38
2.6681499 -0.030067228 1.8464845 -2.2486917e+38
2.6681392 -0.034787215 1.8464845 -2.2486915e+38
2.6501276 -0.039723076 1.8420788 -2.1955222e+38
2.6501169 -0.04440878 1.8420788 -2.1556455e+38
2.6501062 -0.049094483 1.8420788 -2.1423532e+38
2.6500955 -0.053780187 1.8420788 -2.1290606e+38
2.6500847 -0.058465887 1.8420788 -2.1289561e+38
2.650074 -0.063151591 1.8420788 -2.1420928e+38
2.6500633 -0.06783729 1.8420788 -2.142093e+38
2.6500525 -0.07252299 1.8420788 -2.128749e+38
2.6680417 -0.077267103 1.8464845 -2.115405e+38
2.6500309 -0.081894398 1.8420788 -2.1154054e+38
2.6500201 -0.086580098 1.8420788 -2.0755807e+38
2.6500094 -0.091265805 1.8420788 -2.0490998e+38
2.6499987 -0.095951505 1.8420788 -2.0490475e+38
2.6499879 -0.10063721 1.8420788 -2.0489953e+38
2.6499772 -0.10532291 1.8420788 -2.0223585e+38
2.6679661 -0.11030702 1.8464845 -1.995722e+38
2.6679552 -0.11502701 1.8464845 -1.9692413e+38
2.6679444 -0.119747 1.8464845 -1.9427603e+38
2.6679335 -0.12446699 1.8464845 -1.942708e+38
2.6679227 -0.12918697 1.8464845 -1.9557413e+38
2.667912 -0.13390696 1.8464845 -1.9824301e+38
2.667901 -0.13862695 1.8464845 -2.0089623e+38
2.6678903 -0.14334694 1.8464845 -2.0222542e+38
2.6678796 -0.14806692 1.8464845 -2.048839e+38
2.6678686 -0.15278691 1.8464845 -2.048787e+38
2.6678579 -0.1575069 1.8464845 -2.0619759e+38
2.6678469 -0.16222689 1.8464845 -2.062028e+38
2.6678362 -0.16694687 1.8464845 -2.0753724e+38
2.6678255 -0.17166686 1.8464845 -2.0887166e+38
2.6678145 -0.17638685 1.8464845 -2.1020606e+38
2.6498053 -0.18029416 1.8420788 -2.1021123e+38
2.6497946 -0.18497986 1.8420788 -2.1155085e+38
2.6497838 -0.18966556 1.8420788 -2.1156121e+38
2.6497731 -0.19435126 1.8420788 -2.1156644e+38
2.6497624 -0.19903696 1.8420788 -2.1423013e+38
2.6327538 -0.2027932 1.8379178 -2.1689903e+38
2.6327431 -0.20744653 1.8379178 -2.1955234e+38
2.6327324 -0.21209985 1.8379178 -2.2354008e+38
2.6327217 -0.21675317 1.8379178 -2.222213e+38
2.6327112 -0.22140649 1.8379178 -2.2090765e+38
2.6157029 -0.22496848 1.8337569 -2.1958361e+38
2.6156921 -0.22958942 1.8337569 -2.1958881e+38
2.6156816 -0.23421036 1.8337569 -2.1826477e+38
2.6156712 -0.23883128 1.8337569 -2.169356e+38
2.6156604 -0.24345222 1.8337569 -2.2225775e+38
2.615597 -0.27117789 1.8337569 -2.5558276e+38
2.6155863 -0.27579883 1.8337569 -2.6092578e+38
2.6325724 -0.28189969 1.8379178 -2.5432132e+38
2.6325617 -0.286553 1.8379178 -2.4909292e+38
2.632551 -0.2912063 1.8379178 -2.543789e+38
2.6495368 -0.29743671 1.8420788 -2.5984213e+38
2.6495261 -0.30212241 1.8420788 nan
2.6495154 -0.30680811 1.8420788 nan
2.6495047 -0.31149381 1.8420788 nan
2.6494939 -0.31617951 1.8420788 nan
2.7993941 0.07636264 1.8735788 -1.7422363e+38
2.7993829 0.071393132 1.8735788 -2.0639573e+38
2.7993715 0.066423625 1.8735788 -2.3697836e+38
2.79936 0.061454117 1.8735788 -2.4360894e+38
2.7793467 0.055520944 1.8687217 -2.4891015e+38
2.7793353 0.050589524 1.8687217 -2.435516e+38
2.7793241 0.045658104 1.8687217 -2.3689497e+38
2.7603106 0.039919779 1.8641074 -2.3688449e+38
2.7412975 0.034253821 1.859493 -2.3554484e+38
2.7412865 0.029394783 1.859493 -2.3287595e+38
2.7412753 0.024535753 1.859493 -2.3021748e+38
2.7412641 0.019676715 1.859493 -2.2755381e+38
2.7222514 0.014191724 1.8548788 -2.2490055e+38
2.7222404 0.0093688741 1.8548788 -2.2225249e+38
2.7222292 0.0045460314 1.8548788 -2.19594e+38
2.7222183 -0.00027681142 1.8548788 -2.1959398e+38
2.7042062 -0.0055555329 1.8505074 -2.1825956e+38
2.7041953 -0.010344099 1.8505074 -2.1958359e+38
2.6861832 -0.015519958 1.846136 -2.208972e+38
2.6861725 -0.020274229 1.846136 -2.2221083e+38
2.6681609 -0.02534724 1.8417645 -2.2221077e+38
2.6681499 -0.030067228 1.8417645 -2.2353994e+38
2.6681392 -0.034787215 1.8417645 -2.2353992e+38
2.6681283 -0.039507203 1.8417645 -2.1955224e+38
2.6501169 -0.04440878 1.837393 -2.1556453e+38
2.6501062 -0.049094483 1.837393 -2.1555932e+38
2.6500955 -0.053780187 1.837393 -2.1423007e+38
2.6500847 -0.058465887 1.837393 -2.1554889e+38
2.650074 -0.063151591 1.837393 -2.155437e+38
2.6500633 -0.06783729 1.837393 -2.1288527e+38
2.6500525 -0.07252299 1.837393 -2.0888722e+38
2.6680417 -0.077267103 1.8417645 -2.0755284e+38
2.6500309 -0.081894398 1.837393 -2.0489957e+38
2.6500201 -0.086580098 1.837393 -2.0091708e+38
2.6500094 -0.091265805 1.837393 -1.9560015e+38
2.6499987 -0.095951505 1.837393 -1.9825339e+38
2.6499879 -0.10063721 1.837393 -2.0091181e+38
2.6499772 -0.10532291 1.837393 -1.9691889e+38
2.6679661 -0.11030702 1.8417645 -1.9293642e+38
2.6679552 -0.11502701 1.8417645 -1.9294161e+38
2.6679444 -0.119747 1.8417645 -1.9161241e+38
2.6679335 -0.12446699 1.8417645 -1.9293646e+38
2.6679227 -0.12918697 1.8417645 -1.9426052e+38
2.667912 -0.13390696 1.8417645 -1.9426054e+38
2.667901 -0.13862695 1.8417645 -1.9425533e+38
2.6678903 -0.14334694 1.8417645 -1.9956703e+38
2.6678796 -0.14806692 1.8417645 -2.0487872e+38
2.6678686 -0.15278691 1.8417645 -2.035495e+38
2.6678579 -0.1575069 1.8417645 -2.0088585e+38
2.6678469 -0.16222689 1.8417645 -2.022099e+38
2.6678362 -0.16694687 1.8417645 -2.0354432e+38
2.6678255 -0.17166686 1.8417645 -2.0487876e+38
2.6678145 -0.17638685 1.8417645 -2.0488913e+38
2.6678038 -0.18110684 1.8417645 -2.0755797e+38
2.6497946 -0.18497986 1.837393 -2.0889756e+38
2.6497838 -0.18966556 1.837393 -2.0890793e+38
2.6497731 -0.19435126 1.837393 -2.0758391e+38
2.6327643 -0.19813989 1.8332646 -2.1157683e+38
2.6327538 -0.2027932 1.8332646 -2.1556457e+38
2.6327431 -0.20744653 1.8332646 -2.1821792e+38
2.6157346 -0.21110564 1.8291359 -2.2088163e+38
2.6327217 -0.21675317 1.8332646 -2.1954727e+38
2.6327112 -0.22140649 1.8332646 -2.18244e+38
2.6157029 -0.22496848 1.8291359 -2.1958363e+38
2.6156921 -0.22958942 1.8291359 -2.1958883e+38
2.6156816 -0.23421036 1.8291359 -2.1693558e+38
2.6156712 -0.23883128 1.8291359 -2.1427717e+38
2.615597 -0.27117789 1.8291359 -2.5421199e+38
2.6155863 -0.27579883 1.8291359 -2.5826215e+38
2.6325724 -0.28189969 1.8332646 -2.5298696e+38
2.6325617 -0.286553 1.8332646 -2.4634609e+38
2.632551 -0.2912063 1.8332646 -2.6488265e+38
2.6495368 -0.29743671 1.837393 -2.8388234e+38
2.6495261 -0.30212241 1.837393 nan
2.6495154 -0.30680811 1.837393 nan
2.6495047 -0.31149381 1.837393 nan
2.6494939 -0.31617951 1.837393 nan
2.7993941 0.07636264 1.8686093 -1.7280096e+38
2.7993829 0.071393132 1.8686093 -2.0896068e+38
2.7993715 0.066423625 1.8686093 -2.4494847e+38
2.79936 0.061454117 1.8686093 -2.462621e+38
2.7793467 0.055520944 1.8637903 -2.475549e+38
2.7793353 0.050589524 1.8637903 -2.4354637e+38
2.7793241 0.045658104 1.8637903 -2.3954822e+38
2.7793126 0.040726691 1.8637903 -2.3687928e+38
2.7793014 0.035795279 1.8637903 -2.3553443e+38
2.7412865 0.029394783 1.854634 -2.3420514e+38
2.7412753 0.024535753 1.854634 -2.3154147e+38
2.7412641 0.019676715 1.854634 -2.2888298e+38
2.7412529 0.014817677 1.854634 -2.2622977e+38
2.7222404 0.0093688741 1.8500559 -2.2357136e+38
2.7222292 0.0045460314 1.8500559 -2.2225247e+38
2.7222183 -0.00027681142 1.8500559 -2.2091799e+38
2.7222071 -0.0050996616 1.8500559 -2.2090761e+38
2.7041953 -0.010344099 1.8457189 -2.209024e+38
2.7041843 -0.015132654 1.8457189 -2.2222643e+38
2.6861725 -0.020274229 1.8413817 -2.2221605e+38
2.6861615 -0.025028504 1.8413817 -2.2354002e+38
2.6681499 -0.030067228 1.8370445 -2.2220552e+38
2.6681392 -0.034787215 1.8370445 -2.2220033e+38
2.6681283 -0.039507203 1.8370445 -2.1954704e+38
2.6681175 -0.04422719 1.8370445 -2.1688855e+38
2.6501062 -0.049094483 1.8327074 -2.1555407e+38
2.6500955 -0.053780187 1.8327074 -2.1555409e+38
2.6500847 -0.058465887 1.8327074 -2.1554372e+38
2.650074 -0.063151591 1.8327074 -2.1553853e+38
2.6500633 -0.06783729 1.8327074 -2.1288005e+38
2.6500525 -0.07252299 1.8327074 -2.1021647e+38
2.6680417 -0.077267103 1.8370445 -2.0622882e+38
2.668031 -0.08198709 1.8370445 -2.0223593e+38
2.6500201 -0.086580098 1.8327074 -1.9958781e+38
2.6680093 -0.091427073 1.8370445 -1.9692936e+38
2.6499987 -0.095951505 1.8327074 -1.9692415e+38
2.6679876 -0.10086705 1.8370445 -1.9824814e+38
2.6679769 -0.10558704 1.8370445 -1.9559482e+38
2.6679661 -0.11030702 1.8370445 -1.942708e+38
2.6679552 -0.11502701 1.8370445 -1.9294159e+38
2.6679444 -0.119747 1.8370445 -1.9294165e+38
2.6679335 -0.12446699 1.8370445 -1.9559498e+38
2.6679227 -0.12918697 1.8370445 -1.9825863e+38
2.667912 -0.13390696 1.8370445 -1.9824824e+38
2.667901 -0.13862695 1.8370445 -1.9957747e+38
2.6678903 -0.14334694 1.8370445 -2.0089629e+38
2.6678796 -0.14806692 1.8370445 -2.0353915e+38
2.6678686 -0.15278691 1.8370445 -2.0221508e+38
2.6678579 -0.1575069 1.8370445 -2.0088066e+38
2.6678469 -0.16222689 1.8370445 -1.9955141e+38
2.6678362 -0.16694687 1.8370445 -1.9822739e+38
2.6678255 -0.17166686 1.8370445 -1.9956181e+38
2.6678145 -0.17638685 1.8370445 -1.995722e+38
2.6678038 -0.18110684 1.8370445 -1.9825855e+38
2.6677928 -0.18582682 1.8370445 -1.9694487e+38
2.6497838 -0.18966556 1.8327074 -2.0094292e+38
2.6497731 -0.19435126 1.8327074 -2.0493582e+38
2.6327643 -0.19813989 1.8286111 -2.1024754e+38
2.6327538 -0.2027932 1.8286111 -2.1555417e+38
2.6327431 -0.20744653 1.8286111 -2.1821792e+38
2.6327324 -0.21209985 1.8286111 -2.2088163e+38
2.6327217 -0.21675317 1.8286111 -2.1956282e+38
2.6327112 -0.22140649 1.8286111 -2.1825441e+38
2.6327004 -0.22605981 1.8286111 -2.1825443e+38
2.6156921 -0.22958942 1.824515 -2.1959406e+38
2.6156816 -0.23421036 1.824515 -2.1825964e+38
2.6156712 -0.23883128 1.824515 -2.1693047e+38
2.615597 -0.27117789 1.824515 -2.5157948e+38
2.6155863 -0.27579883 1.824515 -2.5429527e+38
2.6155758 -0.28041977 1.824515 -2.4766491e+38
2.6325617 -0.286553 1.8286111 -2.4233754e+38
2.632551 -0.2912063 1.8286111 -2.4902511e+38
2.6325405 -0.29585963 1.8286111 -2.5461843e+38
2.6495261 -0.30212241 1.8327074 nan
2.6495154 -0.30680811 1.8327074 nan
2.6495047 -0.31149381 1.8327074 nan
2.6494939 -0.31617951 1.8327074 nan
2.7994056 0.081332147 1.8636398 -3.3002354e+38
2.7993941 0.07636264 1.8636398 -1.7032967e+38
2.7993829 0.071393132 1.8636398 -2.1169191e+38
2.7993715 0.066423625 1.8636398 -2.5292907e+38
2.7793579 0.060452342 1.8588588 -2.5026017e+38
2.7793467 0.055520944 1.8588588 -2.4622561e+38
2.7793353 0.050589524 1.8588588 -2.4353588e+38
2.7793241 0.045658104 1.8588588 -2.4087211e+38
2.7793126 0.040726691 1.8588588 -2.3820836e+38
2.7793014 0.035795279 1.8588588 -2.3553948e+38
2.7602882 0.030129321 1.8543169 -2.3420502e+38
2.7412753 0.024535753 1.8497751 -2.3287062e+38
2.7412641 0.019676715 1.8497751 -2.3021218e+38
2.7412529 0.014817677 1.8497751 -2.2754858e+38
2.7222404 0.0093688741 1.8452331 -2.262142e+38
2.7222292 0.0045460314 1.8452331 -2.2356611e+38
2.7222183 -0.00027681142 1.8452331 -2.2356608e+38
2.7222071 -0.0050996616 1.8452331 -2.2223164e+38
2.7041953 -0.010344099 1.8409302 -2.2222124e+38
2.7041843 -0.015132654 1.8409302 -2.2221605e+38
2.7041733 -0.019921213 1.8409302 -2.2353489e+38
2.6861615 -0.025028504 1.8366274 -2.2353483e+38
2.6861506 -0.02978278 1.8366274 -2.2219518e+38
2.6861398 -0.034537051 1.8366274 -2.1954187e+38
2.6681283 -0.039507203 1.8323245 -2.1821262e+38
2.6681175 -0.04422719 1.8323245 -2.1688334e+38
2.6681068 -0.048947178 1.8323245 -2.168781e+38
2.6500955 -0.053780187 1.8280216 -2.1687812e+38
2.6500847 -0.058465887 1.8280216 -2.1553853e+38
2.650074 -0.063151591 1.8280216 -2.1420932e+38
2.6500633 -0.06783729 1.8280216 -2.128749e+38
2.6500525 -0.07252299 1.8280216 -2.1155089e+38
2.6680417 -0.077267103 1.8323245 -2.0490477e+38
2.668031 -0.08198709 1.8323245 -1.9825863e+38
2.6680202 -0.086707085 1.8323245 -1.9826901e+38
2.6680093 -0.091427073 1.8323245 -1.9825863e+38
2.6679986 -0.09614706 1.8323245 -1.969294e+38
2.6679876 -0.10086705 1.8323245 -1.9426571e+38
2.6679769 -0.10558704 1.8323245 -1.9426048e+38
2.6679661 -0.11030702 1.8323245 -1.9426567e+38
2.6679552 -0.11502701 1.8323245 -1.9426569e+38
2.6679444 -0.119747 1.8323245 -1.9426052e+38
2.6679335 -0.12446699 1.8323245 -1.9824305e+38
2.6679227 -0.12918697 1.8323245 -2.0090668e+38
2.667912 -0.13390696 1.8323245 -2.0355473e+38
2.667901 -0.13862695 1.8323245 -2.0488396e+38
2.6678903 -0.14334694 1.8323245 -2.0354956e+38
2.6678796 -0.14806692 1.8323245 -2.0088589e+38
2.6678686 -0.15278691 1.8323245 -2.0088068e+38
2.6678579 -0.1575069 1.8323245 -1.9955143e+38
2.6678469 -0.16222689 1.8323245 -1.9689295e+38
2.6678362 -0.16694687 1.8323245 -1.9291046e+38
2.6678255 -0.17166686 1.8323245 -1.9423969e+38
2.6678145 -0.17638685 1.8323245 -1.9426046e+38
2.6678038 -0.18110684 1.8323245 -1.9027797e+38
2.6677928 -0.18582682 1.8323245 -1.8498182e+38
2.6497838 -0.18966556 1.8280216 -1.9430198e+38
2.6497731 -0.19435126 1.8280216 -2.0227738e+38
2.6497624 -0.19903696 1.8280216 -2.0892356e+38
2.6327538 -0.2027932 1.8239579 -2.1423532e+38
2.6327431 -0.20744653 1.8239579 -2.1689384e+38
2.6327324 -0.21209985 1.8239579 -2.1955753e+38
2.6157241 -0.21572658 1.8198941 -2.1823356e+38
2.6157134 -0.22034752 1.8198941 -2.1691471e+38
2.6157029 -0.22496848 1.8198941 -2.1824396e+38
2.6156921 -0.22958942 1.8198941 -2.1825437e+38
2.6156816 -0.23421036 1.8198941 -2.1958363e+38
2.6156712 -0.23883128 1.8198941 -2.1958365e+38
2.615597 -0.27117789 1.8198941 -2.4759687e+38
2.6155863 -0.27579883 1.8198941 -2.4897307e+38
2.6155758 -0.28041977 1.8198941 -2.4368753e+38
2.6325617 -0.286553 1.8239579 -2.3832892e+38
2.632551 -0.2912063 1.8239579 -2.3160471e+38
2.6325405 -0.29585963 1.8239579 -2.2533891e+38
2.6495261 -0.30212241 1.8280216 nan
2.6495154 -0.30680811 1.8280216 nan
2.6495047 -0.31149381 1.8280216 nan
2.7994056 0.081332147 1.8586702 nan
2.7993941 0.07636264 1.8586702 -2.6320972e+38
2.7993829 0.071393132 1.8586702 -2.5545786e+38
2.7993715 0.066423625 1.8586702 -2.4898816e+38
2.79936 0.061454117 1.8586702 -2.4892575e+38
2.7793467 0.055520944 1.8539274 -2.4886845e+38
2.7793353 0.050589524 1.8539274 -2.448598e+38
2.7793241 0.045658104 1.8539274 -2.4085641e+38
2.7793126 0.040726691 1.8539274 -2.3820303e+38
2.7602994 0.035024546 1.8494217 -2.3553936e+38
2.7602882 0.030129321 1.8494217 -2.342049e+38
2.7412753 0.024535753 1.8449159 -2.3287056e+38
2.7412641 0.019676715 1.8449159 -2.3020178e+38
2.7412529 0.014817677 1.8449159 -2.2753298e+38
2.7222404 0.0093688741 1.8404102 -2.2488493e+38
2.7222292 0.0045460314 1.8404102 -2.222213e+38
2.7222183 -0.00027681142 1.8404102 -2.2223168e+38
2.7042062 -0.0055555329 1.8361416 -2.2089722e+38
2.7041953 -0.010344099 1.8361416 -2.2089199e+38
2.7041843 -0.015132654 1.8361416 -2.2088161e+38
2.7041733 -0.019921213 1.8361416 -2.2087641e+38
2.6861615 -0.025028504 1.8318732 -2.208712e+38
2.6861506 -0.02978278 1.8318732 -2.1953674e+38
2.6861398 -0.034537051 1.8318732 -2.1820747e+38
2.6681283 -0.039507203 1.8276045 -2.1688338e+38
2.6681175 -0.04422719 1.8276045 -2.1687814e+38
