# .PCD v0.7 - Point Cloud Data file format
VERSION 0.7
FIELDS x y z rgb
SIZE 4 4 4 4
TYPE F F F F
COUNT 1 1 1 1
WIDTH 1153
HEIGHT 1
VIEWPOINT 0 0 0 1 0 0 0
POINTS 1153
DATA ascii
1.81665 -0.49676275 1.5791017 nan
1.8166347 -0.49985987 1.5791017 nan
1.8166193 -0.50295699 1.5791017 nan
1.8166039 -0.50605404 1.5791017 nan
1.8085991 -0.50700098 1.5774331 nan
1.8165731 -0.51224828 1.5791017 -3.3579456e+38
1.8085685 -0.51316476 1.5774331 -3.3969907e+38
1.8085532 -0.51624656 1.5774331 nan
1.808538 -0.51932847 1.5774331 -3.3563327e+38
1.8085226 -0.52241033 1.5774331 -3.2900263e+38
1.8085073 -0.52549219 1.5774331 -3.2631294e+38
1.8084921 -0.52857405 1.5774331 -3.2363359e+38
1.8084767 -0.53165591 1.5774331 -3.2359195e+38
1.8084614 -0.53473783 1.5774331 -3.2225749e+38
1.8084462 -0.53781968 1.5774331 -3.18249e+38
1.8084308 -0.54090154 1.5774331 -3.1295805e+38
1.8084155 -0.5439834 1.5774331 -3.1297362e+38
1.8084003 -0.54706526 1.5774331 -3.1300492e+38
1.8083849 -0.55014712 1.5774331 -3.2234602e+38
1.8013798 -0.55114758 1.575973 -3.3031103e+38
1.8013645 -0.55421615 1.575973 -3.3028509e+38
1.8013494 -0.55728465 1.575973 -3.290078e+38
1.8013341 -0.56035322 1.575973 nan
1.8013189 -0.56342173 1.575973 nan
1.8013036 -0.56649029 1.575973 nan
1.8012885 -0.5695588 1.575973 nan
1.8012732 -0.57262737 1.575973 nan
1.801258 -0.57569593 1.575973 nan
1.8012427 -0.57876444 1.575973 nan
1.8012275 -0.581833 1.575973 nan
1.8012123 -0.58490157 1.575973 nan
1.8011971 -0.58797008 1.575973 nan
1.7931945 -0.58846176 1.5743046 nan
1.8011665 -0.59410715 1.575973 nan
1.7931641 -0.59456837 1.5743046 -3.3832272e+38
1.793149 -0.59762162 1.5743046 -3.3430388e+38
1.8011209 -0.60331273 1.575973 -3.2625065e+38
1.8011056 -0.60638124 1.575973 -3.1699771e+38
1.8010904 -0.60944974 1.575973 -3.170182e+38
1.8010752 -0.61251831 1.575973 -3.1696628e+38
1.80106 -0.61558688 1.575973 -3.0754743e+38
1.8010447 -0.61865544 1.575973 -2.9825831e+38
1.8080177 -0.62411195 1.5774331 -2.8492958e+38
1.8010143 -0.62479246 1.575973 -2.7032377e+38
1.800999 -0.62786102 1.575973 -2.6497066e+38
1.7929975 -0.62815458 1.5743046 -2.5828263e+38
1.7929823 -0.63120788 1.5743046 -2.8218243e+38
1.8009534 -0.6370666 1.575973 -3.0623867e+38
1.7929521 -0.6373145 1.5743046 -3.1170131e+38
1.7929368 -0.64036775 1.5743046 -3.1563719e+38
1.7929217 -0.64342099 1.5743046 -3.1837887e+38
1.7929065 -0.64647436 1.5743046 -3.2099053e+38
1.7928914 -0.64952761 1.5743046 -3.2102684e+38
1.7928762 -0.65258092 1.5743046 -3.1967688e+38
1.7928611 -0.65563422 1.5743046 -3.2233018e+38
1.792846 -0.65868753 1.5743046 -3.2498866e+38
1.7928307 -0.66174084 1.5743046 -3.2763675e+38
1.800801 -0.66775191 1.575973 -3.2896087e+38
1.8007858 -0.67082047 1.575973 -3.3296421e+38
1.8007705 -0.67388898 1.575973 -3.369311e+38
1.8007554 -0.67695749 1.575973 -3.3956879e+38
1.8007401 -0.68002605 1.575973 nan
1.8007249 -0.68309456 1.575973 -3.3953741e+38
1.8007096 -0.68616319 1.575973 -3.3824985e+38
1.8006943 -0.68923169 1.575973 nan
1.8006792 -0.6923002 1.575973 nan
1.8076507 -0.69807678 1.5774331 nan
1.8076353 -0.70115864 1.5774331 nan
1.80762 -0.70424056 1.5774331 nan
1.8076048 -0.70732236 1.5774331 nan
1.8155739 -0.7135601 1.5791017 nan
1.8075742 -0.71348614 1.5774331 nan
1.8075589 -0.71656799 1.5774331 nan
1.8155278 -0.7228514 1.5791017 nan
1.8155124 -0.72594851 1.5791017 nan
1.815497 -0.72904563 1.5791017 nan
1.8234656 -0.73539001 1.5807703 nan
1.8234502 -0.73850238 1.5807703 nan
1.9499449 -0.43768364 1.6034912 nan
1.9499283 -0.44103408 1.6034912 nan
1.9499116 -0.44438452 1.6034912 nan
1.949895 -0.44773495 1.6034912 nan
1.9408879 -0.44914645 1.6016312 nan
1.9408714 -0.45247972 1.6016312 nan
1.9318645 -0.45383984 1.5997711 nan
1.9228579 -0.45516557 1.5979111 nan
1.9138513 -0.45645708 1.5960512 nan
1.9058437 -0.45793927 1.5943978 nan
1.8968376 -0.45916408 1.5925379 nan
1.8888304 -0.46058345 1.5908844 nan
1.8808235 -0.4619723 1.5892311 nan
1.8718178 -0.46309805 1.5873711 nan
1.8638111 -0.46442407 1.5857178 nan
1.8637953 -0.46761072 1.5857178 nan
1.8557888 -0.46889096 1.5840645 nan
1.8557731 -0.47206235 1.5840645 nan
1.8477669 -0.47329688 1.5824112 nan
1.8477513 -0.47645307 1.5824112 nan
1.8477355 -0.47960919 1.5824112 -3.3429792e+38
1.8477199 -0.48276538 1.5824112 -3.2763635e+38
1.8477043 -0.4859215 1.5824112 -3.2228323e+38
1.8396983 -0.48706466 1.5807579 -3.182748e+38
1.8396828 -0.49020553 1.5807579 -3.1299425e+38
1.8316772 -0.49130297 1.5791045 -3.0766718e+38
1.8316617 -0.49442869 1.5791045 -3.3301617e+38
1.8246552 -0.49573958 1.5776578 nan
1.81665 -0.49676275 1.5760045 nan
1.8166347 -0.49985987 1.5760045 nan
1.8166193 -0.50295699 1.5760045 nan
1.8166039 -0.50605404 1.5760045 nan
1.8165885 -0.50915116 1.5760045 nan
1.8165731 -0.51224828 1.5760045 nan
1.8085685 -0.51316476 1.5743512 nan
1.8085532 -0.51624656 1.5743512 nan
1.808538 -0.51932847 1.5743512 -3.3566954e+38
1.8085226 -0.52241033 1.5743512 -3.2899736e+38
1.8085073 -0.52549219 1.5743512 -3.2499401e+38
1.8084921 -0.52857405 1.5743512 -3.209855e+38
1.8084767 -0.53165591 1.5743512 -3.2095946e+38
1.8084614 -0.53473783 1.5743512 -3.209542e+38
1.8084462 -0.53781968 1.5743512 -3.1960934e+38
1.8084308 -0.54090154 1.5743512 -3.1961457e+38
1.8084155 -0.5439834 1.5743512 -3.1966651e+38
1.8084003 -0.54706526 1.5743512 -3.2100643e+38
1.8083849 -0.55014712 1.5743512 -3.2901324e+38
1.8013798 -0.55114758 1.5729045 -3.3699374e+38
1.8013645 -0.55421615 1.5729045 -3.3700925e+38
1.808339 -0.55939275 1.5743512 -3.3703521e+38
1.8013341 -0.56035322 1.5729045 nan
1.8013189 -0.56342173 1.5729045 nan
1.8013036 -0.56649029 1.5729045 nan
1.8012885 -0.5695588 1.5729045 nan
1.8012732 -0.57262737 1.5729045 nan
1.801258 -0.57569593 1.5729045 nan
1.8012427 -0.57876444 1.5729045 nan
1.8012275 -0.581833 1.5729045 nan
1.8082013 -0.58712959 1.5743512 nan
1.8011971 -0.58797008 1.5729045 -3.3837466e+38
1.8011818 -0.59103858 1.5729045 -3.3435067e+38
1.8011665 -0.59410715 1.5729045 -3.3166104e+38
1.8011514 -0.59717566 1.5729045 -3.1830644e+38
1.8011361 -0.60024416 1.5729045 -3.0501395e+38
1.8011209 -0.60331273 1.5729045 -3.0363777e+38
1.8011056 -0.60638124 1.5729045 -3.0365846e+38
1.8010904 -0.60944974 1.5729045 -3.0362721e+38
1.8010752 -0.61251831 1.5729045 -3.0492508e+38
1.80106 -0.61558688 1.5729045 -3.0087488e+38
1.8010447 -0.61865544 1.5729045 -2.9682501e+38
1.8080177 -0.62411195 1.5743512 -2.9021532e+38
1.8010143 -0.62479246 1.5729045 -2.8354843e+38
1.7930126 -0.62510127 1.5712512 -2.7957634e+38
1.7929975 -0.62815458 1.5712512 -2.7689706e+38
1.7929823 -0.63120788 1.5712512 -2.9028272e+38
1.7929672 -0.63426113 1.5712512 -3.0503424e+38
1.7929521 -0.6373145 1.5712512 -3.0902212e+38
1.7929368 -0.64036775 1.5712512 -3.1301506e+38
1.7929217 -0.64342099 1.5712512 -3.1434435e+38
1.7929065 -0.64647436 1.5712512 -3.1566321e+38
1.7928914 -0.64952761 1.5712512 -3.1432881e+38
1.7928762 -0.65258092 1.5712512 -3.1299961e+38
1.7928611 -0.65563422 1.5712512 -3.156477e+38
1.792846 -0.65868753 1.5712512 -3.1965098e+38
1.8008163 -0.6646834 1.5729045 -3.2363347e+38
1.800801 -0.66775191 1.5729045 -3.2762639e+38
1.7928004 -0.66784739 1.5712512 -3.3027448e+38
1.8007705 -0.67388898 1.5729045 -3.3291217e+38
1.8007554 -0.67695749 1.5729045 -3.3824465e+38
1.8007401 -0.68002605 1.5729045 nan
1.8007249 -0.68309456 1.5729045 nan
1.7927247 -0.68311387 1.5712512 nan
1.7927095 -0.68616724 1.5712512 nan
1.7926943 -0.68922049 1.5712512 nan
1.8076507 -0.69807678 1.5743512 nan
1.8076353 -0.70115864 1.5743512 nan
1.80762 -0.70424056 1.5743512 nan
1.8076048 -0.70732236 1.5743512 nan
1.8155739 -0.7135601 1.5760045 nan
1.8075742 -0.71348614 1.5743512 nan
1.8075589 -0.71656799 1.5743512 nan
1.8155278 -0.7228514 1.5760045 nan
1.8155124 -0.72594851 1.5760045 nan
1.815497 -0.72904563 1.5760045 nan
1.8154817 -0.73214275 1.5760045 nan
1.8154663 -0.7352398 1.5760045 nan
1.8234347 -0.7416147 1.5776578 nan
1.9499449 -0.43768364 1.6001407 nan
1.9499283 -0.44103408 1.6001407 nan
1.9499116 -0.44438452 1.6001407 nan
1.949895 -0.44773495 1.6001407 nan
1.9408879 -0.44914645 1.5982978 nan
1.9408714 -0.45247972 1.5982978 nan
1.9318645 -0.45383984 1.596455 nan
1.9228579 -0.45516557 1.5946121 nan
1.9058599 -0.45467263 1.5911312 nan
1.8968537 -0.45591462 1.5892884 nan
1.8968376 -0.45916408 1.5892884 nan
1.8888304 -0.46058345 1.5876502 nan
1.8808235 -0.4619723 1.5860121 nan
1.8718178 -0.46309805 1.5841693 nan
1.871802 -0.46629989 1.5841693 nan
1.8637953 -0.46761072 1.5825312 nan
1.8557888 -0.46889096 1.580893 nan
1.8557731 -0.47206235 1.580893 nan
1.8557574 -0.47523373 1.580893 nan
1.8477513 -0.47645307 1.579255 -3.3565907e+38
1.8477355 -0.47960919 1.579255 -3.3558589e+38
1.8477199 -0.48276538 1.579255 -3.3424622e+38
1.8477043 -0.4859215 1.579255 -3.2623964e+38
1.8476886 -0.48907769 1.579255 -3.169925e+38
1.8396828 -0.49020553 1.5776169 -3.1838957e+38
1.8316772 -0.49130297 1.5759788 -3.1844172e+38
1.8316617 -0.49442869 1.5759788 nan
1.8246552 -0.49573958 1.5745455 nan
1.8246397 -0.49885195 1.5745455 nan
1.8166347 -0.49985987 1.5729073 nan
1.8166193 -0.50295699 1.5729073 nan
1.8166039 -0.50605404 1.5729073 nan
1.8165885 -0.50915116 1.5729073 nan
1.8165731 -0.51224828 1.5729073 nan
1.8165578 -0.51534539 1.5729073 nan
1.8165424 -0.51844251 1.5729073 nan
1.816527 -0.52153957 1.5729073 -3.3434548e+38
1.8165116 -0.52463669 1.5729073 -3.276733e+38
1.8085073 -0.52549219 1.5712693 -3.2367517e+38
1.8164809 -0.53083086 1.5729073 -3.1832183e+38
1.8164655 -0.53392798 1.5729073 -3.1964061e+38
1.8164501 -0.53702509 1.5729073 -3.1962504e+38
1.8084462 -0.53781968 1.5712693 -3.2227311e+38
1.8084308 -0.54090154 1.5712693 -3.2498359e+38
1.8084155 -0.5439834 1.5712693 -3.2772524e+38
1.8163886 -0.54941356 1.5729073 -3.2903898e+38
1.8163732 -0.55251062 1.5729073 -3.3570597e+38
1.8083696 -0.55322897 1.5712693 nan
1.8163426 -0.55870485 1.5729073 nan
1.8163272 -0.56180197 1.5729073 nan
1.8163118 -0.56489903 1.5729073 nan
1.8083085 -0.56555647 1.5712693 nan
1.8082931 -0.56863832 1.5712693 -3.3971464e+38
1.8082778 -0.57172018 1.5712693 -3.3570092e+38
1.8082626 -0.5748021 1.5712693 -3.3701449e+38
1.8082472 -0.57788396 1.5712693 -3.3699889e+38
1.8082319 -0.58096582 1.5712693 -3.3698329e+38
1.8082167 -0.58404773 1.5712693 -3.3700398e+38
1.8082013 -0.58712959 1.5712693 -3.343195e+38
1.8081861 -0.59021139 1.5712693 -3.303266e+38
1.8081708 -0.59329331 1.5712693 -3.2498373e+38
1.8081554 -0.59637517 1.5712693 -3.1961473e+38
1.8081402 -0.59945709 1.5712693 -2.9823271e+38
1.8081249 -0.60253894 1.5712693 -2.7567727e+38
1.8081095 -0.60562074 1.5712693 -2.8229218e+38
1.8080943 -0.60870266 1.5712693 -2.8894864e+38
1.8010904 -0.60944974 1.5698359 -2.9155512e+38
1.8080636 -0.61486638 1.5712693 -2.9291018e+38
1.80106 -0.61558688 1.5698359 -2.9420814e+38
1.8080331 -0.62103009 1.5712693 -2.955374e+38
1.8080177 -0.62411195 1.5712693 -2.9554783e+38
1.8010143 -0.62479246 1.5698359 -2.9553746e+38
1.800999 -0.62786102 1.5698359 -2.9555304e+38
1.7929975 -0.62815458 1.5681978 -2.9427572e+38
1.7929823 -0.63120788 1.5681978 -2.9967571e+38
1.7929672 -0.63426113 1.5681978 -3.0367911e+38
1.7929521 -0.6373145 1.5681978 -3.0633253e+38
1.7929217 -0.64342099 1.5681978 -3.1030987e+38
1.7929065 -0.64647436 1.5681978 -3.1030985e+38
1.7928914 -0.64952761 1.5681978 -3.0895984e+38
1.7928762 -0.65258092 1.5681978 -3.063169e+38
1.7928611 -0.65563422 1.5681978 -3.1027339e+38
1.792846 -0.65868753 1.5681978 -3.1297873e+38
1.7928307 -0.66174084 1.5681978 -3.1961984e+38
1.800801 -0.66775191 1.5698359 -3.2627116e+38
1.7928004 -0.66784739 1.5681978 -3.2759e+38
1.8007705 -0.67388898 1.5698359 -3.2895572e+38
1.8007554 -0.67695749 1.5698359 -3.369468e+38
1.8007401 -0.68002605 1.5698359 nan
1.8007249 -0.68309456 1.5698359 nan
1.7927247 -0.68311387 1.5681978 nan
1.7927095 -0.68616724 1.5681978 nan
1.7926943 -0.68922049 1.5681978 nan
1.8006639 -0.69536877 1.5698359 nan
1.8006487 -0.69843727 1.5698359 -3.3037342e+38
1.8006334 -0.70150578 1.5698359 nan
1.8076048 -0.70732236 1.5712693 nan
1.8075894 -0.71040428 1.5712693 nan
1.8075742 -0.71348614 1.5712693 nan
1.8155432 -0.71975434 1.5729073 nan
1.8155278 -0.7228514 1.5729073 nan
1.8155124 -0.72594851 1.5729073 nan
1.815497 -0.72904563 1.5729073 nan
1.8154817 -0.73214275 1.5729073 nan
1.8154663 -0.7352398 1.5729073 nan
1.8234347 -0.7416147 1.5745455 nan
1.8234192 -0.74472702 1.5745455 nan
1.9499615 -0.43433321 1.5967902 nan
1.9499449 -0.43768364 1.5967902 nan
1.9499283 -0.44103408 1.5967902 nan
1.9499116 -0.44438452 1.5967902 nan
1.949895 -0.44773495 1.5967902 nan
1.9408879 -0.44914645 1.5949645 nan
1.9408714 -0.45247972 1.5949645 nan
1.9318645 -0.45383984 1.5931388 nan
1.9228579 -0.45516557 1.5913131 nan
1.9058599 -0.45467263 1.5878645 nan
1.8968537 -0.45591462 1.5860388 nan
1.8888465 -0.45734918 1.5844159 nan
1.8808395 -0.45875323 1.5827931 nan
1.8808235 -0.4619723 1.5827931 nan
1.8718178 -0.46309805 1.5809674 nan
1.871802 -0.46629989 1.5809674 nan
1.871786 -0.46950179 1.5809674 nan
1.8637795 -0.4707973 1.5793445 nan
1.8557731 -0.47206235 1.5777216 nan
1.8557574 -0.47523373 1.5777216 nan
1.8557416 -0.47840512 1.5777216 -3.3561246e+38
1.8477355 -0.47960919 1.5760988 -3.2894002e+38
1.8477199 -0.48276538 1.5760988 -3.2094364e+38
1.8477043 -0.4859215 1.5760988 -3.2098491e+38
1.8476886 -0.48907769 1.5760988 -3.2101673e+38
1.8396828 -0.49020553 1.574476 -3.3840641e+38
1.8396672 -0.49334645 1.574476 nan
1.8316617 -0.49442869 1.5728531 nan
1.8246552 -0.49573958 1.5714331 nan
1.8246397 -0.49885195 1.5714331 nan
1.8246243 -0.50196427 1.5714331 nan
1.8246088 -0.50507665 1.5714331 nan
1.8245934 -0.50818896 1.5714331 nan
1.8165885 -0.50915116 1.5698102 nan
1.8165731 -0.51224828 1.5698102 nan
1.8165578 -0.51534539 1.5698102 -3.3704035e+38
1.8165424 -0.51844251 1.5698102 -3.3038378e+38
1.816527 -0.52153957 1.5698102 -3.2767334e+38
1.8165116 -0.52463669 1.5698102 -3.2632328e+38
1.8164963 -0.5277338 1.5698102 -3.2098035e+38
1.8164809 -0.53083086 1.5698102 -3.1696664e+38
1.8164655 -0.53392798 1.5698102 -3.2094907e+38
1.8164501 -0.53702509 1.5698102 -3.2625566e+38
1.8164347 -0.54012221 1.5698102 -3.249732e+38
1.8164194 -0.54321933 1.5698102 -3.2500456e+38
1.816404 -0.54631644 1.5698102 -3.3570087e+38
1.8163886 -0.54941356 1.5698102 nan
1.8163732 -0.55251062 1.5698102 nan
1.816358 -0.55560774 1.5698102 nan
1.8163426 -0.55870485 1.5698102 nan
1.8163272 -0.56180197 1.5698102 nan
1.8163118 -0.56489903 1.5698102 -3.3841144e+38
1.8162965 -0.56799614 1.5698102 -3.3708219e+38
1.8162811 -0.57109326 1.5698102 -3.3568544e+38
1.8162657 -0.57419038 1.5698102 -3.3434573e+38
1.8162503 -0.5772875 1.5698102 -3.3297486e+38
1.8082472 -0.57788396 1.5681874 -3.3164044e+38
1.8082319 -0.58096582 1.5681874 -3.3032157e+38
1.8082167 -0.58404773 1.5681874 -3.303423e+38
1.8082013 -0.58712959 1.5681874 -3.2497343e+38
1.8081861 -0.59021139 1.5681874 -3.209753e+38
1.8081708 -0.59329331 1.5681874 -3.1428754e+38
1.8081554 -0.59637517 1.5681874 -3.0894959e+38
1.8081402 -0.59945709 1.5681874 -2.9559991e+38
1.8081249 -0.60253894 1.5681874 -2.8363688e+38
1.8081095 -0.60562074 1.5681874 -2.8760901e+38
1.8080943 -0.60870266 1.5681874 -2.915811e+38
1.8010904 -0.60944974 1.5667673 -2.9291028e+38
1.8010752 -0.61251831 1.5667673 -2.955791e+38
1.80106 -0.61558688 1.5667673 -2.955531e+38
1.8010447 -0.61865544 1.5667673 -2.968875e+38
1.8080177 -0.62411195 1.5681874 -2.9688227e+38
1.8010143 -0.62479246 1.5667673 -2.9820111e+38
1.800999 -0.62786102 1.5667673 -2.9826342e+38
1.7929975 -0.62815458 1.5651445 -2.9832058e+38
1.7929823 -0.63120788 1.5651445 -3.0232907e+38
1.7929672 -0.63426113 1.5651445 -3.0632205e+38
1.7929521 -0.6373145 1.5651445 -3.0765657e+38
1.7929217 -0.64342099 1.5651445 -3.1163383e+38
1.7929065 -0.64647436 1.5651445 -3.1428184e+38
1.7928914 -0.64952761 1.5651445 -3.1430255e+38
1.792846 -0.65868753 1.5651445 -3.2761568e+38
1.7928307 -0.66174084 1.5651445 -3.342881e+38
1.7928156 -0.66479415 1.5651445 nan
1.7928004 -0.66784739 1.5651445 -3.3828605e+38
1.7927853 -0.6709007 1.5651445 -3.3564346e+38
1.7927701 -0.67395401 1.5651445 nan
1.8007401 -0.68002605 1.5667673 nan
1.7927399 -0.68006063 1.5651445 nan
1.7927247 -0.68311387 1.5651445 nan
1.7927095 -0.68616724 1.5651445 nan
1.7926943 -0.68922049 1.5651445 nan
1.7926792 -0.69227374 1.5651445 nan
1.8006487 -0.69843727 1.5667673 nan
1.8006334 -0.70150578 1.5667673 nan
1.8076048 -0.70732236 1.5681874 nan
1.8075894 -0.71040428 1.5681874 nan
1.8075742 -0.71348614 1.5681874 nan
1.8075589 -0.71656799 1.5681874 nan
1.8075435 -0.71964985 1.5681874 nan
1.8075283 -0.72273171 1.5681874 nan
1.807513 -0.72581357 1.5681874 nan
1.8154817 -0.73214275 1.5698102 nan
1.8154663 -0.7352398 1.5698102 nan
1.8154509 -0.73833698 1.5698102 nan
1.8154355 -0.74143404 1.5698102 nan
1.9499615 -0.43433321 1.5934398 nan
1.9499449 -0.43768364 1.5934398 nan
1.9499283 -0.44103408 1.5934398 nan
1.9499116 -0.44438452 1.5934398 nan
1.949895 -0.44773495 1.5934398 nan
1.9408879 -0.44914645 1.5916312 nan
1.9408714 -0.45247972 1.5916312 nan
1.9318645 -0.45383984 1.5898225 nan
1.9228579 -0.45516557 1.588014 nan
1.9058599 -0.45467263 1.5845978 nan
1.9058437 -0.45793927 1.5845978 nan
1.8888465 -0.45734918 1.5811816 nan
1.8888304 -0.46058345 1.5811816 nan
1.8808235 -0.4619723 1.579574 nan
1.8808075 -0.4651913 1.579574 nan
1.871802 -0.46629989 1.5777655 nan
1.871786 -0.46950179 1.5777655 nan
1.8637795 -0.4707973 1.5761578 nan
1.8637637 -0.47398394 1.5761578 nan
1.8557574 -0.47523373 1.5745502 nan
1.8557416 -0.47840512 1.5745502 -3.3561236e+38
1.8557259 -0.4815765 1.5745502 -3.2229398e+38
1.8477199 -0.48276538 1.5729426 -3.0771912e+38
1.8477043 -0.4859215 1.5729426 -3.1573597e+38
1.8476886 -0.48907769 1.5729426 -3.2377411e+38
1.8476729 -0.49223381 1.5729426 nan
1.8396672 -0.49334645 1.571335 nan
1.8396516 -0.49648738 1.571335 nan
1.8316462 -0.4975543 1.5697274 nan
1.8246397 -0.49885195 1.5683208 nan
1.8246243 -0.50196427 1.5683208 nan
1.8246088 -0.50507665 1.5683208 nan
1.8245934 -0.50818896 1.5683208 nan
1.8245779 -0.51130134 1.5683208 -3.3973527e+38
1.8245624 -0.51441365 1.5683208 -3.3705596e+38
1.8165578 -0.51534539 1.5667131 -3.2905974e+38
1.8165424 -0.51844251 1.5667131 -3.1971872e+38
1.816527 -0.52153957 1.5667131 -3.2230442e+38
1.8165116 -0.52463669 1.5667131 -3.2362838e+38
1.8164963 -0.5277338 1.5667131 -3.1960948e+38
1.8164809 -0.53083086 1.5667131 -3.1562701e+38
1.8164655 -0.53392798 1.5667131 -3.2359201e+38
1.8164501 -0.53702509 1.5667131 -3.3163496e+38
1.8164347 -0.54012221 1.5667131 -3.2902334e+38
1.8164194 -0.54321933 1.5667131 -3.2507218e+38
1.816404 -0.54631644 1.5667131 nan
1.8163886 -0.54941356 1.5667131 nan
1.8163732 -0.55251062 1.5667131 nan
1.816358 -0.55560774 1.5667131 nan
1.8163426 -0.55870485 1.5667131 nan
1.8163272 -0.56180197 1.5667131 -3.3573185e+38
1.8163118 -0.56489903 1.5667131 -3.330629e+38
1.8162965 -0.56799614 1.5667131 -3.303577e+38
1.8162811 -0.57109326 1.5667131 -3.3159346e+38
1.8162657 -0.57419038 1.5667131 -3.329331e+38
1.8162503 -0.5772875 1.5667131 -3.2888832e+38
1.8082472 -0.57788396 1.5651054 -3.2497858e+38
1.8082319 -0.58096582 1.5651054 -3.2364943e+38
1.8082167 -0.58404773 1.5651054 -3.2226289e+38
1.8082013 -0.58712959 1.5651054 -3.1691462e+38
1.8081861 -0.59021139 1.5651054 -3.1158726e+38
1.8081708 -0.59329331 1.5651054 -3.0489433e+38
1.8081554 -0.59637517 1.5651054 -2.969292e+38
1.8081402 -0.59945709 1.5651054 -2.9424466e+38
1.8081249 -0.60253894 1.5651054 -2.9159659e+38
1.8081095 -0.60562074 1.5651054 -2.9292061e+38
1.8080943 -0.60870266 1.5651054 -2.9424466e+38
1.808079 -0.61178452 1.5651054 -2.9557389e+38
1.8010752 -0.61251831 1.5636988 -2.9688235e+38
1.80106 -0.61558688 1.5636988 -2.9686675e+38
1.8010447 -0.61865544 1.5636988 -2.9689272e+38
1.8010294 -0.62172395 1.5636988 -2.9954081e+38
1.8010143 -0.62479246 1.5636988 -3.0092196e+38
1.800999 -0.62786102 1.5636988 -3.0097907e+38
1.7929975 -0.62815458 1.5620911 -3.0099469e+38
1.7929823 -0.63120788 1.5620911 -3.0499801e+38
1.7929672 -0.63426113 1.5620911 -3.0765653e+38
1.7929521 -0.6373145 1.5620911 -3.1031503e+38
1.7929368 -0.64036775 1.5620911 -3.1164425e+38
1.7929217 -0.64342099 1.5620911 -3.1428713e+38
1.7929065 -0.64647436 1.5620911 -3.1698191e+38
1.7928914 -0.64952761 1.5620911 -3.1967152e+38
1.7928611 -0.65563422 1.5620911 -3.3174895e+38
1.792846 -0.65868753 1.5620911 nan
1.7928307 -0.66174084 1.5620911 nan
1.7928156 -0.66479415 1.5620911 nan
1.7928004 -0.66784739 1.5620911 nan
1.7927853 -0.6709007 1.5620911 nan
1.7927701 -0.67395401 1.5620911 nan
1.792755 -0.67700726 1.5620911 nan
1.7927399 -0.68006063 1.5620911 nan
1.7927247 -0.68311387 1.5620911 nan
1.7927095 -0.68616724 1.5620911 nan
1.7926943 -0.68922049 1.5620911 -3.3713415e+38
1.8006639 -0.69536877 1.5636988 nan
1.8006487 -0.69843727 1.5636988 nan
1.8006334 -0.70150578 1.5636988 nan
1.8076048 -0.70732236 1.5651054 nan
1.8075894 -0.71040428 1.5651054 nan
1.8075742 -0.71348614 1.5651054 nan
1.8075589 -0.71656799 1.5651054 nan
1.8075435 -0.71964985 1.5651054 nan
1.8075283 -0.72273171 1.5651054 nan
1.815497 -0.72904563 1.5667131 nan
1.8154817 -0.73214275 1.5667131 nan
1.8154663 -0.7352398 1.5667131 nan
1.8154509 -0.73833698 1.5667131 nan
1.8154355 -0.74143404 1.5667131 nan
1.9499449 -0.43768364 1.5900893 nan
1.9499283 -0.44103408 1.5900893 nan
1.9499116 -0.44438452 1.5900893 nan
1.9409045 -0.44581312 1.5882978 nan
1.9408879 -0.44914645 1.5882978 nan
1.931881 -0.45052367 1.5865064 nan
1.9228742 -0.45186657 1.584715 nan
1.9138676 -0.45317525 1.5829235 nan
1.9058599 -0.45467263 1.5813311 nan
1.8968537 -0.45591462 1.5795398 nan
1.8968376 -0.45916408 1.5795398 nan
1.8888304 -0.46058345 1.5779474 nan
1.8808235 -0.4619723 1.576355 nan
1.8808075 -0.4651913 1.576355 nan
1.871802 -0.46629989 1.5745635 nan
1.871786 -0.46950179 1.5745635 nan
1.8637795 -0.4707973 1.5729711 nan
1.8637637 -0.47398394 1.5729711 nan
1.8637478 -0.47717059 1.5729711 nan
1.8557416 -0.47840512 1.5713788 -3.3695707e+38
1.8557259 -0.4815765 1.5713788 -3.3431942e+38
1.8557101 -0.48474789 1.5713788 -3.3171301e+38
1.8477043 -0.4859215 1.5697864 -3.38406e+38
1.8476886 -0.48907769 1.5697864 nan
1.8476729 -0.49223381 1.5697864 nan
1.8396672 -0.49334645 1.568194 nan
1.8396516 -0.49648738 1.568194 nan
1.8316462 -0.4975543 1.5666016 nan
1.8316307 -0.50068003 1.5666016 nan
1.8246243 -0.50196427 1.5652083 nan
1.8246088 -0.50507665 1.5652083 nan
1.8245934 -0.50818896 1.5652083 -3.3701974e+38
1.8245779 -0.51130134 1.5652083 -3.3304242e+38
1.8245624 -0.51441365 1.5652083 -3.3036828e+38
1.8165578 -0.51534539 1.5636159 -3.2635452e+38
1.8245316 -0.52063835 1.5652083 -3.2238231e+38
1.816527 -0.52153957 1.5636159 -3.2364913e+38
1.8165116 -0.52463669 1.5636159 -3.2494195e+38
1.8164963 -0.5277338 1.5636159 -3.2228341e+38
1.8164809 -0.53083086 1.5636159 -3.2093871e+38
1.8164655 -0.53392798 1.5636159 -3.2632839e+38
1.8164501 -0.53702509 1.5636159 -3.3304218e+38
1.8164347 -0.54012221 1.5636159 -3.3039942e+38
1.8164194 -0.54321933 1.5636159 -3.2779307e+38
1.816404 -0.54631644 1.5636159 -3.3840628e+38
1.8243771 -0.55176181 1.5652083 nan
1.8243617 -0.55487412 1.5652083 nan
1.816358 -0.55560774 1.5636159 -3.384062e+38
1.8243308 -0.56109881 1.5652083 -3.3437159e+38
1.8163272 -0.56180197 1.5636159 -3.317024e+38
1.8163118 -0.56489903 1.5636159 -3.3033127e+38
1.8162965 -0.56799614 1.5636159 -3.2765724e+38
1.8162811 -0.57109326 1.5636159 -3.2760012e+38
1.8162657 -0.57419038 1.5636159 -3.2626067e+38
1.8162503 -0.5772875 1.5636159 -3.2628677e+38
1.8082472 -0.57788396 1.5620235 -3.2504076e+38
1.8082319 -0.58096582 1.5620235 -3.169565e+38
1.8082167 -0.58404773 1.5620235 -3.0884058e+38
1.8082013 -0.58712959 1.5620235 -3.0621291e+38
1.8081861 -0.59021139 1.5620235 -3.0488364e+38
1.8081708 -0.59329331 1.5620235 -2.9823744e+38
1.8081554 -0.59637517 1.5620235 -2.9292055e+38
1.8081402 -0.59945709 1.5620235 -2.8893288e+38
1.8081249 -0.60253894 1.5620235 -2.8628477e+38
1.8081095 -0.60562074 1.5620235 -2.8626396e+38
1.8080943 -0.60870266 1.5620235 -2.8759325e+38
1.808079 -0.61178452 1.5620235 -2.8890694e+38
1.8080636 -0.61486638 1.5620235 -2.9020504e+38
1.80106 -0.61558688 1.5606302 -2.9423945e+38
1.8010447 -0.61865544 1.5606302 -2.9692391e+38
1.8010294 -0.62172395 1.5606302 -2.9961875e+38
1.8010143 -0.62479246 1.5606302 -3.0364278e+38
1.800999 -0.62786102 1.5606302 -3.0366355e+38
1.7929975 -0.62815458 1.5590378 -3.0366363e+38
1.7929823 -0.63120788 1.5590378 -3.0633773e+38
1.7929672 -0.63426113 1.5590378 -3.1032022e+38
1.7929521 -0.6373145 1.5590378 -3.1166502e+38
1.7929368 -0.64036775 1.5590378 -3.143235e+38
1.7929217 -0.64342099 1.5590378 -3.1700272e+38
1.7929065 -0.64647436 1.5590378 -3.1969237e+38
1.7928914 -0.64952761 1.5590378 -3.2501971e+38
1.7928307 -0.66174084 1.5590378 nan
1.7928156 -0.66479415 1.5590378 nan
1.7927701 -0.67395401 1.5590378 nan
1.792755 -0.67700726 1.5590378 nan
1.7927399 -0.68006063 1.5590378 nan
1.7926792 -0.69227374 1.5590378 nan
1.7926641 -0.6953271 1.5590378 nan
1.8006334 -0.70150578 1.5606302 nan
1.8006183 -0.70457435 1.5606302 nan
1.8075894 -0.71040428 1.5620235 nan
1.8075742 -0.71348614 1.5620235 nan
1.8075589 -0.71656799 1.5620235 nan
1.8075435 -0.71964985 1.5620235 nan
1.8075283 -0.72273171 1.5620235 nan
1.807513 -0.72581357 1.5620235 nan
1.8154817 -0.73214275 1.5636159 nan
1.8154663 -0.7352398 1.5636159 nan
1.8154509 -0.73833698 1.5636159 nan
1.8154355 -0.74143404 1.5636159 nan
1.9499449 -0.43768364 1.5867388 nan
1.9499283 -0.44103408 1.5867388 nan
1.9499116 -0.44438452 1.5867388 nan
1.949895 -0.44773495 1.5867388 nan
1.9408879 -0.44914645 1.5849645 nan
1.931881 -0.45052367 1.5831902 nan
1.9228742 -0.45186657 1.5814159 nan
1.9138676 -0.45317525 1.5796416 nan
1.9058599 -0.45467263 1.5780644 nan
1.9058437 -0.45793927 1.5780644 nan
1.8968376 -0.45916408 1.5762902 nan
1.8968215 -0.46241361 1.5762902 nan
1.8888143 -0.46381766 1.5747131 nan
1.8808075 -0.4651913 1.573136 nan
1.8807915 -0.46841025 1.573136 nan
1.871786 -0.46950179 1.5713617 nan
1.8717701 -0.4727037 1.5713617 nan
1.8637637 -0.47398394 1.5697845 nan
1.8637478 -0.47717059 1.5697845 -3.3959481e+38
1.8637321 -0.48035717 1.5697845 -3.3698311e+38
1.8637162 -0.48354381 1.5697845 nan
1.8557101 -0.48474789 1.5682074 nan
1.8556944 -0.48791927 1.5682074 nan
1.8556787 -0.49109066 1.5682074 nan
1.8556629 -0.4942621 1.5682074 nan
1.8476572 -0.49538994 1.5666302 nan
1.8396516 -0.49648738 1.5650531 nan
1.839636 -0.49962825 1.5650531 nan
1.8316307 -0.50068003 1.563476 nan
1.8316152 -0.5038057 1.563476 -3.3969377e+38
1.8315996 -0.50693136 1.563476 -3.356697e+38
1.8315841 -0.51005703 1.563476 -3.3035798e+38
1.8315686 -0.5131827 1.563476 -3.2638068e+38
1.8315531 -0.51630837 1.563476 -3.2235641e+38
1.8245471 -0.51752603 1.5620959 -3.2360751e+38
1.8245316 -0.52063835 1.5620959 -3.2364909e+38
1.8245162 -0.52375066 1.5620959 -3.2495757e+38
1.8245007 -0.52686304 1.5620959 -3.2496286e+38
1.8164963 -0.5277338 1.5605187 -3.2497337e+38
1.8164809 -0.53083086 1.5605187 -3.2502529e+38
1.8164655 -0.53392798 1.5605187 -3.290753e+38
1.8164501 -0.53702509 1.5605187 -3.3305783e+38
1.8244234 -0.54242474 1.5620959 -3.3173905e+38
1.8164194 -0.54321933 1.5605187 -3.3040463e+38
1.8243926 -0.54864943 1.5620959 -3.3304749e+38
1.8243771 -0.55176181 1.5620959 -3.3431968e+38
1.8163732 -0.55251062 1.5605187 -3.3157304e+38
1.816358 -0.55560774 1.5605187 -3.2764754e+38
1.8243308 -0.56109881 1.5620959 -3.2764744e+38
1.8163272 -0.56180197 1.5605187 -3.2763164e+38
1.8163118 -0.56489903 1.5605187 -3.2625027e+38
1.8162965 -0.56799614 1.5605187 -3.2493142e+38
1.8162811 -0.57109326 1.5605187 -3.2223662e+38
1.8162657 -0.57419038 1.5605187 -3.1961457e+38
1.8162503 -0.5772875 1.5605187 -3.2229905e+38
1.8082472 -0.57788396 1.5589416 -3.2495227e+38
1.8082319 -0.58096582 1.5589416 -3.1028919e+38
1.8082167 -0.58404773 1.5589416 -2.9558963e+38
1.8082013 -0.58712959 1.5589416 -2.9687197e+38
1.8081861 -0.59021139 1.5589416 -2.9689787e+38
1.8081708 -0.59329331 1.5589416 -2.9291533e+38
1.8081554 -0.59637517 1.5589416 -2.8892244e+38
1.8081402 -0.59945709 1.5589416 -2.8493473e+38
1.8081249 -0.60253894 1.5589416 -2.7960746e+38
1.8081095 -0.60562074 1.5589416 -2.8092115e+38
1.8080943 -0.60870266 1.5589416 -2.8095234e+38
1.8010904 -0.60944974 1.5575616 -2.8225565e+38
1.8010752 -0.61251831 1.5575616 -2.8362644e+38
1.80106 -0.61558688 1.5575616 -2.9030375e+38
1.8010447 -0.61865544 1.5575616 -2.9699666e+38
1.8010294 -0.62172395 1.5575616 -3.0103112e+38
1.8010143 -0.62479246 1.5575616 -3.0501882e+38
1.7930126 -0.62510127 1.5559845 -3.0636884e+38
1.7929975 -0.62815458 1.5559845 -3.0636371e+38
1.7929823 -0.63120788 1.5559845 -3.0901701e+38
1.7929672 -0.63426113 1.5559845 -3.1168587e+38
1.7929521 -0.6373145 1.5559845 -3.1435993e+38
1.7929217 -0.64342099 1.5559845 -3.1970809e+38
1.7929065 -0.64647436 1.5559845 -3.2237702e+38
1.7928914 -0.64952761 1.5559845 -3.316921e+38
1.792755 -0.67700726 1.5559845 nan
1.7926943 -0.68922049 1.5559845 nan
1.7926792 -0.69227374 1.5559845 nan
1.7926641 -0.6953271 1.5559845 nan
1.8006334 -0.70150578 1.5575616 nan
1.8006183 -0.70457435 1.5575616 nan
1.800603 -0.70764285 1.5575616 nan
1.8075742 -0.71348614 1.5589416 nan
1.8075589 -0.71656799 1.5589416 nan
1.8075435 -0.71964985 1.5589416 nan
1.8075283 -0.72273171 1.5589416 nan
1.807513 -0.72581357 1.5589416 nan
1.8074976 -0.72889549 1.5589416 nan
1.8154663 -0.7352398 1.5605187 nan
1.8154509 -0.73833698 1.5605187 nan
1.8154355 -0.74143404 1.5605187 nan
1.9499449 -0.43768364 1.5833883 nan
1.958919 -0.44292158 1.5851455 nan
1.9499116 -0.44438452 1.5833883 nan
1.949895 -0.44773495 1.5833883 nan
1.9408879 -0.44914645 1.5816312 nan
1.9408714 -0.45247972 1.5816312 nan
1.9228742 -0.45186657 1.5781169 nan
1.9138676 -0.45317525 1.5763597 nan
1.9138513 -0.45645708 1.5763597 nan
1.9058437 -0.45793927 1.5747979 nan
1.9058275 -0.4612059 1.5747979 nan
1.8968215 -0.46241361 1.5730407 nan
1.8968053 -0.46566308 1.5730407 nan
1.8887984 -0.46705192 1.5714788 nan
1.8807915 -0.46841025 1.5699168 nan
1.8807756 -0.47162932 1.5699168 nan
1.8717701 -0.4727037 1.5681598 nan
1.8717543 -0.47590554 1.5681598 nan
1.8717383 -0.47910738 1.5681598 nan
1.8637321 -0.48035717 1.5665978 nan
1.8637162 -0.48354381 1.5665978 nan
1.8637004 -0.48673046 1.5665978 nan
1.8636847 -0.48991704 1.5665978 nan
1.8556787 -0.49109066 1.5650359 nan
1.8636529 -0.49629033 1.5665978 nan
1.8556472 -0.49743342 1.5650359 nan
1.8476416 -0.49854612 1.5634741 nan
1.839636 -0.49962825 1.5619121 nan
1.8396204 -0.50276917 1.5619121 nan
1.8396049 -0.5059101 1.5619121 -3.36978e+38
1.8395892 -0.50905102 1.5619121 -3.3166636e+38
1.8315841 -0.51005703 1.5603502 -3.2768391e+38
1.8315686 -0.5131827 1.5603502 -3.2502547e+38
1.8315531 -0.51630837 1.5603502 -3.2369069e+38
1.8315376 -0.51943403 1.5603502 -3.2497799e+38
1.8245316 -0.52063835 1.5589836 -3.2497815e+38
1.8245162 -0.52375066 1.5589836 -3.2497312e+38
1.8245007 -0.52686304 1.5589836 -3.2631302e+38
1.8244852 -0.52997535 1.5589836 -3.2502042e+38
1.8244698 -0.53308773 1.5589836 -3.2377421e+38
1.8244543 -0.53620005 1.5589836 -3.2639624e+38
1.8244389 -0.53931242 1.5589836 -3.2773064e+38
1.8244234 -0.54242474 1.5589836 -3.2770466e+38
1.8244081 -0.54553705 1.5589836 -3.290337e+38
1.8243926 -0.54864943 1.5589836 -3.30316e+38
1.8243771 -0.55176181 1.5589836 -3.3158302e+38
1.8163732 -0.55251062 1.5574217 -3.2759022e+38
1.816358 -0.55560774 1.5574217 -3.2491617e+38
1.8243308 -0.56109881 1.5589836 -3.2228366e+38
1.8163272 -0.56180197 1.5574217 -3.2093877e+38
1.8163118 -0.56489903 1.5574217 -3.1827504e+38
1.8162965 -0.56799614 1.5574217 -3.1693543e+38
1.8162811 -0.57109326 1.5574217 -3.1294772e+38
1.8162657 -0.57419038 1.5574217 -3.1031002e+38
1.8162503 -0.5772875 1.5574217 -3.0629116e+38
1.8162349 -0.58038455 1.5574217 -3.0362209e+38
1.8082319 -0.58096582 1.5558598 -2.9561016e+38
1.8082167 -0.58404773 1.5558598 -2.8629522e+38
1.8082013 -0.58712959 1.5558598 -2.8758814e+38
1.8081861 -0.59021139 1.5558598 -2.8893808e+38
1.8081708 -0.59329331 1.5558598 -2.8891205e+38
1.8081554 -0.59637517 1.5558598 -2.889068e+38
1.8081402 -0.59945709 1.5558598 -2.875827e+38
1.8081249 -0.60253894 1.5558598 -2.8756206e+38
1.8081095 -0.60562074 1.5558598 -2.9163292e+38
1.8080943 -0.60870266 1.5558598 -2.9430699e+38
1.8010904 -0.60944974 1.5544931 -2.996395e+38
1.8010752 -0.61251831 1.5544931 -3.0497722e+38
1.80106 -0.61558688 1.5544931 -3.050032e+38
1.8010447 -0.61865544 1.5544931 -3.0371036e+38
1.8010294 -0.62172395 1.5544931 -3.0637405e+38
1.7930278 -0.62204796 1.5529312 -3.0903774e+38
1.7930126 -0.62510127 1.5529312 -3.0904297e+38
1.7929975 -0.62815458 1.5529312 -3.1038263e+38
1.7929823 -0.63120788 1.5529312 -3.1170149e+38
1.7929672 -0.63426113 1.5529312 -3.1437037e+38
1.7929521 -0.6373145 1.5529312 -3.1703925e+38
1.7926792 -0.69227374 1.5529312 nan
1.7926641 -0.6953271 1.5529312 nan
1.7926489 -0.69838035 1.5529312 nan
1.8006183 -0.70457435 1.5544931 nan
1.800603 -0.70764285 1.5544931 nan
1.8075742 -0.71348614 1.5558598 nan
1.8075589 -0.71656799 1.5558598 nan
1.8075435 -0.71964985 1.5558598 nan
1.8075283 -0.72273171 1.5558598 nan
1.807513 -0.72581357 1.5558598 nan
1.8074976 -0.72889549 1.5558598 nan
1.8074824 -0.73197734 1.5558598 nan
1.8154509 -0.73833698 1.5574217 nan
1.9499449 -0.43768364 1.5800378 nan
1.958919 -0.44292158 1.5817778 nan
1.9499116 -0.44438452 1.5800378 nan
1.949895 -0.44773495 1.5800378 nan
1.9408879 -0.44914645 1.5782979 nan
1.9408714 -0.45247972 1.5782979 nan
1.9318645 -0.45383984 1.5765579 nan
1.9228579 -0.45516557 1.5748179 nan
1.9138513 -0.45645708 1.5730778 nan
1.9058437 -0.45793927 1.5715312 nan
1.9058275 -0.4612059 1.5715312 nan
1.9058113 -0.46447253 1.5715312 nan
1.8968053 -0.46566308 1.5697912 nan
1.8967892 -0.46891254 1.5697912 nan
1.8887823 -0.47028619 1.5682445 nan
1.8887662 -0.4735204 1.5682445 nan
1.8807596 -0.47484833 1.5666978 nan
1.8717543 -0.47590554 1.5649579 nan
1.8717383 -0.47910738 1.5649579 nan
1.8717225 -0.48230928 1.5649579 nan
1.8717066 -0.48551112 1.5649579 nan
1.8716906 -0.48871297 1.5649579 nan
1.8636847 -0.48991704 1.5634112 nan
1.8636688 -0.49310368 1.5634112 nan
1.8636529 -0.49629033 1.5634112 nan
1.8636371 -0.49947697 1.5634112 nan
1.8556315 -0.50060487 1.5618645 nan
1.847626 -0.50170231 1.5603179 -3.2899218e+38
1.8476102 -0.50485843 1.5603179 -3.3160387e+38
1.8396049 -0.5059101 1.5587711 -3.3429871e+38
1.8395892 -0.50905102 1.5587711 -3.2898703e+38
1.8395736 -0.51219195 1.5587711 -3.2367533e+38
1.839558 -0.51533288 1.5587711 -3.2499937e+38
1.8395425 -0.5184738 1.5587711 -3.2499393e+38
1.8315376 -0.51943403 1.5572245 -3.2630215e+38
1.8315221 -0.52255976 1.5572245 -3.2630223e+38
1.8315066 -0.52568543 1.5572245 -3.2629193e+38
1.831491 -0.5288111 1.5572245 -3.2631809e+38
1.8314755 -0.53193676 1.5572245 -3.250202e+38
1.83146 -0.53506243 1.5572245 -3.2236691e+38
1.8244543 -0.53620005 1.5558711 -3.223461e+38
1.8244389 -0.53931242 1.5558711 -3.2234598e+38
1.8244234 -0.54242474 1.5558711 -3.249628e+38
1.8244081 -0.54553705 1.5558711 -3.2630237e+38
1.8243926 -0.54864943 1.5558711 -3.2760043e+38
1.8243771 -0.55176181 1.5558711 -3.2760568e+38
1.8243617 -0.55487412 1.5558711 -3.2494728e+38
1.816358 -0.55560774 1.5543245 -3.2227846e+38
1.8243308 -0.56109881 1.5558711 -3.1829601e+38
1.8163272 -0.56180197 1.5543245 -3.1296863e+38
1.8242998 -0.56732345 1.5558711 -3.1029452e+38
1.8162965 -0.56799614 1.5543245 -3.076256e+38
1.8162811 -0.57109326 1.5543245 -3.0362745e+38
1.8162657 -0.57419038 1.5543245 -2.9959808e+38
1.8162503 -0.5772875 1.5543245 -2.9159661e+38
1.8162349 -0.58038455 1.5543245 -2.8227115e+38
1.8162196 -0.58348173 1.5543245 -2.7956586e+38
1.8082167 -0.58404773 1.5527778 -2.7692825e+38
1.8082013 -0.58712959 1.5527778 -2.7824198e+38
1.8081861 -0.59021139 1.5527778 -2.7959719e+38
1.8081708 -0.59329331 1.5527778 -2.8356413e+38
1.8081554 -0.59637517 1.5527778 -2.8759333e+38
1.8081402 -0.59945709 1.5527778 -2.915758e+38
1.8081249 -0.60253894 1.5527778 -2.9563105e+38
1.8081095 -0.60562074 1.5527778 -3.0240186e+38
1.8011056 -0.60638124 1.5514245 -3.0768764e+38
1.8010904 -0.60944974 1.5514245 -3.1701305e+38
1.8010752 -0.61251831 1.5514245 -3.2630728e+38
1.80106 -0.61558688 1.5514245 -3.1835272e+38
1.8010447 -0.61865544 1.5514245 -3.103722e+38
1.8010294 -0.62172395 1.5514245 -3.1170668e+38
1.7930278 -0.62204796 1.5498779 -3.1303593e+38
1.7930126 -0.62510127 1.5498779 -3.1304114e+38
1.7929975 -0.62815458 1.5498779 -3.1304636e+38
1.7929823 -0.63120788 1.5498779 -3.1569966e+38
1.7929672 -0.63426113 1.5498779 -3.1703931e+38
1.7926943 -0.68922049 1.5498779 nan
1.7926792 -0.69227374 1.5498779 nan
1.7926641 -0.6953271 1.5498779 nan
1.7926489 -0.69838035 1.5498779 nan
1.8006183 -0.70457435 1.5514245 nan
1.800603 -0.70764285 1.5514245 nan
1.8005878 -0.71071136 1.5514245 nan
1.8075589 -0.71656799 1.5527778 nan
1.8075435 -0.71964985 1.5527778 nan
1.8075283 -0.72273171 1.5527778 nan
1.807513 -0.72581357 1.5527778 nan
1.8074976 -0.72889549 1.5527778 nan
1.8074824 -0.73197734 1.5527778 nan
1.8074671 -0.73505914 1.5527778 nan
1.9499449 -0.43768364 1.5766873 nan
1.958919 -0.44292158 1.5784101 nan
1.9499116 -0.44438452 1.5766873 nan
1.949895 -0.44773495 1.5766873 nan
1.9498783 -0.45108539 1.5766873 nan
1.9408714 -0.45247972 1.5749645 nan
1.9318645 -0.45383984 1.5732417 nan
1.9228579 -0.45516557 1.5715188 nan
1.9228414 -0.45846462 1.5715188 nan
1.9138349 -0.45973897 1.569796 nan
1.9058275 -0.4612059 1.5682645 nan
1.9058113 -0.46447253 1.5682645 nan
1.9057951 -0.46773916 1.5682645 nan
1.8967892 -0.46891254 1.5665417 nan
1.8967731 -0.47216207 1.5665417 nan
1.8887662 -0.4735204 1.5650102 nan
1.8807596 -0.47484833 1.5634788 nan
1.8807435 -0.47806728 1.5634788 nan
1.8717383 -0.47910738 1.5617559 nan
1.8717225 -0.48230928 1.5617559 nan
1.8717066 -0.48551112 1.5617559 nan
1.8716906 -0.48871297 1.5617559 nan
1.8716748 -0.49191487 1.5617559 nan
1.8716589 -0.49511671 1.5617559 nan
1.8636529 -0.49629033 1.5602245 nan
1.8636371 -0.49947697 1.5602245 nan
1.8556315 -0.50060487 1.5586931 -3.3431903e+38
1.847626 -0.50170231 1.5571617 -3.2764194e+38
1.8476102 -0.50485843 1.5571617 -3.303006e+38
1.8475946 -0.50801456 1.5571617 -3.3297464e+38
1.8475789 -0.51117074 1.5571617 -3.3031097e+38
1.8395736 -0.51219195 1.5556302 -3.2764213e+38
1.839558 -0.51533288 1.5556302 -3.2631288e+38
1.8395425 -0.5184738 1.5556302 -3.2630239e+38
1.8395269 -0.52161467 1.5556302 -3.2364381e+38
1.8395113 -0.5247556 1.5556302 -3.2230939e+38
1.8394957 -0.52789652 1.5556302 -3.2230939e+38
1.831491 -0.5288111 1.5540988 -3.2231988e+38
1.8314755 -0.53193676 1.5540988 -3.1966672e+38
1.83146 -0.53506243 1.5540988 -3.169927e+38
1.8314445 -0.5381881 1.5540988 -3.169927e+38
1.831429 -0.54131377 1.5540988 -3.1832173e+38
1.8314135 -0.54443949 1.5540988 -3.1963516e+38
1.8244081 -0.54553705 1.5527588 -3.1962492e+38
1.8313824 -0.55069083 1.5540988 -3.1830619e+38
1.8243771 -0.55176181 1.5527588 -3.1699258e+38
1.8243617 -0.55487412 1.5527588 -3.1563222e+38
1.816358 -0.55560774 1.5512273 -3.1564269e+38
1.8243308 -0.56109881 1.5527588 -3.1029989e+38
1.8163272 -0.56180197 1.5512273 -3.0632773e+38
1.8163118 -0.56489903 1.5512273 -3.0495688e+38
1.8162965 -0.56799614 1.5512273 -3.036327e+38
1.8162811 -0.57109326 1.5512273 -3.0091178e+38
1.8162657 -0.57419038 1.5512273 -2.9817517e+38
1.8162503 -0.5772875 1.5512273 -2.9287875e+38
1.8162349 -0.58038455 1.5512273 -2.8886514e+38
1.8162196 -0.58348173 1.5512273 -2.8753593e+38
1.8082167 -0.58404773 1.549696 -2.8619644e+38
1.8082013 -0.58712959 1.549696 -2.8626924e+38
1.8081861 -0.59021139 1.549696 -2.8491417e+38
1.8081708 -0.59329331 1.549696 -2.9161233e+38
1.8081554 -0.59637517 1.549696 -2.9827926e+38
1.8081402 -0.59945709 1.549696 -2.9963447e+38
1.8081249 -0.60253894 1.549696 -3.0097928e+38
1.8081095 -0.60562074 1.549696 -3.0503965e+38
1.8011056 -0.60638124 1.5483559 -3.0905853e+38
1.7931036 -0.60678148 1.5468245 -3.1568911e+38
1.7930884 -0.60983479 1.5468245 -3.2101126e+38
1.7930733 -0.6128881 1.5468245 -3.1835282e+38
1.8010447 -0.61865544 1.5483559 -3.1568404e+38
1.7930429 -0.61899465 1.5468245 -3.1702372e+38
1.7930278 -0.62204796 1.5468245 -3.1835294e+38
1.7930126 -0.62510127 1.5468245 -3.1836333e+38
1.7929975 -0.62815458 1.5468245 -3.1969779e+38
1.7929823 -0.63120788 1.5468245 -3.2235627e+38
1.7926943 -0.68922049 1.5468245 nan
1.7926792 -0.69227374 1.5468245 nan
1.7926641 -0.6953271 1.5468245 nan
1.7926489 -0.69838035 1.5468245 nan
1.8006183 -0.70457435 1.5483559 nan
1.800603 -0.70764285 1.5483559 nan
1.8075742 -0.71348614 1.549696 nan
1.8075589 -0.71656799 1.549696 nan
1.8075435 -0.71964985 1.549696 nan
1.8075283 -0.72273171 1.549696 nan
1.807513 -0.72581357 1.549696 nan
1.8074976 -0.72889549 1.549696 nan
1.8074824 -0.73197734 1.549696 nan
1.8074671 -0.73505914 1.549696 nan
1.9499449 -0.43768364 1.5733368 nan
1.958919 -0.44292158 1.5750426 nan
1.9499116 -0.44438452 1.5733368 nan
1.949895 -0.44773495 1.5733368 nan
1.9498783 -0.45108539 1.5733368 nan
1.9408714 -0.45247972 1.5716312 nan
1.9318645 -0.45383984 1.5699254 nan
1.9228579 -0.45516557 1.5682198 nan
1.9228414 -0.45846462 1.5682198 nan
1.9138349 -0.45973897 1.566514 nan
1.9138187 -0.4630208 1.566514 nan
1.9138024 -0.46630269 1.566514 nan
1.9057951 -0.46773916 1.5649979 nan
1.9057789 -0.4710058 1.5649979 nan
1.8967731 -0.47216207 1.5632921 nan
1.8967569 -0.47541153 1.5632921 nan
1.8887502 -0.47675467 1.5617759 nan
1.8807435 -0.47806728 1.5602597 nan
1.8807275 -0.48128635 1.5602597 nan
1.8807116 -0.48450536 1.5602597 nan
1.8806956 -0.4877243 1.5602597 nan
1.8716906 -0.48871297 1.5585541 nan
1.8716748 -0.49191487 1.5585541 nan
1.8716589 -0.49511671 1.5585541 -3.3572682e+38
1.8716429 -0.49831855 1.5585541 -3.2630255e+38
1.8716271 -0.50152045 1.5585541 -3.1569974e+38
1.8636214 -0.50266361 1.5570378 -3.2100096e+38
1.8556157 -0.50377625 1.5555216 -3.2632316e+38
1.8556 -0.50694764 1.5555216 -3.2897655e+38
1.8475946 -0.50801456 1.5540054 -3.3031095e+38
1.8475789 -0.51117074 1.5540054 -3.3030054e+38
1.8475633 -0.51432687 1.5540054 -3.3029533e+38
1.839558 -0.51533288 1.5524893 -3.2895572e+38
1.8395425 -0.5184738 1.5524893 -3.2629718e+38
1.8395269 -0.52161467 1.5524893 -3.2230943e+38
1.8395113 -0.5247556 1.5524893 -3.1831656e+38
1.8394957 -0.52789652 1.5524893 -3.1831137e+38
1.83948 -0.53103739 1.5524893 -3.1831662e+38
1.8394645 -0.53417832 1.5524893 -3.1432382e+38
1.83146 -0.53506243 1.5509731 -3.1033614e+38
1.8314445 -0.5381881 1.5509731 -3.1297383e+38
1.831429 -0.54131377 1.5509731 -3.1431849e+38
1.8314135 -0.54443949 1.5509731 -3.1429758e+38
1.831398 -0.54756516 1.5509731 -3.1297358e+38
1.8313824 -0.55069083 1.5509731 -3.0900673e+38
1.8243771 -0.55176181 1.5496464 -3.0498264e+38
1.8243617 -0.55487412 1.5496464 -3.0626509e+38
1.8243462 -0.55798644 1.5496464 -3.0759422e+38
1.8243308 -0.56109881 1.5496464 -3.0359086e+38
1.8163272 -0.56180197 1.5481303 -2.9826356e+38
1.8163118 -0.56489903 1.5481303 -2.9956685e+38
1.8162965 -0.56799614 1.5481303 -2.9956681e+38
1.8162811 -0.57109326 1.5481303 -2.9820641e+38
1.8162657 -0.57419038 1.5481303 -2.9686659e+38
1.8162503 -0.5772875 1.5481303 -2.955268e+38
1.8162349 -0.58038455 1.5481303 -2.9420278e+38
1.8162196 -0.58348173 1.5481303 -2.9552164e+38
1.8082167 -0.58404773 1.5466141 -2.9561004e+38
1.8082013 -0.58712959 1.5466141 -2.9307114e+38
1.8081861 -0.59021139 1.5466141 -2.9035569e+38
1.8081708 -0.59329331 1.5466141 -2.9969674e+38
1.8081554 -0.59637517 1.5466141 -3.0899099e+38
1.8081402 -0.59945709 1.5466141 -3.0769815e+38
1.8081249 -0.60253894 1.5466141 -3.0635856e+38
1.8081095 -0.60562074 1.5466141 -3.090534e+38
1.8011056 -0.60638124 1.5452874 -3.1037228e+38
1.7931036 -0.60678148 1.5437711 -3.1302039e+38
1.7930884 -0.60983479 1.5437711 -3.1569445e+38
1.7930733 -0.6128881 1.5437711 -3.1836331e+38
1.7930582 -0.61594141 1.5437711 -3.1968739e+38
1.7930429 -0.61899465 1.5437711 -3.2101665e+38
1.7930278 -0.62204796 1.5437711 -3.2235107e+38
1.7930126 -0.62510127 1.5437711 -3.2501991e+38
1.7929975 -0.62815458 1.5437711 -3.263388e+38
1.7929823 -0.63120788 1.5437711 -3.2899727e+38
1.7926943 -0.68922049 1.5437711 nan
1.7926792 -0.69227374 1.5437711 nan
1.7926641 -0.6953271 1.5437711 nan
1.7926489 -0.69838035 1.5437711 nan
1.8006183 -0.70457435 1.5452874 nan
1.800603 -0.70764285 1.5452874 nan
1.8075742 -0.71348614 1.5466141 nan
1.8075589 -0.71656799 1.5466141 nan
1.8075435 -0.71964985 1.5466141 nan
1.8075283 -0.72273171 1.5466141 nan
1.807513 -0.72581357 1.5466141 nan
1.8074976 -0.72889549 1.5466141 nan
1.8074824 -0.73197734 1.5466141 nan
1.8074671 -0.73505914 1.5466141 nan
1.9679265 -0.44142437 1.5733635 nan
1.958919 -0.44292158 1.5716749 nan
1.9499116 -0.44438452 1.5699863 nan
1.949895 -0.44773495 1.5699863 nan
1.9498783 -0.45108539 1.5699863 nan
1.9408714 -0.45247972 1.5682979 nan
1.9318645 -0.45383984 1.5666093 nan
1.931848 -0.45715594 1.5666093 nan
1.9228414 -0.45846462 1.5649207 nan
1.9228251 -0.46176362 1.5649207 nan
1.9138187 -0.4630208 1.5632322 nan
1.9138024 -0.46630269 1.5632322 nan
1.9137862 -0.46958452 1.5632322 nan
1.9137698 -0.47286642 1.5632322 nan
1.9057627 -0.47427243 1.5617311 nan
1.9057465 -0.47753906 1.5617311 nan
1.8967408 -0.478661 1.5600426 nan
1.8967247 -0.48191053 1.5600426 nan
1.8807275 -0.48128635 1.5570407 nan
1.8807116 -0.48450536 1.5570407 nan
1.8806956 -0.4877243 1.5570407 nan
1.8806796 -0.49094331 1.5570407 nan
1.8806636 -0.49416238 1.5570407 -3.3571096e+38
1.8716589 -0.49511671 1.5553521 -3.3168668e+38
1.8716429 -0.49831855 1.5553521 -3.2632797e+38
1.8716271 -0.50152045 1.5553521 -3.2100609e+38
1.8716112 -0.5047223 1.5553521 -3.2101148e+38
1.8636055 -0.5058502 1.5538511 -3.2101669e+38
1.8556 -0.50694764 1.5523503 -3.2234075e+38
1.8555843 -0.51011902 1.5523503 -3.2233554e+38
1.8475789 -0.51117074 1.5508492 -3.2364917e+38
1.8475633 -0.51432687 1.5508492 -3.2364396e+38
1.8475475 -0.51748306 1.5508492 -3.2230952e+38
1.8395425 -0.5184738 1.5493484 -3.1964065e+38
1.8395269 -0.52161467 1.5493484 -3.1698737e+38
1.8395113 -0.5247556 1.5493484 -3.1565295e+38
1.8394957 -0.52789652 1.5493484 -3.1432372e+38
1.83948 -0.53103739 1.5493484 -3.1299973e+38
1.8394645 -0.53417832 1.5493484 -3.103361e+38
1.8394489 -0.53731924 1.5493484 -3.0768284e+38
1.8314445 -0.5381881 1.5478474 -3.0767243e+38
1.831429 -0.54131377 1.5478474 -3.0768275e+38
1.8314135 -0.54443949 1.5478474 -3.0764115e+38
1.831398 -0.54756516 1.5478474 -3.0763592e+38
1.8313824 -0.55069083 1.5478474 -3.0496185e+38
1.8243771 -0.55176181 1.5465341 -3.022825e+38
1.8243617 -0.55487412 1.5465341 -3.0225123e+38
1.816358 -0.55560774 1.5450331 -3.0353863e+38
1.8163426 -0.55870485 1.5450331 -3.0087989e+38
1.8163272 -0.56180197 1.5450331 -2.9817998e+38
1.8163118 -0.56489903 1.5450331 -2.968716e+38
1.8162965 -0.56799614 1.5450331 -2.955269e+38
1.8162811 -0.57109326 1.5450331 -2.9554256e+38
1.8162657 -0.57419038 1.5450331 -2.9687687e+38
1.8162503 -0.5772875 1.5450331 -2.9821639e+38
1.8162349 -0.58038455 1.5450331 -3.0087484e+38
1.8162196 -0.58348173 1.5450331 -3.0093196e+38
1.8082167 -0.58404773 1.5435321 -3.0232885e+38
1.8082013 -0.58712959 1.5435321 -2.9970171e+38
1.8081861 -0.59021139 1.5435321 -2.9703299e+38
1.8081708 -0.59329331 1.5435321 -3.0502403e+38
1.8081554 -0.59637517 1.5435321 -3.1168062e+38
1.8011514 -0.59717566 1.5422188 -3.1168585e+38
1.8011361 -0.60024416 1.5422188 -3.1036188e+38
1.8011209 -0.60331273 1.5422188 -3.1302039e+38
1.8011056 -0.60638124 1.5422188 -3.1567372e+38
1.7931036 -0.60678148 1.5407178 -3.1701856e+38
1.7930884 -0.60983479 1.5407178 -3.1836339e+38
1.7930733 -0.6128881 1.5407178 -3.1836341e+38
1.7930582 -0.61594141 1.5407178 -3.1969266e+38
1.7930429 -0.61899465 1.5407178 -3.2235113e+38
1.7930278 -0.62204796 1.5407178 -3.250044e+38
1.7930126 -0.62510127 1.5407178 -3.2633882e+38
1.7929975 -0.62815458 1.5407178 -3.2898693e+38
1.7929823 -0.63120788 1.5407178 -3.3032656e+38
1.7926943 -0.68922049 1.5407178 nan
1.7926792 -0.69227374 1.5407178 nan
1.7926641 -0.6953271 1.5407178 nan
1.7926489 -0.69838035 1.5407178 nan
1.8006183 -0.70457435 1.5422188 nan
1.800603 -0.70764285 1.5422188 nan
1.8075742 -0.71348614 1.5435321 nan
1.8075589 -0.71656799 1.5435321 nan
1.8075435 -0.71964985 1.5435321 nan
1.8075283 -0.72273171 1.5435321 nan
1.807513 -0.72581357 1.5435321 nan
1.8074976 -0.72889549 1.5435321 nan
1.8074824 -0.73197734 1.5435321 nan
1.8074671 -0.73505914 1.5435321 nan
1.9679265 -0.44142437 1.5699788 nan
1.9679097 -0.44480908 1.5699788 nan
1.9589024 -0.44628918 1.5683074 nan
1.9588857 -0.44965672 1.5683074 nan
