# .PCD v0.7 - Point Cloud Data file format
VERSION 0.7
FIELDS x y z rgb
SIZE 4 4 4 4
TYPE F F F F
COUNT 1 1 1 1
WIDTH 1138
HEIGHT 1
VIEWPOINT 0 0 0 1 0 0 0
POINTS 1138
DATA ascii
-0.52319145 -0.62445432 1.6110001 nan
-0.52012289 -0.62445432 1.6110001 nan
-0.51705432 -0.62445432 1.6110001 nan
-0.51398575 -0.62445432 1.6110001 nan
-0.51091719 -0.62445432 1.6110001 nan
-0.50784862 -0.62445432 1.6110001 nan
-0.50227338 -0.62135339 1.603 nan
-0.49922004 -0.62135339 1.603 nan
-0.49616671 -0.62135339 1.603 nan
-0.49557433 -0.62445432 1.6110001 nan
-0.49250576 -0.62445432 1.6110001 nan
-0.48943716 -0.62445432 1.6110001 nan
-0.48848194 -0.62716764 1.618 nan
-0.48540002 -0.62716764 1.618 nan
-0.48231813 -0.62716764 1.618 nan
-0.47923622 -0.62716764 1.618 nan
-0.47615433 -0.62716764 1.618 nan
-0.47307241 -0.62716764 1.618 nan
-0.46795717 -0.62445432 1.6110001 nan
-0.4669086 -0.62716764 1.618 nan
-0.46182004 -0.62445432 1.6110001 nan
-0.45875147 -0.62445432 1.6110001 nan
-0.45568287 -0.62445432 1.6110001 nan
-0.45458099 -0.62716764 1.618 nan
-0.44954574 -0.62445432 1.6110001 nan
-0.44841719 -0.62716764 1.618 nan
-0.44533527 -0.62716764 1.618 nan
-0.44225335 -0.62716764 1.618 nan
-0.43917146 -0.62716764 1.618 nan
-0.43608955 -0.62716764 1.618 nan
-0.43300766 -0.62716764 1.618 nan
-0.42992574 -0.62716764 1.618 nan
-0.42684385 -0.62716764 1.618 nan
-0.42585716 -0.63026863 1.626 nan
-0.42276004 -0.63026863 1.626 nan
-0.41966289 -0.63026863 1.626 nan
-0.41656575 -0.63026863 1.626 nan
-0.4134686 -0.63026863 1.626 nan
-0.4123905 -0.63336957 1.6340001 nan
-0.40727431 -0.63026863 1.626 -3.0343414e+38
-0.40616575 -0.63336957 1.6340001 -2.6487628e+38
-0.40478003 -0.63608289 1.641 -2.6625238e+38
-0.4016543 -0.63608289 1.641 -2.6757117e+38
-0.39852861 -0.63608289 1.641 -2.6624709e+38
-0.39540288 -0.63608289 1.641 -2.6489705e+38
-0.39227718 -0.63608289 1.641 -2.6488663e+38
-0.38915145 -0.63608289 1.641 -2.6487624e+38
-0.38602573 -0.63608289 1.641 -2.6619509e+38
-0.38290003 -0.63608289 1.641 -2.662003e+38
-0.3797743 -0.63608289 1.641 -2.648763e+38
-0.3766486 -0.63608289 1.641 -2.6356261e+38
-0.37534383 -0.63918388 1.649 -2.6622624e+38
-0.37220287 -0.63918388 1.649 -2.6888989e+38
-0.37085241 -0.64228481 1.6570001 -2.688951e+38
-0.36947146 -0.64538574 1.6650001 -2.6890029e+38
-0.36806002 -0.64848673 1.6730001 -2.689055e+38
-0.36858097 -0.65507621 1.6900001 -2.689055e+38
-0.36709145 -0.6581772 1.6980001 -2.7022954e+38
-0.36750004 -0.66476673 1.715 -2.7154317e+38
-0.36423334 -0.66476673 1.715 -2.6886912e+38
-0.36096668 -0.66476673 1.715 -2.6620545e+38
-0.35936859 -0.66786766 1.723 -2.6620026e+38
-0.3560867 -0.66786766 1.723 -2.6620545e+38
-0.35464764 -0.67135626 1.7320001 -2.6487622e+38
-0.35500002 -0.6783334 1.7500001 -2.6355736e+38
-0.35347527 -0.68182194 1.7590001 -2.6090929e+38
-0.35370764 -0.68879908 1.7770001 -2.5826122e+38
-0.35209715 -0.69228768 1.7860001 -2.5960602e+38
-0.34869525 -0.69228768 1.7860001 -2.5958519e+38
-0.34703335 -0.69577622 1.7950001 -2.6089359e+38
-0.34361431 -0.69577622 1.7950001 -2.6087799e+38
-0.34019527 -0.69577622 1.7950001 -2.6219683e+38
-0.33677623 -0.69577622 1.7950001 -2.6220201e+38
-0.33335716 -0.69577622 1.7950001 -2.6353643e+38
-0.32993811 -0.69577622 1.7950001 -2.6486048e+38
-0.32651907 -0.69577622 1.7950001 -2.6751379e+38
-0.32310003 -0.69577622 1.7950001 -2.7018784e+38
-0.31968096 -0.69577622 1.7950001 -2.7152228e+38
-0.31626192 -0.69577622 1.7950001 -2.7285674e+38
-0.31284288 -0.69577622 1.7950001 -2.7153275e+38
-0.30942383 -0.69577622 1.7950001 -2.7020875e+38
-0.30600479 -0.69577622 1.7950001 -2.6755551e+38
-0.30258572 -0.69577622 1.7950001 -2.6491782e+38
-0.30066669 -0.69926482 1.8040001 -2.6759187e+38
-0.29723048 -0.69926482 1.8040001 -2.6892112e+38
-0.29542288 -0.70314097 1.8140001 -2.7423286e+38
-0.29196763 -0.70314097 1.8140001 -2.7957058e+38
-0.29010287 -0.70701718 1.8240001 -2.8489273e+38
-0.2866286 -0.70701718 1.8240001 -2.9023564e+38
-0.28315431 -0.70701718 1.8240001 -2.9290452e+38
-0.27968001 -0.70701718 1.8240001 -2.9557341e+38
-0.27756858 -0.71050578 1.8330001 -2.9822673e+38
-0.27407715 -0.71050578 1.8330001 -2.9956636e+38
-0.27206191 -0.71438193 1.8430001 -2.9823718e+38
-0.26855144 -0.71438193 1.8430001 -2.9690787e+38
-0.26504096 -0.71438193 1.8430001 -2.8493437e+38
-0.26294953 -0.71825814 1.853 -2.7167886e+38
-0.72985339 -0.63025719 1.6340001 nan
-0.72674102 -0.63025719 1.6340001 nan
-0.72362864 -0.63025719 1.6340001 nan
-0.72051626 -0.63025719 1.6340001 nan
-0.71740383 -0.63025719 1.6340001 -2.6215041e+38
-0.71429145 -0.63025719 1.6340001 -2.7683911e+38
-0.70769721 -0.62717146 1.626 -2.9283163e+38
-0.70460004 -0.62717146 1.626 -2.8757208e+38
-0.70150292 -0.62717146 1.626 -2.8226555e+38
-0.70184195 -0.63025719 1.6340001 -2.7695381e+38
-0.69872957 -0.63025719 1.6340001 -2.7296095e+38
-0.6956172 -0.63025719 1.6340001 -2.7295057e+38
-0.69250482 -0.63025719 1.6340001 -2.7161615e+38
-0.69234574 -0.63295716 1.641 -2.7160574e+38
-0.68922007 -0.63295716 1.641 -2.702713e+38
-0.68943912 -0.63604289 1.649 -2.702557e+38
-0.68962765 -0.63912863 1.6570001 -2.7024526e+38
-0.68647146 -0.63912863 1.6570001 -2.7023481e+38
-0.68661433 -0.6422143 1.6650001 -2.6889514e+38
-0.68344289 -0.6422143 1.6650001 -2.648918e+38
-0.67700291 -0.63912863 1.6570001 -2.6220734e+38
-0.67710006 -0.6422143 1.6650001 -2.6087288e+38
-0.67069054 -0.63912863 1.6570001 -2.6086241e+38
-0.66753435 -0.63912863 1.6570001 -2.5818828e+38
-0.65194863 -0.62717146 1.626 -2.5684842e+38
-0.64885145 -0.62717146 1.626 -2.4618839e+38
-0.64257717 -0.62408578 1.618 -2.3686339e+38
-0.63949525 -0.62408578 1.618 -2.6887944e+38
-0.6364134 -0.62408578 1.618 -3.0092739e+38
-0.63333148 -0.62408578 1.618 nan
-0.62752289 -0.62138575 1.6110001 nan
-0.62445432 -0.62138575 1.6110001 nan
-0.62408578 -0.62408578 1.618 nan
-0.61831719 -0.62138575 1.6110001 nan
-0.61219335 -0.61830002 1.603 nan
-0.60914004 -0.61830002 1.603 nan
-0.60608673 -0.61830002 1.603 nan
-0.60303336 -0.61830002 1.603 nan
-0.59998006 -0.61830002 1.603 nan
-0.59692669 -0.61830002 1.603 nan
-0.59387338 -0.61830002 1.603 nan
-0.5937686 -0.62138575 1.6110001 nan
-0.59070003 -0.62138575 1.6110001 nan
-0.58763146 -0.62138575 1.6110001 nan
-0.5845629 -0.62138575 1.6110001 nan
-0.58149433 -0.62138575 1.6110001 nan
-0.57842577 -0.62138575 1.6110001 nan
-0.5753572 -0.62138575 1.6110001 nan
-0.56944668 -0.61830002 1.603 nan
-0.56922007 -0.62138575 1.6110001 nan
-0.56334001 -0.61830002 1.603 nan
-0.5602867 -0.61830002 1.603 nan
-0.56001431 -0.62138575 1.6110001 nan
-0.55694574 -0.62138575 1.6110001 nan
-0.55080861 -0.62138575 1.6110001 nan
-0.54774004 -0.62138575 1.6110001 nan
-0.54467148 -0.62138575 1.6110001 nan
-0.54160291 -0.62138575 1.6110001 nan
-0.53853434 -0.62138575 1.6110001 nan
-0.53546578 -0.62138575 1.6110001 nan
-0.53239715 -0.62138575 1.6110001 nan
-0.52932858 -0.62138575 1.6110001 nan
-0.52626002 -0.62138575 1.6110001 nan
-0.52319145 -0.62138575 1.6110001 nan
-0.52012289 -0.62138575 1.6110001 nan
-0.51705432 -0.62138575 1.6110001 nan
-0.51398575 -0.62138575 1.6110001 nan
-0.51091719 -0.62138575 1.6110001 nan
-0.50784862 -0.62138575 1.6110001 nan
-0.50478005 -0.62138575 1.6110001 nan
-0.50171149 -0.62138575 1.6110001 nan
-0.49864289 -0.62138575 1.6110001 nan
-0.49557433 -0.62138575 1.6110001 nan
-0.49250576 -0.62138575 1.6110001 nan
-0.48943716 -0.62138575 1.6110001 nan
-0.48848194 -0.62408578 1.618 nan
-0.48540002 -0.62408578 1.618 nan
-0.48231813 -0.62408578 1.618 nan
-0.47923622 -0.62408578 1.618 nan
-0.47615433 -0.62408578 1.618 nan
-0.47307241 -0.62408578 1.618 nan
-0.46999052 -0.62408578 1.618 nan
-0.4669086 -0.62408578 1.618 nan
-0.46182004 -0.62138575 1.6110001 nan
-0.45875147 -0.62138575 1.6110001 nan
-0.45766288 -0.62408578 1.618 nan
-0.45458099 -0.62408578 1.618 nan
-0.44954574 -0.62138575 1.6110001 nan
-0.44841719 -0.62408578 1.618 nan
-0.44533527 -0.62408578 1.618 nan
-0.44225335 -0.62408578 1.618 nan
-0.43917146 -0.62408578 1.618 nan
-0.43608955 -0.62408578 1.618 nan
-0.43300766 -0.62408578 1.618 nan
-0.42992574 -0.62408578 1.618 nan
-0.42684385 -0.62408578 1.618 nan
-0.42585716 -0.62717146 1.626 nan
-0.42276004 -0.62717146 1.626 nan
-0.41966289 -0.62717146 1.626 nan
-0.41656575 -0.62717146 1.626 nan
-0.4134686 -0.62717146 1.626 nan
-0.4123905 -0.63025719 1.6340001 -3.3707604e+38
-0.40927812 -0.63025719 1.6340001 -2.9955048e+38
-0.40616575 -0.63025719 1.6340001 -2.6349006e+38
-0.40478003 -0.63295716 1.641 -2.6488685e+38
-0.4016543 -0.63295716 1.641 -2.6624717e+38
-0.39852861 -0.63295716 1.641 -2.6490748e+38
-0.39540288 -0.63295716 1.641 -2.622334e+38
-0.39227718 -0.63295716 1.641 -2.6222817e+38
-0.38915145 -0.63295716 1.641 -2.6221261e+38
-0.38602573 -0.63295716 1.641 -2.6221261e+38
-0.38290003 -0.63295716 1.641 -2.6354184e+38
-0.3797743 -0.63295716 1.641 -2.6354701e+38
-0.3766486 -0.63295716 1.641 -2.6355219e+38
-0.37534383 -0.63604289 1.649 -2.662262e+38
-0.37220287 -0.63604289 1.649 -2.6889508e+38
-0.37085241 -0.63912863 1.6570001 -2.688951e+38
-0.36769623 -0.63912863 1.6570001 -2.7022437e+38
-0.36630002 -0.6422143 1.6650001 -2.7022958e+38
-0.36858097 -0.6518572 1.6900001 -2.7022437e+38
-0.36709145 -0.65494293 1.6980001 -2.7021396e+38
-0.36750004 -0.66150004 1.715 -2.7020356e+38
-0.36423334 -0.66150004 1.715 -2.6753989e+38
-0.36265051 -0.66458577 1.723 -2.6487624e+38
-0.35936859 -0.66458577 1.723 -2.6354182e+38
-0.3560867 -0.66458577 1.723 -2.6354701e+38
-0.35464764 -0.6680572 1.7320001 -2.6221777e+38
-0.35500002 -0.67500007 1.7500001 -2.6222296e+38
-0.35347527 -0.67847145 1.7590001 -2.6090931e+38
-0.35370764 -0.68541431 1.7770001 -2.5958527e+38
-0.35209715 -0.68888575 1.7860001 -2.6091967e+38
-0.35045239 -0.69235718 1.7950001 -2.6224365e+38
-0.34703335 -0.69235718 1.7950001 -2.6221762e+38
-0.34361431 -0.69235718 1.7950001 -2.6219683e+38
-0.34019527 -0.69235718 1.7950001 -2.6219681e+38
-0.33677623 -0.69235718 1.7950001 -2.6219681e+38
-0.33335716 -0.69235718 1.7950001 -2.6219681e+38
-0.32993811 -0.69235718 1.7950001 -2.6352606e+38
-0.32651907 -0.69235718 1.7950001 -2.661949e+38
-0.32310003 -0.69235718 1.7950001 -2.6885859e+38
-0.31968096 -0.69235718 1.7950001 -2.7018784e+38
-0.31626192 -0.69235718 1.7950001 -2.7018786e+38
-0.31284288 -0.69235718 1.7950001 -2.7019827e+38
-0.30942383 -0.69235718 1.7950001 -2.7019833e+38
-0.30600479 -0.69235718 1.7950001 -2.6755549e+38
-0.30258572 -0.69235718 1.7950001 -2.6490742e+38
-0.30066669 -0.69582862 1.8040001 -2.6624703e+38
-0.2988781 -0.69968575 1.8140001 -2.6891072e+38
-0.29542288 -0.69968575 1.8140001 -2.7290881e+38
-0.29196763 -0.69968575 1.8140001 -2.7824136e+38
-0.29010287 -0.70354289 1.8240001 -2.8223427e+38
-0.2866286 -0.70354289 1.8240001 -2.8756159e+38
-0.28455144 -0.70701432 1.8330001 -2.9022524e+38
-0.27968001 -0.70354289 1.8240001 -2.9422337e+38
-0.27756858 -0.70701432 1.8330001 -2.9556302e+38
-0.27407715 -0.70701432 1.8330001 -2.9690265e+38
-0.27206191 -0.71087146 1.8430001 -2.9691306e+38
-0.26855144 -0.71087146 1.8430001 -2.969234e+38
-0.26504096 -0.71087146 1.8430001 -2.8759278e+38
-0.26294953 -0.71472859 1.853 -2.7824188e+38
-0.72985435 -0.62983149 1.641 nan
-0.72362864 -0.62714481 1.6340001 nan
-0.72051626 -0.62714481 1.6340001 nan
-0.71740383 -0.62714481 1.6340001 -2.4758583e+38
-0.71079433 -0.62407434 1.626 -2.741909e+38
-0.70769721 -0.62407434 1.626 -3.0083807e+38
-0.70460004 -0.62407434 1.626 -2.9025647e+38
-0.70150292 -0.62407434 1.626 -2.7961226e+38
-0.69840574 -0.62407434 1.626 -2.7695902e+38
-0.69872957 -0.62714481 1.6340001 -2.7295055e+38
-0.6956172 -0.62714481 1.6340001 -2.7161093e+38
-0.69250482 -0.62714481 1.6340001 -2.6894727e+38
-0.69234574 -0.62983149 1.641 -2.702713e+38
-0.69258004 -0.63290197 1.649 -2.7025568e+38
-0.68943912 -0.63290197 1.649 -2.7156932e+38
-0.68962765 -0.63597244 1.6570001 -2.7156923e+38
-0.68978578 -0.63904291 1.6650001 -2.7155877e+38
-0.68661433 -0.63904291 1.6650001 -2.702139e+38
-0.68344289 -0.63904291 1.6650001 -2.6753983e+38
-0.68027145 -0.63904291 1.6650001 -2.6353653e+38
-0.67710006 -0.63904291 1.6650001 -2.6219168e+38
-0.67392862 -0.63904291 1.6650001 -2.6085201e+38
-0.66753435 -0.63597244 1.6570001 -2.5818311e+38
-0.65194863 -0.62407434 1.626 -2.5551928e+38
-0.64885145 -0.62407434 1.626 -2.4885221e+38
-0.64257717 -0.62100387 1.618 -2.4221156e+38
-0.63949525 -0.62100387 1.618 -2.6884835e+38
-0.6364134 -0.62100387 1.618 -2.9431243e+38
-0.63333148 -0.62100387 1.618 nan
-0.62752289 -0.61831719 1.6110001 nan
-0.62445432 -0.61831719 1.6110001 nan
-0.62408578 -0.62100387 1.618 nan
-0.61524671 -0.61524671 1.603 nan
-0.61219335 -0.61524671 1.603 nan
-0.60914004 -0.61524671 1.603 nan
-0.60608673 -0.61524671 1.603 nan
-0.60303336 -0.61524671 1.603 nan
-0.59998006 -0.61524671 1.603 nan
-0.59692669 -0.61524671 1.603 nan
-0.59387338 -0.61524671 1.603 nan
-0.59082001 -0.61524671 1.603 nan
-0.59070003 -0.61831719 1.6110001 nan
-0.58763146 -0.61831719 1.6110001 nan
-0.5845629 -0.61831719 1.6110001 nan
-0.58149433 -0.61831719 1.6110001 nan
-0.57842577 -0.61831719 1.6110001 nan
-0.5753572 -0.61831719 1.6110001 nan
-0.57228863 -0.61831719 1.6110001 nan
-0.56922007 -0.61831719 1.6110001 nan
-0.56615144 -0.61831719 1.6110001 nan
-0.56001431 -0.61831719 1.6110001 nan
-0.55694574 -0.61831719 1.6110001 nan
-0.55080861 -0.61831719 1.6110001 nan
-0.54774004 -0.61831719 1.6110001 nan
-0.54467148 -0.61831719 1.6110001 nan
-0.54160291 -0.61831719 1.6110001 nan
-0.53586006 -0.61524671 1.603 nan
-0.53546578 -0.61831719 1.6110001 nan
-0.52975339 -0.61524671 1.603 nan
-0.52670002 -0.61524671 1.603 nan
-0.52626002 -0.61831719 1.6110001 nan
-0.52319145 -0.61831719 1.6110001 nan
-0.52012289 -0.61831719 1.6110001 nan
-0.51705432 -0.61831719 1.6110001 nan
-0.51091719 -0.61831719 1.6110001 nan
-0.50784862 -0.61831719 1.6110001 nan
-0.50478005 -0.61831719 1.6110001 nan
-0.50171149 -0.61831719 1.6110001 nan
-0.49864289 -0.61831719 1.6110001 nan
-0.49557433 -0.61831719 1.6110001 nan
-0.49250576 -0.61831719 1.6110001 nan
-0.48943716 -0.61831719 1.6110001 nan
-0.48848194 -0.62100387 1.618 nan
-0.48540002 -0.62100387 1.618 nan
-0.48231813 -0.62100387 1.618 nan
-0.47923622 -0.62100387 1.618 nan
-0.47615433 -0.62100387 1.618 nan
-0.47307241 -0.62100387 1.618 nan
-0.46999052 -0.62100387 1.618 nan
-0.4669086 -0.62100387 1.618 nan
-0.46382669 -0.62100387 1.618 nan
-0.45875147 -0.61831719 1.6110001 nan
-0.45766288 -0.62100387 1.618 nan
-0.45458099 -0.62100387 1.618 nan
-0.44954574 -0.61831719 1.6110001 nan
-0.44647717 -0.61831719 1.6110001 nan
-0.44533527 -0.62100387 1.618 nan
-0.44225335 -0.62100387 1.618 nan
-0.43917146 -0.62100387 1.618 nan
-0.43608955 -0.62100387 1.618 nan
-0.43300766 -0.62100387 1.618 nan
-0.42992574 -0.62100387 1.618 nan
-0.42684385 -0.62100387 1.618 nan
-0.42585716 -0.62407434 1.626 nan
-0.42276004 -0.62407434 1.626 nan
-0.41966289 -0.62407434 1.626 nan
-0.41656575 -0.62407434 1.626 nan
-0.4134686 -0.62407434 1.626 nan
-0.4123905 -0.62714481 1.6340001 -3.3033668e+38
-0.40927812 -0.62714481 1.6340001 -2.9552682e+38
-0.40616575 -0.62714481 1.6340001 -2.608941e+38
-0.40478003 -0.62983149 1.641 -2.6355762e+38
-0.4016543 -0.62983149 1.641 -2.6490756e+38
-0.39852861 -0.62983149 1.641 -2.6224385e+38
-0.39540288 -0.62983149 1.641 -2.5958016e+38
-0.39227718 -0.62983149 1.641 -2.5956973e+38
-0.38915145 -0.62983149 1.641 -2.5823531e+38
-0.38790765 -0.63290197 1.649 -2.5956454e+38
-0.38290003 -0.62983149 1.641 -2.608886e+38
-0.3797743 -0.62983149 1.641 -2.6221783e+38
-0.37848479 -0.63290197 1.649 -2.6222821e+38
-0.37534383 -0.63290197 1.649 -2.6490224e+38
-0.37220287 -0.63290197 1.649 -2.675607e+38
-0.37085241 -0.63597244 1.6570001 -2.6889512e+38
-0.36769623 -0.63597244 1.6570001 -2.7021916e+38
-0.36454001 -0.63597244 1.6570001 -2.715536e+38
-0.36661813 -0.64518386 1.6810001 -2.7154317e+38
-0.36536193 -0.64863813 1.6900001 -2.7020354e+38
-0.36750004 -0.6582334 1.715 -2.6753987e+38
-0.36423334 -0.6582334 1.715 -2.6620026e+38
-0.36265051 -0.66130388 1.723 -2.6354182e+38
-0.35936859 -0.66130388 1.723 -2.6219702e+38
-0.35794669 -0.66475815 1.7320001 -2.5954895e+38
-0.35464764 -0.66475815 1.7320001 -2.5955412e+38
-0.35500002 -0.67166668 1.7500001 -2.5956448e+38
-0.35347527 -0.67512101 1.7590001 -2.5958006e+38
-0.35370764 -0.68202955 1.7770001 -2.5958521e+38
-0.35209715 -0.68548387 1.7860001 -2.6224884e+38
-0.35045239 -0.68893814 1.7950001 -2.6356243e+38
-0.34877336 -0.69239241 1.8040001 -2.6353123e+38
-0.34533715 -0.69239241 1.8040001 -2.63526e+38
-0.34019527 -0.68893814 1.7950001 -2.6219156e+38
-0.33677623 -0.68893814 1.7950001 -2.6086233e+38
-0.33335716 -0.68893814 1.7950001 -2.6086233e+38
-0.32993811 -0.68893814 1.7950001 -2.6087272e+38
-0.32651907 -0.68893814 1.7950001 -2.6487081e+38
-0.32310003 -0.68893814 1.7950001 -2.6752413e+38
-0.31968096 -0.68893814 1.7950001 -2.6751898e+38
-0.31626192 -0.68893814 1.7950001 -2.6752938e+38
-0.31284288 -0.68893814 1.7950001 -2.6886384e+38
-0.30942383 -0.68893814 1.7950001 -2.7019829e+38
-0.30600479 -0.68893814 1.7950001 -2.6755025e+38
-0.30258572 -0.68893814 1.7950001 -2.6490738e+38
-0.29916668 -0.68893814 1.7950001 -2.662418e+38
-0.29723048 -0.69239241 1.8040001 -2.6758143e+38
-0.29542288 -0.69623053 1.8140001 -2.715795e+38
-0.29196763 -0.69623053 1.8140001 -2.7557761e+38
-0.29010287 -0.70006859 1.8240001 -2.7956016e+38
-0.28804287 -0.70352292 1.8330001 -2.8355825e+38
-0.28455144 -0.70352292 1.8330001 -2.8754076e+38
-0.28106001 -0.70352292 1.8330001 -2.9154925e+38
-0.27756858 -0.70352292 1.8330001 -2.9288891e+38
-0.27407715 -0.70352292 1.8330001 -2.9290454e+38
-0.27058575 -0.70352292 1.8330001 -2.9557862e+38
-0.26709431 -0.70352292 1.8330001 -2.9691825e+38
-0.26504096 -0.70736098 1.8430001 -2.9027732e+38
-0.26294953 -0.7111991 1.853 -2.8360534e+38
-0.72985435 -0.62670577 1.641 nan
-0.72362864 -0.62403244 1.6340001 nan
-0.72051626 -0.62403244 1.6340001 nan
-0.71740383 -0.62403244 1.6340001 -2.4084607e+38
-0.71079433 -0.62097716 1.626 -2.715323e+38
-0.70769721 -0.62097716 1.626 -3.0219837e+38
-0.70460004 -0.62097716 1.626 -2.9289931e+38
-0.70150292 -0.62097716 1.626 -2.8491879e+38
-0.70184195 -0.62403244 1.6340001 -2.8092594e+38
-0.69872957 -0.62403244 1.6340001 -2.7692265e+38
-0.69859719 -0.62670577 1.641 -2.7292455e+38
-0.69547147 -0.62670577 1.641 -2.702557e+38
-0.69234574 -0.62670577 1.641 -2.7025568e+38
-0.69258004 -0.62976098 1.649 -2.7024526e+38
-0.68943912 -0.62976098 1.649 -2.7024003e+38
-0.68962765 -0.63281626 1.6570001 -2.7156396e+38
-0.68978578 -0.63587147 1.6650001 -2.7021905e+38
-0.68661433 -0.63587147 1.6650001 -2.6887423e+38
-0.68344289 -0.63587147 1.6650001 -2.6488131e+38
-0.68027145 -0.63587147 1.6650001 -2.6221245e+38
-0.67710006 -0.63587147 1.6650001 -2.6086761e+38
-0.67392862 -0.63587147 1.6650001 -2.5951757e+38
-0.66753435 -0.63281626 1.6570001 -2.5685907e+38
-0.65194863 -0.62097716 1.626 -2.5419534e+38
-0.64885145 -0.62097716 1.626 -2.4886275e+38
-0.64257717 -0.61792195 1.618 -2.421857e+38
-0.63949525 -0.61792195 1.618 -2.6619513e+38
-0.6364134 -0.61792195 1.618 -2.9158128e+38
-0.63333148 -0.61792195 1.618 -3.3439278e+38
-0.63024956 -0.61792195 1.618 nan
-0.62716764 -0.61792195 1.618 nan
-0.62408578 -0.61792195 1.618 nan
-0.61831719 -0.61524862 1.6110001 nan
-0.61219335 -0.61219335 1.603 nan
-0.60914004 -0.61219335 1.603 nan
-0.60608673 -0.61219335 1.603 nan
-0.60303336 -0.61219335 1.603 nan
-0.59998006 -0.61219335 1.603 nan
-0.59692669 -0.61219335 1.603 nan
-0.59387338 -0.61219335 1.603 nan
-0.5937686 -0.61524862 1.6110001 nan
-0.59070003 -0.61524862 1.6110001 nan
-0.58763146 -0.61524862 1.6110001 nan
-0.5845629 -0.61524862 1.6110001 nan
-0.58149433 -0.61524862 1.6110001 nan
-0.57842577 -0.61524862 1.6110001 nan
-0.5753572 -0.61524862 1.6110001 nan
-0.57228863 -0.61524862 1.6110001 nan
-0.56922007 -0.61524862 1.6110001 nan
-0.56334001 -0.61219335 1.603 nan
-0.54467148 -0.61524862 1.6110001 nan
-0.53891337 -0.61219335 1.603 nan
-0.53586006 -0.61219335 1.603 nan
-0.53280669 -0.61219335 1.603 nan
-0.52975339 -0.61219335 1.603 nan
-0.52670002 -0.61219335 1.603 nan
-0.52626002 -0.61524862 1.6110001 nan
-0.52546477 -0.61792195 1.618 nan
-0.52238292 -0.61792195 1.618 nan
-0.519301 -0.61792195 1.618 nan
-0.51091719 -0.61524862 1.6110001 nan
-0.50784862 -0.61524862 1.6110001 nan
-0.50227338 -0.61219335 1.603 nan
-0.50171149 -0.61524862 1.6110001 nan
-0.49864289 -0.61524862 1.6110001 nan
-0.49557433 -0.61524862 1.6110001 nan
-0.49250576 -0.61524862 1.6110001 nan
-0.48943716 -0.61524862 1.6110001 nan
-0.48848194 -0.61792195 1.618 nan
-0.48540002 -0.61792195 1.618 nan
-0.48231813 -0.61792195 1.618 nan
-0.47923622 -0.61792195 1.618 nan
-0.47615433 -0.61792195 1.618 nan
-0.47307241 -0.61792195 1.618 nan
-0.46999052 -0.61792195 1.618 nan
-0.4669086 -0.61792195 1.618 nan
-0.46382669 -0.61792195 1.618 nan
-0.45875147 -0.61524862 1.6110001 nan
-0.45766288 -0.61792195 1.618 nan
-0.45458099 -0.61792195 1.618 nan
-0.45149907 -0.61792195 1.618 nan
-0.44841719 -0.61792195 1.618 nan
-0.44533527 -0.61792195 1.618 nan
-0.44225335 -0.61792195 1.618 nan
-0.43917146 -0.61792195 1.618 nan
-0.43608955 -0.61792195 1.618 nan
-0.43300766 -0.61792195 1.618 nan
-0.42992574 -0.61792195 1.618 nan
-0.4289543 -0.62097716 1.626 nan
-0.42585716 -0.62097716 1.626 nan
-0.42484003 -0.62403244 1.6340001 nan
-0.42172766 -0.62403244 1.6340001 nan
-0.41451621 -0.61792195 1.618 nan
-0.41728288 -0.62670577 1.641 nan
-0.41415718 -0.62670577 1.641 -3.3173885e+38
-0.41103145 -0.62670577 1.641 -2.9424468e+38
-0.40616575 -0.62403244 1.6340001 -2.5688063e+38
-0.40478003 -0.62670577 1.641 -2.6223359e+38
-0.4016543 -0.62670577 1.641 -2.6624198e+38
-0.40047145 -0.62976098 1.649 -2.6357827e+38
-0.39540288 -0.62670577 1.641 -2.5958535e+38
-0.39227718 -0.62670577 1.641 -2.5957493e+38
-0.38915145 -0.62670577 1.641 -2.5957493e+38
-0.38790765 -0.62976098 1.649 -2.5956973e+38
-0.3847667 -0.62976098 1.649 -2.5955939e+38
-0.3797743 -0.62670577 1.641 -2.6089383e+38
-0.37848479 -0.62976098 1.649 -2.6223346e+38
-0.37534383 -0.62976098 1.649 -2.6489192e+38
-0.37220287 -0.62976098 1.649 -2.6755555e+38
-0.37085241 -0.63281626 1.6570001 -2.6755553e+38
-0.36769623 -0.63281626 1.6570001 -2.6755032e+38
-0.36454001 -0.63281626 1.6570001 -2.6755549e+38
-0.3631286 -0.63587147 1.6650001 -2.6887429e+38
-0.36882097 -0.65152955 1.7060001 -2.6755021e+38
-0.36557144 -0.65152955 1.7060001 -2.6621581e+38
-0.36423334 -0.65496671 1.715 -2.6487101e+38
-0.36265051 -0.65802193 1.723 -2.6487103e+38
-0.35936859 -0.65802193 1.723 -2.6353144e+38
-0.35794669 -0.66145909 1.7320001 -2.6087817e+38
-0.35464764 -0.66145909 1.7320001 -2.6088335e+38
-0.35500002 -0.66833335 1.7500001 -2.6222294e+38
-0.35528383 -0.67520767 1.7680001 -2.6089886e+38
-0.35729051 -0.6855191 1.7950001 -2.5957998e+38
-0.35564575 -0.68895626 1.8040001 -2.6090916e+38
-0.35416192 -0.69277531 1.8140001 -2.635572e+38
-0.34877336 -0.68895626 1.8040001 -2.6353637e+38
-0.34533715 -0.68895626 1.8040001 -2.6352077e+38
-0.34190097 -0.68895626 1.8040001 -2.621915e+38
-0.33677623 -0.6855191 1.7950001 -2.6086227e+38
-0.33335716 -0.6855191 1.7950001 -2.6086225e+38
-0.33159241 -0.68895626 1.8040001 -2.6087266e+38
-0.32651907 -0.6855191 1.7950001 -2.6353113e+38
-0.32472003 -0.68895626 1.8040001 -2.6485525e+38
-0.32128382 -0.68895626 1.8040001 -2.6618973e+38
-0.31784764 -0.68895626 1.8040001 -2.6619496e+38
-0.31441146 -0.68895626 1.8040001 -2.675346e+38
-0.30942383 -0.6855191 1.7950001 -2.6886904e+38
-0.30600479 -0.6855191 1.7950001 -2.6622616e+38
-0.30258572 -0.6855191 1.7950001 -2.6490733e+38
-0.29916668 -0.6855191 1.7950001 -2.6491772e+38
-0.29723048 -0.68895626 1.8040001 -2.6625214e+38
-0.29542288 -0.69277531 1.8140001 -2.6892096e+38
-0.29357716 -0.69659436 1.8240001 -2.7291907e+38
-0.2915343 -0.70003146 1.8330001 -2.769016e+38
-0.28804287 -0.70003146 1.8330001 -2.8089452e+38
-0.28455144 -0.70003146 1.8330001 -2.8488741e+38
-0.28106001 -0.70003146 1.8330001 -2.8889072e+38
-0.27756858 -0.70003146 1.8330001 -2.9155441e+38
-0.27407715 -0.70003146 1.8330001 -2.9422852e+38
-0.27206191 -0.70385051 1.8430001 -2.9689744e+38
-0.26855144 -0.70385051 1.8430001 -3.00906e+38
-0.26647907 -0.70766956 1.853 -2.9821647e+38
-0.26436859 -0.7114886 1.863 -2.9550593e+38
-0.72985435 -0.62358004 1.641 nan
-0.72362864 -0.62092006 1.6340001 nan
-0.72051626 -0.62092006 1.6340001 nan
-0.71389145 -0.61788005 1.626 -2.3428301e+38
-0.71079433 -0.61788005 1.626 -2.6888421e+38
-0.70769721 -0.61788005 1.626 -3.0217235e+38
-0.70460004 -0.61788005 1.626 -2.9555249e+38
-0.70150292 -0.61788005 1.626 -2.8889082e+38
-0.69840574 -0.61788005 1.626 -2.8489279e+38
-0.69872957 -0.62092006 1.6340001 -2.7957067e+38
-0.69859719 -0.62358004 1.641 -2.755726e+38
-0.69547147 -0.62358004 1.641 -2.7157453e+38
-0.69572097 -0.62662005 1.649 -2.7024009e+38
-0.69258004 -0.62662005 1.649 -2.6890563e+38
-0.69278383 -0.62966007 1.6570001 -2.7023483e+38
-0.68962765 -0.62966007 1.6570001 -2.7022956e+38
-0.68978578 -0.63270003 1.6650001 -2.6888467e+38
-0.68991339 -0.63574004 1.6730001 -2.6622099e+38
-0.68344289 -0.63270003 1.6650001 -2.635573e+38
-0.68027145 -0.63270003 1.6650001 -2.5955919e+38
-0.67710006 -0.63270003 1.6650001 -2.5954876e+38
-0.6771667 -0.63574004 1.6730001 -2.5820392e+38
-0.67075717 -0.63270003 1.6650001 -2.5552984e+38
-0.66117054 -0.62662005 1.649 -2.5286616e+38
-0.64885145 -0.61788005 1.626 -2.475492e+38
-0.64257717 -0.61484003 1.618 -2.4222716e+38
-0.63949525 -0.61484003 1.618 -2.6482929e+38
-0.63366002 -0.61218005 1.6110001 -2.8760893e+38
-0.63333148 -0.61484003 1.618 -3.2644834e+38
-0.62752289 -0.61218005 1.6110001 nan
-0.62445432 -0.61218005 1.6110001 nan
-0.62138575 -0.61218005 1.6110001 nan
-0.61524671 -0.60914004 1.603 nan
-0.61219335 -0.60914004 1.603 nan
-0.60914004 -0.60914004 1.603 nan
-0.60608673 -0.60914004 1.603 nan
-0.60303336 -0.60914004 1.603 nan
-0.59998006 -0.60914004 1.603 nan
-0.59692669 -0.60914004 1.603 nan
-0.5937686 -0.61218005 1.6110001 nan
-0.59070003 -0.61218005 1.6110001 nan
-0.58763146 -0.61218005 1.6110001 nan
-0.5845629 -0.61218005 1.6110001 nan
-0.58149433 -0.61218005 1.6110001 nan
-0.57555336 -0.60914004 1.603 nan
-0.57250005 -0.60914004 1.603 nan
-0.56944668 -0.60914004 1.603 nan
-0.56922007 -0.61218005 1.6110001 nan
-0.54502004 -0.60914004 1.603 nan
-0.54196668 -0.60914004 1.603 nan
-0.53891337 -0.60914004 1.603 nan
-0.53586006 -0.60914004 1.603 nan
-0.53280669 -0.60914004 1.603 nan
-0.52975339 -0.60914004 1.603 nan
-0.52670002 -0.60914004 1.603 nan
-0.52626002 -0.61218005 1.6110001 nan
-0.52319145 -0.61218005 1.6110001 nan
-0.52012289 -0.61218005 1.6110001 nan
-0.51705432 -0.61218005 1.6110001 nan
-0.51398575 -0.61218005 1.6110001 nan
-0.51091719 -0.61218005 1.6110001 nan
-0.50784862 -0.61218005 1.6110001 nan
-0.50478005 -0.61218005 1.6110001 nan
-0.50171149 -0.61218005 1.6110001 nan
-0.49864289 -0.61218005 1.6110001 nan
-0.49557433 -0.61218005 1.6110001 nan
-0.49464574 -0.61484003 1.618 nan
-0.49156386 -0.61484003 1.618 nan
-0.48848194 -0.61484003 1.618 nan
-0.48540002 -0.61484003 1.618 nan
-0.48231813 -0.61484003 1.618 nan
-0.47923622 -0.61484003 1.618 nan
-0.47615433 -0.61484003 1.618 nan
-0.47307241 -0.61484003 1.618 nan
-0.46999052 -0.61484003 1.618 nan
-0.4669086 -0.61484003 1.618 nan
-0.46382669 -0.61484003 1.618 nan
-0.4607448 -0.61484003 1.618 nan
-0.45766288 -0.61484003 1.618 nan
-0.45458099 -0.61484003 1.618 nan
-0.45149907 -0.61484003 1.618 nan
-0.44841719 -0.61484003 1.618 nan
-0.44533527 -0.61484003 1.618 nan
-0.44225335 -0.61484003 1.618 nan
-0.43917146 -0.61484003 1.618 nan
-0.43608955 -0.61484003 1.618 nan
-0.43300766 -0.61484003 1.618 nan
-0.42992574 -0.61484003 1.618 nan
-0.4289543 -0.61788005 1.626 nan
-0.42585716 -0.61788005 1.626 nan
-0.42484003 -0.62092006 1.6340001 nan
-0.42172766 -0.62092006 1.6340001 nan
-0.41861525 -0.62092006 1.6340001 nan
-0.41728288 -0.62358004 1.641 nan
-0.41415718 -0.62358004 1.641 -3.3297967e+38
-0.40927812 -0.62092006 1.6340001 -2.9282169e+38
-0.40616575 -0.62092006 1.6340001 -2.5293434e+38
-0.40478003 -0.62358004 1.641 -2.6092517e+38
-0.4016543 -0.62358004 1.641 -2.6757121e+38
-0.40047145 -0.62662005 1.649 -2.6358344e+38
-0.39540288 -0.62358004 1.641 -2.5958535e+38
-0.39227718 -0.62358004 1.641 -2.5957493e+38
-0.38915145 -0.62358004 1.641 -2.5957493e+38
-0.38790765 -0.62662005 1.649 -2.5956973e+38
-0.3847667 -0.62662005 1.649 -2.5823533e+38
-0.38162574 -0.62662005 1.649 -2.6089381e+38
-0.37848479 -0.62662005 1.649 -2.6222304e+38
-0.37534383 -0.62662005 1.649 -2.6487111e+38
-0.37220287 -0.62662005 1.649 -2.6621587e+38
-0.37085241 -0.62966007 1.6570001 -2.6489701e+38
-0.36769623 -0.62966007 1.6570001 -2.6356778e+38
-0.36454001 -0.62966007 1.6570001 -2.6489182e+38
-0.3631286 -0.63270003 1.6650001 -2.662262e+38
-0.36536193 -0.64220005 1.6900001 -2.6490214e+38
-0.36557144 -0.64828002 1.7060001 -2.6355213e+38
-0.36423334 -0.65170002 1.715 -2.6486058e+38
-0.36265051 -0.65474004 1.723 -2.6618981e+38
-0.36124575 -0.65816003 1.7320001 -2.6485539e+38
-0.35980669 -0.66158003 1.7410001 -2.6220213e+38
-0.35649049 -0.66158003 1.7410001 -2.6353136e+38
-0.35682574 -0.66842002 1.7590001 -2.6354174e+38
-0.35709241 -0.67526007 1.7770001 -2.6088848e+38
-0.35908192 -0.68552005 1.8040001 -2.5824034e+38
-0.35564575 -0.68552005 1.8040001 -2.6090395e+38
-0.35416192 -0.68932003 1.8140001 -2.6354158e+38
-0.3507067 -0.68932003 1.8140001 -2.6353113e+38
-0.34725145 -0.68932003 1.8140001 -2.6352073e+38
-0.34190097 -0.68552005 1.8040001 -2.621811e+38
-0.3384648 -0.68552005 1.8040001 -2.5952783e+38
-0.33502859 -0.68552005 1.8040001 -2.6085187e+38
-0.33159241 -0.68552005 1.8040001 -2.6086748e+38
-0.3281562 -0.68552005 1.8040001 -2.6219156e+38
-0.32472003 -0.68552005 1.8040001 -2.6220199e+38
-0.32128382 -0.68552005 1.8040001 -2.6353127e+38
-0.31784764 -0.68552005 1.8040001 -2.6487093e+38
-0.31441146 -0.68552005 1.8040001 -2.6620539e+38
-0.30942383 -0.68210006 1.7950001 -2.6621577e+38
-0.30753908 -0.68552005 1.8040001 -2.6622618e+38
-0.30258572 -0.68210006 1.7950001 -2.6490731e+38
-0.29916668 -0.68210006 1.7950001 -2.649177e+38
-0.29723048 -0.68552005 1.8040001 -2.6359886e+38
-0.29542288 -0.68932003 1.8140001 -2.662677e+38
-0.29357716 -0.69312006 1.8240001 -2.6892617e+38
-0.2915343 -0.69654006 1.8330001 -2.7423789e+38
-0.28804287 -0.69654006 1.8330001 -2.7823079e+38
-0.28455144 -0.69654006 1.8330001 -2.8221851e+38
-0.28106001 -0.69654006 1.8330001 -2.8622181e+38
-0.27756858 -0.69654006 1.8330001 -2.9154398e+38
-0.27407715 -0.69654006 1.8330001 -2.9554215e+38
-0.27206191 -0.70034003 1.8430001 -2.9952994e+38
-0.26855144 -0.70034003 1.8430001 -3.0353328e+38
-0.26647907 -0.70414007 1.853 -3.0484184e+38
-0.26436859 -0.70794004 1.863 -3.0618658e+38
-0.72985435 -0.62045431 1.641 nan
-0.72362864 -0.61780769 1.6340001 nan
-0.72051626 -0.61780769 1.6340001 nan
-0.71389145 -0.61478287 1.626 -2.4484414e+38
-0.71079433 -0.61478287 1.626 -2.7551994e+38
-0.70769721 -0.61478287 1.626 -3.0748403e+38
-0.70460004 -0.61478287 1.626 -2.9952452e+38
-0.70150292 -0.61478287 1.626 -2.9152842e+38
-0.70184195 -0.61780769 1.6340001 -2.8621674e+38
-0.70172292 -0.62045431 1.641 -2.8089985e+38
-0.69859719 -0.62045431 1.641 -2.7689661e+38
-0.69547147 -0.62045431 1.641 -2.7421739e+38
-0.69572097 -0.62347907 1.649 -2.7155891e+38
-0.69594002 -0.62650383 1.6570001 -2.6889524e+38
-0.69278383 -0.62650383 1.6570001 -2.6890039e+38
-0.68962765 -0.62650383 1.6570001 -2.6890033e+38
-0.68978578 -0.62952864 1.6650001 -2.6756066e+38
-0.68991339 -0.6325534 1.6730001 -2.6621581e+38
-0.68672669 -0.6325534 1.6730001 -2.635573e+38
-0.68354005 -0.6325534 1.6730001 -2.6089361e+38
-0.6803534 -0.6325534 1.6730001 -2.5954355e+38
-0.6771667 -0.6325534 1.6730001 -2.5820911e+38
-0.67398006 -0.6325534 1.6730001 -2.5552984e+38
-0.66437817 -0.62650383 1.6570001 -2.5286622e+38
-0.64885145 -0.61478287 1.626 -2.528766e+38
-0.64575434 -0.61478287 1.626 -2.5288686e+38
-0.63949525 -0.61175811 1.618 -2.6351535e+38
-0.6364134 -0.61175811 1.618 -2.7555734e+38
-0.63333148 -0.61175811 1.618 -3.1706043e+38
-0.63024956 -0.61175811 1.618 nan
-0.62716764 -0.61175811 1.618 nan
-0.62408578 -0.61175811 1.618 nan
-0.61831719 -0.60911149 1.6110001 nan
-0.61524862 -0.60911149 1.6110001 nan
-0.61218005 -0.60911149 1.6110001 nan
-0.60608673 -0.60608673 1.603 nan
-0.60303336 -0.60608673 1.603 nan
-0.59998006 -0.60608673 1.603 nan
-0.59692669 -0.60608673 1.603 nan
-0.58763146 -0.60911149 1.6110001 nan
-0.5845629 -0.60911149 1.6110001 nan
-0.58149433 -0.60911149 1.6110001 nan
-0.57842577 -0.60911149 1.6110001 nan
-0.5753572 -0.60911149 1.6110001 nan
-0.57228863 -0.60911149 1.6110001 nan
-0.56922007 -0.60911149 1.6110001 nan
-0.53280669 -0.60608673 1.603 nan
-0.52975339 -0.60608673 1.603 nan
-0.52670002 -0.60608673 1.603 nan
-0.52319145 -0.60911149 1.6110001 nan
-0.52238292 -0.61175811 1.618 nan
-0.519301 -0.61175811 1.618 nan
-0.51621908 -0.61175811 1.618 nan
-0.51091719 -0.60911149 1.6110001 nan
-0.51005524 -0.61175811 1.618 nan
-0.50478005 -0.60911149 1.6110001 nan
-0.50171149 -0.60911149 1.6110001 nan
-0.49864289 -0.60911149 1.6110001 nan
-0.49772766 -0.61175811 1.618 nan
-0.49464574 -0.61175811 1.618 nan
-0.49156386 -0.61175811 1.618 nan
-0.48848194 -0.61175811 1.618 nan
-0.48540002 -0.61175811 1.618 nan
-0.48231813 -0.61175811 1.618 nan
-0.47923622 -0.61175811 1.618 nan
-0.47615433 -0.61175811 1.618 nan
-0.47307241 -0.61175811 1.618 nan
-0.46999052 -0.61175811 1.618 nan
-0.4669086 -0.61175811 1.618 nan
-0.46382669 -0.61175811 1.618 nan
-0.4607448 -0.61175811 1.618 nan
-0.45766288 -0.61175811 1.618 nan
-0.45458099 -0.61175811 1.618 nan
-0.45149907 -0.61175811 1.618 nan
-0.44841719 -0.61175811 1.618 nan
-0.44533527 -0.61175811 1.618 nan
-0.44225335 -0.61175811 1.618 nan
-0.43917146 -0.61175811 1.618 nan
-0.43608955 -0.61175811 1.618 nan
-0.43300766 -0.61175811 1.618 nan
-0.42992574 -0.61175811 1.618 nan
-0.4289543 -0.61478287 1.626 nan
-0.42585716 -0.61478287 1.626 nan
-0.42484003 -0.61780769 1.6340001 nan
-0.42172766 -0.61780769 1.6340001 nan
-0.41861525 -0.61780769 1.6340001 nan
-0.41728288 -0.62045431 1.641 nan
-0.41415718 -0.62045431 1.641 -3.3569507e+38
-0.40927812 -0.61780769 1.6340001 -2.8893755e+38
-0.40616575 -0.61780769 1.6340001 -2.4231076e+38
-0.40478003 -0.62045431 1.641 -2.5426866e+38
-0.4016543 -0.62045431 1.641 -2.6757642e+38
-0.39852861 -0.62045431 1.641 -2.6490746e+38
-0.39540288 -0.62045431 1.641 -2.622386e+38
-0.39227718 -0.62045431 1.641 -2.6090416e+38
-0.38915145 -0.62045431 1.641 -2.6089896e+38
-0.38790765 -0.62347907 1.649 -2.5956973e+38
-0.3847667 -0.62347907 1.649 -2.5823531e+38
-0.3797743 -0.62045431 1.641 -2.5956454e+38
-0.37848479 -0.62347907 1.649 -2.6089377e+38
-0.37534383 -0.62347907 1.649 -2.6222298e+38
-0.37220287 -0.62347907 1.649 -2.6488661e+38
-0.37085241 -0.62650383 1.6570001 -2.6489695e+38
-0.36769623 -0.62650383 1.6570001 -2.6623139e+38
-0.36454001 -0.62650383 1.6570001 -2.662262e+38
-0.3631286 -0.62952864 1.6650001 -2.6755543e+38
-0.36536193 -0.63898098 1.6900001 -2.6622099e+38
-0.36557144 -0.6450305 1.7060001 -2.6620537e+38
-0.3659324 -0.65145814 1.723 -2.6620014e+38
-0.36265051 -0.65145814 1.723 -2.6618975e+38
-0.36124575 -0.65486097 1.7320001 -2.648605e+38
-0.35980669 -0.65826386 1.7410001 -2.6353649e+38
-0.35833335 -0.66166669 1.7500001 -2.6353649e+38
-0.35682574 -0.66506958 1.7590001 -2.6353132e+38
-0.35528383 -0.66847241 1.7680001 -2.6088326e+38
-0.36107239 -0.68586481 1.8140001 -2.5955917e+38
-0.35761717 -0.68586481 1.8140001 -2.5955391e+38
-0.35416192 -0.68586481 1.8140001 -2.6086231e+38
-0.3507067 -0.68586481 1.8140001 -2.6086744e+38
-0.34725145 -0.68586481 1.8140001 -2.6219146e+38
-0.34379622 -0.68586481 1.8140001 -2.6086221e+38
-0.34034097 -0.68586481 1.8140001 -2.6086223e+38
-0.33502859 -0.68208385 1.8040001 -2.6086742e+38
-0.3334305 -0.68586481 1.8140001 -2.6087787e+38
-0.3281562 -0.68208385 1.8040001 -2.5954351e+38
-0.32652003 -0.68586481 1.8140001 -2.5954874e+38
-0.32306477 -0.68586481 1.8140001 -2.6088318e+38
-0.31960955 -0.68586481 1.8140001 -2.6222286e+38
-0.31441146 -0.68208385 1.8040001 -2.6355732e+38
-0.31097525 -0.68208385 1.8040001 -2.6489695e+38
-0.30753908 -0.68208385 1.8040001 -2.6623137e+38
-0.30410287 -0.68208385 1.8040001 -2.6624173e+38
-0.29916668 -0.67868102 1.7950001 -2.6625208e+38
-0.29723048 -0.68208385 1.8040001 -2.6626768e+38
-0.29542288 -0.68586481 1.8140001 -2.6892096e+38
-0.29357716 -0.68964577 1.8240001 -2.715742e+38
-0.2915343 -0.6930486 1.8330001 -2.7556706e+38
-0.28804287 -0.6930486 1.8330001 -2.7955996e+38
-0.28455144 -0.6930486 1.8330001 -2.8221843e+38
-0.28106001 -0.6930486 1.8330001 -2.8622175e+38
-0.27756858 -0.6930486 1.8330001 -2.9154392e+38
-0.27407715 -0.6930486 1.8330001 -2.9552653e+38
-0.27206191 -0.69682956 1.8430001 -2.9952992e+38
-0.27000859 -0.70061052 1.853 -3.0220405e+38
-0.26791716 -0.70439148 1.863 -3.0618143e+38
-0.26578763 -0.70817244 1.8730001 -3.0884514e+38
-0.73341244 -0.62033814 1.649 nan
-0.72362864 -0.61469525 1.6340001 nan
-0.72051626 -0.61469525 1.6340001 nan
-0.71389145 -0.61168575 1.626 -2.5412277e+38
-0.71079433 -0.61168575 1.626 -2.8352689e+38
-0.70769721 -0.61168575 1.626 -3.1148751e+38
-0.70460004 -0.61168575 1.626 -3.0352265e+38
-0.70150292 -0.61168575 1.626 -2.9420246e+38
-0.70184195 -0.61469525 1.6340001 -2.8888035e+38
-0.70172292 -0.61732858 1.641 -2.8222385e+38
-0.69859719 -0.61732858 1.641 -2.7955503e+38
-0.69547147 -0.61732858 1.641 -2.7555696e+38
-0.69572097 -0.62033814 1.649 -2.7155891e+38
-0.69594002 -0.62334764 1.6570001 -2.6757121e+38
-0.69278383 -0.62334764 1.6570001 -2.6757119e+38
-0.69295716 -0.6263572 1.6650001 -2.662367e+38
-0.69310004 -0.6293667 1.6730001 -2.6623147e+38
-0.68991339 -0.6293667 1.6730001 -2.6488661e+38
-0.68672669 -0.6293667 1.6730001 -2.6355213e+38
-0.68354005 -0.6293667 1.6730001 -2.6220207e+38
-0.6803534 -0.6293667 1.6730001 -2.595228e+38
-0.68040478 -0.63237625 1.6810001 -2.5685911e+38
-0.67398006 -0.6293667 1.6730001 -2.555091e+38
-0.67400098 -0.63237625 1.6810001 -2.5287143e+38
-0.65483719 -0.61732858 1.641 -2.5819875e+38
-0.64575434 -0.61168575 1.626 -2.6217073e+38
-0.64265716 -0.61168575 1.626 -2.6211351e+38
-0.6364134 -0.60867625 1.618 -2.6231707e+38
-0.63333148 -0.60867625 1.618 -3.0781303e+38
-0.63024956 -0.60867625 1.618 nan
-0.62716764 -0.60867625 1.618 nan
-0.62138575 -0.60604292 1.6110001 nan
-0.61831719 -0.60604292 1.6110001 nan
-0.60914004 -0.60303336 1.603 nan
-0.60303336 -0.60303336 1.603 nan
-0.59692669 -0.60303336 1.603 nan
-0.59387338 -0.60303336 1.603 nan
-0.5937686 -0.60604292 1.6110001 nan
-0.59070003 -0.60604292 1.6110001 nan
-0.58763146 -0.60604292 1.6110001 nan
-0.5845629 -0.60604292 1.6110001 nan
-0.57860672 -0.60303336 1.603 nan
-0.57555336 -0.60303336 1.603 nan
-0.57250005 -0.60303336 1.603 nan
-0.56922007 -0.60604292 1.6110001 nan
-0.53546578 -0.60604292 1.6110001 nan
-0.53239715 -0.60604292 1.6110001 nan
-0.52932858 -0.60604292 1.6110001 nan
-0.52319145 -0.60604292 1.6110001 nan
-0.52012289 -0.60604292 1.6110001 nan
-0.519301 -0.60867625 1.618 nan
-0.51621908 -0.60867625 1.618 nan
-0.51091719 -0.60604292 1.6110001 nan
-0.50784862 -0.60604292 1.6110001 nan
-0.50478005 -0.60604292 1.6110001 nan
-0.50171149 -0.60604292 1.6110001 nan
-0.49864289 -0.60604292 1.6110001 nan
-0.49772766 -0.60867625 1.618 nan
-0.49250576 -0.60604292 1.6110001 nan
-0.48943716 -0.60604292 1.6110001 nan
-0.48848194 -0.60867625 1.618 nan
-0.48330003 -0.60604292 1.6110001 nan
-0.48231813 -0.60867625 1.618 nan
-0.4771629 -0.60604292 1.6110001 nan
-0.47409433 -0.60604292 1.6110001 nan
-0.47102574 -0.60604292 1.6110001 nan
-0.46999052 -0.60867625 1.618 nan
-0.4669086 -0.60867625 1.618 nan
-0.46382669 -0.60867625 1.618 nan
-0.4607448 -0.60867625 1.618 nan
-0.45766288 -0.60867625 1.618 nan
-0.45458099 -0.60867625 1.618 nan
-0.45149907 -0.60867625 1.618 nan
-0.44841719 -0.60867625 1.618 nan
-0.44533527 -0.60867625 1.618 nan
-0.44225335 -0.60867625 1.618 nan
-0.43917146 -0.60867625 1.618 nan
-0.43608955 -0.60867625 1.618 nan
-0.4351486 -0.61168575 1.626 nan
-0.43205145 -0.61168575 1.626 nan
-0.4289543 -0.61168575 1.626 nan
-0.42795241 -0.61469525 1.6340001 nan
-0.42666003 -0.61732858 1.641 nan
-0.4235343 -0.61732858 1.641 nan
-0.42040861 -0.61732858 1.641 nan
-0.41728288 -0.61732858 1.641 nan
-0.41415718 -0.61732858 1.641 -3.3832264e+38
-0.41103145 -0.61732858 1.641 -2.8491906e+38
-0.40616575 -0.61469525 1.6340001 -2.3035305e+38
-0.40478003 -0.61732858 1.641 -2.4892575e+38
-0.4016543 -0.61732858 1.641 -2.6623159e+38
-0.39852861 -0.61732858 1.641 -2.6490228e+38
-0.39540288 -0.61732858 1.641 -2.6356782e+38
-0.39227718 -0.61732858 1.641 -2.6355742e+38
-0.38915145 -0.61732858 1.641 -2.6222819e+38
-0.38790765 -0.62033814 1.649 -2.6089896e+38
-0.3847667 -0.62033814 1.649 -2.5824051e+38
-0.38162574 -0.62033814 1.649 -2.5824051e+38
-0.37848479 -0.62033814 1.649 -2.5823529e+38
-0.37534383 -0.62033814 1.649 -2.6089894e+38
-0.37220287 -0.62033814 1.649 -2.6223336e+38
-0.36906192 -0.62033814 1.649 -2.649022e+38
-0.36769623 -0.62334764 1.6570001 -2.6755547e+38
-0.36454001 -0.62334764 1.6570001 -2.675451e+38
-0.3631286 -0.6263572 1.6650001 -2.6755545e+38
-0.36882097 -0.64178097 1.7060001 -2.6887427e+38
-0.36750004 -0.6451667 1.715 -2.6887425e+38
-0.3659324 -0.64817625 1.723 -2.6753979e+38
-0.36265051 -0.64817625 1.723 -2.6619496e+38
-0.36312288 -0.65494764 1.7410001 -2.6619496e+38
-0.36166668 -0.65833336 1.7500001 -2.6486574e+38
-0.35833335 -0.65833336 1.7500001 -2.6486574e+38
-0.35682574 -0.66171908 1.7590001 -2.635417e+38
-0.35890096 -0.67187625 1.7860001 -2.6221766e+38
-0.36107239 -0.68240958 1.8140001 -2.5955396e+38
-0.35761717 -0.68240958 1.8140001 -2.5953832e+38
-0.3561143 -0.68617147 1.8240001 -2.5820903e+38
-0.3507067 -0.68240958 1.8140001 -2.5953822e+38
-0.34916574 -0.68617147 1.8240001 -2.5953302e+38
-0.34379622 -0.68240958 1.8140001 -2.6086744e+38
-0.34034097 -0.68240958 1.8140001 -2.6219669e+38
-0.33688575 -0.68240958 1.8140001 -2.6086748e+38
-0.3334305 -0.68240958 1.8140001 -2.5954349e+38
-0.32997525 -0.68240958 1.8140001 -2.5821951e+38
-0.32652003 -0.68240958 1.8140001 -2.568955e+38
-0.32306477 -0.68240958 1.8140001 -2.5823513e+38
-0.31960955 -0.68240958 1.8140001 -2.5956959e+38
-0.3161543 -0.68240958 1.8140001 -2.622333e+38
-0.31269908 -0.68240958 1.8140001 -2.6356772e+38
-0.30924383 -0.68240958 1.8140001 -2.662262e+38
-0.30410287 -0.67864764 1.8040001 -2.6757098e+38
-0.30066669 -0.67864764 1.8040001 -2.689106e+38
-0.2988781 -0.68240958 1.8140001 -2.689106e+38
-0.29705146 -0.68617147 1.8240001 -2.7156386e+38
-0.29502574 -0.68955719 1.8330001 -2.7422749e+38
-0.2915343 -0.68955719 1.8330001 -2.7689114e+38
-0.28804287 -0.68955719 1.8330001 -2.7954959e+38
-0.28455144 -0.68955719 1.8330001 -2.835321e+38
-0.28259334 -0.69331908 1.8430001 -2.8621137e+38
-0.27908286 -0.69331908 1.8430001 -2.9154392e+38
-0.27557239 -0.69331908 1.8430001 -2.9553168e+38
-0.27353811 -0.69708097 1.853 -2.9820061e+38
-0.27000859 -0.69708097 1.853 -3.0086436e+38
-0.26935527 -0.7046048 1.8730001 -3.0618137e+38
-0.26578763 -0.7046048 1.8730001 -3.1150343e+38
-0.26362002 -0.70836669 1.8830001 -3.0351766e+38
-0.72985435 -0.61420292 1.641 nan
-0.72362864 -0.61158288 1.6340001 nan
-0.72051626 -0.61158288 1.6340001 nan
-0.71389145 -0.60858864 1.626 -2.1403826e+38
-0.71079433 -0.60858864 1.626 -2.5154275e+38
-0.70769721 -0.60858864 1.626 -2.8760838e+38
-0.70460004 -0.60858864 1.626 -2.9024079e+38
-0.70150292 -0.60858864 1.626 -2.9154919e+38
-0.70184195 -0.61158288 1.6340001 -2.8755106e+38
-0.69872957 -0.61158288 1.6340001 -2.8354782e+38
-0.69859719 -0.61420292 1.641 -2.7823093e+38
-0.69547147 -0.61420292 1.641 -2.742329e+38
-0.69572097 -0.61719716 1.649 -2.7156927e+38
-0.69258004 -0.61719716 1.649 -2.675764e+38
-0.69278383 -0.62019145 1.6570001 -2.6757119e+38
-0.69295716 -0.62318575 1.6650001 -2.6889518e+38
-0.69310004 -0.62618005 1.6730001 -2.6888476e+38
-0.68991339 -0.62618005 1.6730001 -2.6886393e+38
-0.68672669 -0.62618005 1.6730001 -2.6618983e+38
-0.68354005 -0.62618005 1.6730001 -2.6350016e+38
-0.6803534 -0.62618005 1.6730001 -2.6084684e+38
-0.68040478 -0.62917435 1.6810001 -2.5684356e+38
-0.67720288 -0.62917435 1.6810001 -2.5552986e+38
-0.67400098 -0.62917435 1.6810001 -2.5288703e+38
-0.65802956 -0.61719716 1.649 -2.5820396e+38
-0.65488863 -0.61719716 1.649 -2.635156e+38
-0.64265716 -0.60858864 1.626 -2.5951743e+38
-0.6364134 -0.60559434 1.618 -2.5562947e+38
-0.63333148 -0.60559434 1.618 -3.0371119e+38
-0.63024956 -0.60559434 1.618 nan
-0.62716764 -0.60559434 1.618 nan
-0.62138575 -0.6029743 1.6110001 nan
-0.61831719 -0.6029743 1.6110001 nan
-0.61219335 -0.59998006 1.603 nan
-0.60914004 -0.59998006 1.603 nan
-0.60608673 -0.59998006 1.603 nan
-0.60303336 -0.59998006 1.603 nan
-0.59998006 -0.59998006 1.603 nan
-0.59692669 -0.59998006 1.603 nan
-0.59387338 -0.59998006 1.603 nan
-0.59082001 -0.59998006 1.603 nan
-0.59070003 -0.6029743 1.6110001 nan
-0.58763146 -0.6029743 1.6110001 nan
-0.5845629 -0.6029743 1.6110001 nan
-0.57860672 -0.59998006 1.603 nan
-0.57555336 -0.59998006 1.603 nan
-0.5753572 -0.6029743 1.6110001 nan
-0.56944668 -0.59998006 1.603 nan
-0.54502004 -0.59998006 1.603 nan
-0.54160291 -0.6029743 1.6110001 nan
-0.53546578 -0.6029743 1.6110001 nan
-0.53239715 -0.6029743 1.6110001 nan
-0.52932858 -0.6029743 1.6110001 nan
-0.519301 -0.60559434 1.618 nan
-0.51398575 -0.6029743 1.6110001 nan
-0.51091719 -0.6029743 1.6110001 nan
-0.50784862 -0.6029743 1.6110001 nan
-0.50478005 -0.6029743 1.6110001 nan
-0.50171149 -0.6029743 1.6110001 nan
-0.49864289 -0.6029743 1.6110001 nan
-0.49557433 -0.6029743 1.6110001 nan
-0.49250576 -0.6029743 1.6110001 nan
-0.48943716 -0.6029743 1.6110001 nan
-0.4863686 -0.6029743 1.6110001 nan
-0.48330003 -0.6029743 1.6110001 nan
-0.48023146 -0.6029743 1.6110001 nan
-0.4771629 -0.6029743 1.6110001 nan
-0.47409433 -0.6029743 1.6110001 nan
-0.47102574 -0.6029743 1.6110001 nan
-0.46795717 -0.6029743 1.6110001 nan
-0.4648886 -0.6029743 1.6110001 nan
-0.46182004 -0.6029743 1.6110001 nan
-0.4607448 -0.60559434 1.618 nan
-0.45766288 -0.60559434 1.618 nan
-0.45458099 -0.60559434 1.618 nan
-0.45149907 -0.60559434 1.618 nan
-0.44841719 -0.60559434 1.618 nan
-0.44533527 -0.60559434 1.618 nan
-0.44225335 -0.60559434 1.618 nan
-0.43917146 -0.60559434 1.618 nan
-0.43824574 -0.60858864 1.626 nan
-0.4351486 -0.60858864 1.626 nan
-0.43205145 -0.60858864 1.626 nan
-0.4289543 -0.60858864 1.626 nan
-0.42585716 -0.60858864 1.626 nan
-0.42666003 -0.61420292 1.641 nan
-0.4235343 -0.61420292 1.641 nan
-0.42040861 -0.61420292 1.641 nan
-0.41728288 -0.61420292 1.641 nan
-0.41415718 -0.61420292 1.641 -3.3309426e+38
-0.41103145 -0.61420292 1.641 -2.9030381e+38
-0.40790573 -0.61420292 1.641 -2.4893644e+38
-0.40478003 -0.61420292 1.641 -2.595699e+38
-0.4016543 -0.61420292 1.641 -2.7155887e+38
-0.39852861 -0.61420292 1.641 -2.6888997e+38
-0.39540288 -0.61420292 1.641 -2.662263e+38
-0.39227718 -0.61420292 1.641 -2.6356261e+38
-0.38915145 -0.61420292 1.641 -2.6222819e+38
-0.38602573 -0.61420292 1.641 -2.5957493e+38
-0.3847667 -0.61719716 1.649 -2.582457e+38
-0.38162574 -0.61719716 1.649 -2.5824049e+38
-0.3766486 -0.61420292 1.641 -2.5955933e+38
-0.37534383 -0.61719716 1.649 -2.6089894e+38
-0.37220287 -0.61719716 1.649 -2.6356782e+38
-0.36906192 -0.61719716 1.649 -2.6489707e+38
-0.36769623 -0.62019145 1.6570001 -2.6755553e+38
-0.36454001 -0.62019145 1.6570001 -2.6888995e+38
-0.36138383 -0.62019145 1.6570001 -2.7022433e+38
-0.35822764 -0.62019145 1.6570001 -2.702191e+38
-0.36557144 -0.63853145 1.7060001 -2.7021388e+38
-0.3659324 -0.6448943 1.723 -2.6886906e+38
-0.36265051 -0.6448943 1.723 -2.6618981e+38
-0.36312288 -0.65163147 1.7410001 -2.6354691e+38
-0.36166668 -0.65500003 1.7500001 -2.6087807e+38
-0.35833335 -0.65500003 1.7500001 -2.6088846e+38
-0.35865146 -0.6617372 1.7680001 -2.6222286e+38
-0.36070955 -0.67184287 1.7950001 -2.6221764e+38
-0.36107239 -0.6789543 1.8140001 -2.6221239e+38
-0.35761717 -0.6789543 1.8140001 -2.6088308e+38
-0.3561143 -0.68269718 1.8240001 -2.5954345e+38
-0.35264003 -0.68269718 1.8240001 -2.5953302e+38
-0.34916574 -0.68269718 1.8240001 -2.5952785e+38
-0.34569144 -0.68269718 1.8240001 -2.6086227e+38
-0.34034097 -0.6789543 1.8140001 -2.608675e+38
-0.33688575 -0.6789543 1.8140001 -2.5954349e+38
-0.33526859 -0.68269718 1.8240001 -2.5954355e+38
