# .PCD v0.7 - Point Cloud Data file format
VERSION 0.7
FIELDS x y z rgb
SIZE 4 4 4 4
TYPE F F F F
COUNT 1 1 1 1
WIDTH 1157
HEIGHT 1
VIEWPOINT 0 0 0 1 0 0 0
POINTS 1157
DATA ascii
4.5371981 -0.28205037 2.1389647 -2.4084579e+38
4.5371776 -0.29033604 2.1389647 -2.3819248e+38
4.5371575 -0.29862171 2.1389647 -2.3818206e+38
4.537137 -0.30690742 2.1389647 -2.3817167e+38
4.5371165 -0.31519312 2.1389647 -2.3814052e+38
4.4831038 -0.32031184 2.1278045 -2.3814573e+38
4.4830837 -0.32849473 2.1278045 -2.4747629e+38
4.3290873 -0.32705927 2.0959778 -2.5812052e+38
4.2800756 -0.33179504 2.0858512 -2.5545687e+38
4.280056 -0.33959121 2.0858512 -2.5277774e+38
4.2800369 -0.34738737 2.0858512 -2.501661e+38
4.2800179 -0.35518354 2.0858512 -2.4888882e+38
4.2799988 -0.36297971 2.0858512 -2.4888364e+38
4.2799797 -0.37077588 2.0858512 -2.5021273e+38
4.2799606 -0.37857205 2.0858512 -2.3423068e+38
4.2799411 -0.38636822 2.0858512 -2.1832255e+38
4.279922 -0.39416438 2.0858512 -2.8637906e+38
4.2799029 -0.40196055 2.0858512 nan
4.2798839 -0.40975672 2.0858512 nan
4.2798648 -0.41755289 2.0858512 nan
4.2798457 -0.42534906 2.0858512 nan
4.2798262 -0.43314523 2.0858512 nan
4.2798071 -0.44094139 2.0858512 nan
4.279788 -0.44873756 2.0858512 nan
4.2797689 -0.45653373 2.0858512 nan
4.2797499 -0.4643299 2.0858512 nan
4.2797308 -0.47212607 2.0858512 nan
4.2797117 -0.47992224 2.0858512 nan
4.2796922 -0.4877184 2.0858512 nan
4.2796731 -0.49551457 2.0858512 nan
4.279654 -0.50331074 2.0858512 nan
4.279635 -0.51110691 2.0858512 nan
4.2796159 -0.51890308 2.0858512 nan
4.2795968 -0.52669924 2.0858512 nan
4.2795773 -0.53449535 2.0858512 nan
4.2795582 -0.54229158 2.0858512 nan
4.2795391 -0.55008775 2.0858512 nan
4.27952 -0.55788392 2.0858512 nan
4.279501 -0.56568009 2.0858512 nan
4.2794819 -0.57347625 2.0858512 nan
4.2794623 -0.58127242 2.0858512 nan
4.2794433 -0.58906859 2.0858512 nan
4.2794242 -0.59686476 2.0858512 nan
4.2794051 -0.60466093 2.0858512 nan
4.279386 -0.6124571 2.0858512 nan
4.3283505 -0.62686026 2.0959778 nan
4.328331 -0.63474977 2.0959778 nan
4.3283119 -0.64263922 2.0959778 nan
4.3282924 -0.65052873 2.0959778 nan
4.3282733 -0.65841824 2.0959778 nan
4.3282537 -0.66630775 2.0959778 -2.8745734e+38
4.3282342 -0.67419726 2.0959778 -2.3277726e+38
4.3282151 -0.68208671 2.0959778 -2.5018182e+38
4.3281956 -0.68997627 2.0959778 -2.6749273e+38
4.328176 -0.69786572 2.0959778 -2.3682161e+38
4.3281569 -0.70575523 2.0959778 -2.0612552e+38
4.3281374 -0.71364474 2.0959778 -3.3832215e+38
4.5934596 -0.17570062 2.1421456 nan
4.5374422 -0.18262208 2.1306789 nan
4.5374222 -0.19090778 2.1306789 nan
4.5374017 -0.19919345 2.1306789 -3.3946906e+38
4.5373812 -0.20747915 2.1306789 -2.3035763e+38
4.5373611 -0.21576484 2.1306789 -2.3418904e+38
4.5373406 -0.22405052 2.1306789 -2.3687364e+38
4.5373201 -0.23233622 2.1306789 -2.4489594e+38
4.5373001 -0.24062191 2.1306789 -2.5285048e+38
4.5372796 -0.2489076 2.1306789 -2.501764e+38
4.5372591 -0.2571933 2.1306789 -2.4750752e+38
4.5372391 -0.26547897 2.1306789 -2.4483866e+38
4.5372186 -0.27376467 2.1306789 -2.4085096e+38
4.5371981 -0.28205037 2.1306789 -2.3818729e+38
4.5371776 -0.29033604 2.1306789 -2.3552362e+38
4.3290677 -0.33494872 2.0880883 -2.6345282e+38
4.3290482 -0.34283823 2.0880883 -2.5545166e+38
4.2800369 -0.34738737 2.0780549 -2.5282973e+38
4.2800179 -0.35518354 2.0780549 -2.4886807e+38
4.2799988 -0.36297971 2.0780549 -2.5285581e+38
4.2799797 -0.37077588 2.0780549 -2.555038e+38
4.2799606 -0.37857205 2.0780549 -2.5146411e+38
4.3289318 -0.39017522 2.0880883 -2.4761234e+38
4.3289127 -0.39806473 2.0880883 -2.9838353e+38
4.3288932 -0.40595424 2.0880883 nan
4.2798839 -0.40975672 2.0780549 nan
4.2798648 -0.41755289 2.0780549 nan
4.2798457 -0.42534906 2.0780549 nan
4.2798262 -0.43314523 2.0780549 nan
4.2798071 -0.44094139 2.0780549 nan
4.279788 -0.44873756 2.0780549 nan
4.2797689 -0.45653373 2.0780549 nan
4.2797499 -0.4643299 2.0780549 nan
4.2797308 -0.47212607 2.0780549 nan
4.2797117 -0.47992224 2.0780549 nan
4.2796922 -0.4877184 2.0780549 nan
4.2796731 -0.49551457 2.0780549 nan
4.279654 -0.50331074 2.0780549 nan
4.279635 -0.51110691 2.0780549 nan
4.2796159 -0.51890308 2.0780549 nan
4.2795968 -0.52669924 2.0780549 nan
4.2795773 -0.53449535 2.0780549 nan
4.2795582 -0.54229158 2.0780549 nan
4.2795391 -0.55008775 2.0780549 nan
4.27952 -0.55788392 2.0780549 nan
4.279501 -0.56568009 2.0780549 nan
4.2794819 -0.57347625 2.0780549 nan
4.2794623 -0.58127242 2.0780549 nan
4.2794433 -0.58906859 2.0780549 nan
4.2794242 -0.59686476 2.0780549 nan
4.2794051 -0.60466093 2.0780549 nan
4.279386 -0.6124571 2.0780549 nan
4.3283505 -0.62686026 2.0880883 nan
4.328331 -0.63474977 2.0880883 nan
4.3283119 -0.64263922 2.0880883 nan
4.3282924 -0.65052873 2.0880883 nan
4.3282733 -0.65841824 2.0880883 nan
4.3282537 -0.66630775 2.0880883 -2.9532894e+38
4.3282342 -0.67419726 2.0880883 -2.3549812e+38
4.3282151 -0.68208671 2.0880883 -2.5553005e+38
4.3281956 -0.68997627 2.0880883 -2.7411305e+38
4.328176 -0.69786572 2.0880883 -2.5542577e+38
4.3281569 -0.70575523 2.0880883 -2.3562304e+38
4.5374422 -0.18262208 2.1223931 nan
4.5374222 -0.19090778 2.1223931 nan
4.5374017 -0.19919345 2.1223931 -3.3278635e+38
4.5373812 -0.20747915 2.1223931 -2.4479219e+38
4.5373611 -0.21576484 2.1223931 -2.4618341e+38
4.5373406 -0.22405052 2.1223931 -2.4887831e+38
4.5373201 -0.23233622 2.1223931 -2.5020243e+38
4.5373001 -0.24062191 2.1223931 -2.5284005e+38
4.5372796 -0.2489076 2.1223931 -2.4884192e+38
4.5372591 -0.2571933 2.1223931 -2.4617306e+38
4.5372391 -0.26547897 2.1223931 -2.4350937e+38
4.5372186 -0.27376467 2.1223931 -2.4218012e+38
4.5371981 -0.28205037 2.1223931 -2.3951126e+38
4.5371776 -0.29033604 2.1223931 -2.3684762e+38
4.3290677 -0.33494872 2.0801988 -2.8200989e+38
4.3290482 -0.34283823 2.0801988 -2.3412679e+38
4.2800369 -0.34738737 2.0702589 -2.4218031e+38
4.2800179 -0.35518354 2.0702589 -2.5152654e+38
4.2799988 -0.36297971 2.0702589 -2.5418508e+38
4.2799797 -0.37077588 2.0702589 -2.5816757e+38
4.2799606 -0.37857205 2.0702589 -2.5150064e+38
4.3289318 -0.39017522 2.0801988 -2.4620525e+38
4.3289127 -0.39806473 2.0801988 -2.9434378e+38
4.3288932 -0.40595424 2.0801988 nan
4.2798839 -0.40975672 2.0702589 nan
4.2798648 -0.41755289 2.0702589 nan
4.2798457 -0.42534906 2.0702589 nan
4.2798262 -0.43314523 2.0702589 nan
4.2798071 -0.44094139 2.0702589 nan
4.279788 -0.44873756 2.0702589 nan
4.2797689 -0.45653373 2.0702589 nan
4.2797499 -0.4643299 2.0702589 nan
4.2797308 -0.47212607 2.0702589 nan
4.2797117 -0.47992224 2.0702589 nan
4.2796922 -0.4877184 2.0702589 nan
4.2796731 -0.49551457 2.0702589 nan
4.279654 -0.50331074 2.0702589 nan
4.279635 -0.51110691 2.0702589 nan
4.2796159 -0.51890308 2.0702589 nan
4.2795968 -0.52669924 2.0702589 nan
4.2795773 -0.53449535 2.0702589 nan
4.2795582 -0.54229158 2.0702589 nan
4.2795391 -0.55008775 2.0702589 nan
4.27952 -0.55788392 2.0702589 nan
4.279501 -0.56568009 2.0702589 nan
4.2794819 -0.57347625 2.0702589 nan
4.2794623 -0.58127242 2.0702589 nan
4.2794433 -0.58906859 2.0702589 nan
4.2794242 -0.59686476 2.0702589 nan
4.2794051 -0.60466093 2.0702589 nan
4.279386 -0.6124571 2.0702589 nan
4.3283505 -0.62686026 2.0801988 nan
4.328331 -0.63474977 2.0801988 nan
4.3283119 -0.64263922 2.0801988 nan
4.3282924 -0.65052873 2.0801988 nan
4.3282733 -0.65841824 2.0801988 -3.3569497e+38
4.3282537 -0.66630775 2.0801988 -2.8479385e+38
4.3282342 -0.67419726 2.0801988 -2.3412748e+38
4.3282151 -0.68208671 2.0801988 -2.5415942e+38
4.3281956 -0.68997627 2.0801988 -2.7412879e+38
4.328176 -0.69786572 2.0801988 -2.5011422e+38
4.5934391 -0.18409297 2.1253607 nan
4.5374222 -0.19090778 2.1141074 nan
4.5374017 -0.19919345 2.1141074 -3.2596355e+38
4.5373812 -0.20747915 2.1141074 -2.5814161e+38
4.5373611 -0.21576484 2.1141074 -2.5953298e+38
4.5373406 -0.22405052 2.1141074 -2.5951221e+38
4.5373201 -0.23233622 2.1141074 -2.5551417e+38
4.5373001 -0.24062191 2.1141074 -2.5151082e+38
4.5372796 -0.2489076 2.1141074 -2.4751269e+38
4.5372591 -0.2571933 2.1141074 -2.4351459e+38
4.5372391 -0.26547897 2.1141074 -2.4350935e+38
4.5372186 -0.27376467 2.1141074 -2.4217491e+38
4.5931916 -0.28480124 2.1253607 -2.4083528e+38
4.2800756 -0.33179504 2.0624626 -3.0176633e+38
4.280056 -0.33959121 2.0624626 -2.1148306e+38
4.2800369 -0.34738737 2.0624626 -2.3290169e+38
4.2800179 -0.35518354 2.0624626 -2.5417977e+38
4.2799988 -0.36297971 2.0624626 -2.5683828e+38
4.2799797 -0.37077588 2.0624626 -2.5949153e+38
4.3289514 -0.38228577 2.0723093 -2.5148498e+38
4.3289318 -0.39017522 2.0723093 -2.4361421e+38
4.3289127 -0.39806473 2.0723093 -2.9037679e+38
4.3288932 -0.40595424 2.0723093 -3.3569037e+38
4.3288741 -0.41384375 2.0723093 nan
4.3288546 -0.42173326 2.0723093 nan
4.2798457 -0.42534906 2.0624626 nan
4.2798262 -0.43314523 2.0624626 nan
4.2798071 -0.44094139 2.0624626 nan
4.279788 -0.44873756 2.0624626 nan
4.2797689 -0.45653373 2.0624626 nan
4.2797499 -0.4643299 2.0624626 nan
4.3287187 -0.47695976 2.0723093 nan
4.2797117 -0.47992224 2.0624626 nan
4.2796922 -0.4877184 2.0624626 nan
4.2796731 -0.49551457 2.0624626 nan
4.279654 -0.50331074 2.0624626 nan
4.279635 -0.51110691 2.0624626 nan
4.2796159 -0.51890308 2.0624626 nan
4.2795968 -0.52669924 2.0624626 nan
4.2795773 -0.53449535 2.0624626 nan
4.2795582 -0.54229158 2.0624626 nan
4.2795391 -0.55008775 2.0624626 nan
4.27952 -0.55788392 2.0624626 nan
4.279501 -0.56568009 2.0624626 nan
4.2794819 -0.57347625 2.0624626 nan
4.2794623 -0.58127242 2.0624626 nan
4.2794433 -0.58906859 2.0624626 nan
4.2794242 -0.59686476 2.0624626 nan
4.2794051 -0.60466093 2.0624626 nan
4.279386 -0.6124571 2.0624626 nan
4.3283505 -0.62686026 2.0723093 nan
4.328331 -0.63474977 2.0723093 nan
4.3283119 -0.64263922 2.0723093 nan
4.3282924 -0.65052873 2.0723093 nan
4.3282733 -0.65841824 2.0723093 -3.1562133e+38
4.3282537 -0.66630775 2.0723093 -2.7402481e+38
4.3282342 -0.67419726 2.0723093 -2.3150525e+38
4.3282151 -0.68208671 2.0723093 -2.5284577e+38
4.3281956 -0.68997627 2.0723093 -2.7275795e+38
4.328176 -0.69786572 2.0723093 -2.4605885e+38
4.5934391 -0.18409297 2.1169684 nan
4.5374222 -0.19090778 2.1058216 nan
4.5374017 -0.19919345 2.1058216 -3.1271788e+38
4.5373812 -0.20747915 2.1058216 -2.5146436e+38
4.5373611 -0.21576484 2.1058216 -2.5550394e+38
4.5373406 -0.22405052 2.1058216 -2.5950193e+38
4.5373201 -0.23233622 2.1058216 -2.5550897e+38
4.5373001 -0.24062191 2.1058216 -2.5150565e+38
4.5372796 -0.2489076 2.1058216 -2.4751269e+38
4.5372591 -0.2571933 2.1058216 -2.4483862e+38
4.5372391 -0.26547897 2.1058216 -2.4350414e+38
4.5932121 -0.27640891 2.1169684 -2.4216451e+38
4.5931916 -0.28480124 2.1169684 -2.4083524e+38
4.2800756 -0.33179504 2.0546665 -3.0190107e+38
4.280056 -0.33959121 2.0546665 -1.9145625e+38
4.2800369 -0.34738737 2.0546665 -2.2221075e+38
4.2800179 -0.35518354 2.0546665 -2.5417455e+38
4.2799988 -0.36297971 2.0546665 -2.5550899e+38
4.2799797 -0.37077588 2.0546665 -2.5817262e+38
4.3289514 -0.38228577 2.0644197 -2.5150567e+38
4.3289318 -0.39017522 2.0644197 -2.4354663e+38
4.3289127 -0.39806473 2.0644197 -2.8098382e+38
4.3288932 -0.40595424 2.0644197 -3.1702923e+38
4.3288741 -0.41384375 2.0644197 -3.2778295e+38
4.3288546 -0.42173326 2.0644197 -3.3980324e+38
4.328835 -0.42962277 2.0644197 nan
4.3288159 -0.43751222 2.0644197 nan
4.2798071 -0.44094139 2.0546665 nan
4.279788 -0.44873756 2.0546665 nan
4.2797689 -0.45653373 2.0546665 nan
4.2797499 -0.4643299 2.0546665 nan
4.2797308 -0.47212607 2.0546665 nan
4.2797117 -0.47992224 2.0546665 nan
4.2796922 -0.4877184 2.0546665 nan
4.2796731 -0.49551457 2.0546665 nan
4.3286414 -0.50851774 2.0644197 nan
4.279635 -0.51110691 2.0546665 nan
4.2796159 -0.51890308 2.0546665 nan
4.2795968 -0.52669924 2.0546665 nan
4.2795773 -0.53449535 2.0546665 nan
4.2795582 -0.54229158 2.0546665 nan
4.2795391 -0.55008775 2.0546665 nan
4.27952 -0.55788392 2.0546665 nan
4.279501 -0.56568009 2.0546665 nan
4.2794819 -0.57347625 2.0546665 nan
4.2794623 -0.58127242 2.0546665 nan
4.2794433 -0.58906859 2.0546665 nan
4.2794242 -0.59686476 2.0546665 nan
4.2794051 -0.60466093 2.0546665 nan
4.279386 -0.6124571 2.0546665 nan
4.279367 -0.62025321 2.0546665 nan
4.328331 -0.63474977 2.0644197 nan
4.3283119 -0.64263922 2.0644197 nan
4.3282924 -0.65052873 2.0644197 nan
4.3282733 -0.65841824 2.0644197 -3.2098477e+38
4.3282537 -0.66630775 2.0644197 -2.7280437e+38
4.3282342 -0.67419726 2.0644197 -2.2617266e+38
4.3282151 -0.68208671 2.0644197 -2.4220156e+38
4.3281956 -0.68997627 2.0644197 -2.595071e+38
4.7084532 -0.17850217 2.1312475 nan
4.5934391 -0.18409297 2.1085761 nan
4.5934181 -0.19248533 2.1085761 nan
4.5374017 -0.19919345 2.0975361 -2.9920742e+38
4.5373812 -0.20747915 2.0975361 -2.4347852e+38
4.5373611 -0.21576484 2.0975361 -2.5152141e+38
4.5373406 -0.22405052 2.0975361 -2.5816747e+38
4.5373201 -0.23233622 2.0975361 -2.541797e+38
4.5373001 -0.24062191 2.0975361 -2.5017638e+38
4.5372796 -0.2489076 2.0975361 -2.488419e+38
4.5372591 -0.2571933 2.0975361 -2.4616783e+38
4.5372391 -0.26547897 2.0975361 -2.4483339e+38
4.5932121 -0.27640891 2.1085761 -2.421697e+38
4.5931916 -0.28480124 2.1085761 -2.4216968e+38
4.5931706 -0.29319358 2.1085761 -2.4076739e+38
4.2800756 -0.33179504 2.0468702 -3.0309528e+38
4.280056 -0.33959121 2.0468702 -1.7156458e+38
4.2800369 -0.34738737 2.0468702 -2.129737e+38
4.2800179 -0.35518354 2.0468702 -2.5285054e+38
4.2799988 -0.36297971 2.0468702 -2.5551421e+38
4.3289709 -0.37439626 2.0565302 -2.5683299e+38
4.3289514 -0.38228577 2.0565302 -2.5015044e+38
4.3289318 -0.39017522 2.0565302 -2.4357756e+38
4.3289127 -0.39806473 2.0565302 -2.7165807e+38
4.3288932 -0.40595424 2.0565302 -2.9838341e+38
4.3288741 -0.41384375 2.0565302 -3.0253262e+38
4.3288546 -0.42173326 2.0565302 -3.0651518e+38
4.328835 -0.42962277 2.0565302 -3.2514001e+38
4.3288159 -0.43751222 2.0565302 nan
4.3287964 -0.44540179 2.0565302 nan
4.279788 -0.44873756 2.0468702 nan
4.2797689 -0.45653373 2.0468702 nan
4.3287382 -0.46907026 2.0565302 nan
4.2797308 -0.47212607 2.0468702 nan
4.2797117 -0.47992224 2.0468702 nan
4.2796922 -0.4877184 2.0468702 nan
4.2796731 -0.49551457 2.0468702 nan
4.3286414 -0.50851774 2.0565302 nan
4.3286219 -0.51640725 2.0565302 nan
4.3286028 -0.52429676 2.0565302 nan
4.3285832 -0.53218627 2.0565302 nan
4.2795773 -0.53449535 2.0468702 nan
4.2795582 -0.54229158 2.0468702 nan
4.2795391 -0.55008775 2.0468702 nan
4.27952 -0.55788392 2.0468702 nan
4.279501 -0.56568009 2.0468702 nan
4.2794819 -0.57347625 2.0468702 nan
4.2794623 -0.58127242 2.0468702 nan
4.2794433 -0.58906859 2.0468702 nan
4.2794242 -0.59686476 2.0468702 nan
4.2794051 -0.60466093 2.0468702 nan
4.279386 -0.6124571 2.0468702 nan
4.279367 -0.62025321 2.0468702 nan
4.328331 -0.63474977 2.0565302 nan
4.3283119 -0.64263922 2.0565302 nan
4.3282924 -0.65052873 2.0565302 -3.3834361e+38
4.3282733 -0.65841824 2.0565302 -3.2486853e+38
4.3282537 -0.66630775 2.0565302 -2.7269523e+38
4.3282342 -0.67419726 2.0565302 -2.1956276e+38
4.3282151 -0.68208671 2.0565302 -2.3292806e+38
4.3781772 -0.69748002 2.0663874 -2.4618878e+38
4.6504359 -0.18559015 2.1113122 nan
4.5934181 -0.19248533 2.1001835 -2.6764887e+38
4.5374017 -0.19919345 2.0892503 -2.6212911e+38
4.5373812 -0.20747915 2.0892503 -2.5679668e+38
4.5373611 -0.21576484 2.0892503 -2.5682788e+38
4.5373406 -0.22405052 2.0892503 -2.5816222e+38
4.5373201 -0.23233622 2.0892503 -2.5416926e+38
4.5373001 -0.24062191 2.0892503 -2.5150038e+38
4.5372796 -0.2489076 2.0892503 -2.4883669e+38
4.5372591 -0.2571933 2.0892503 -2.4749186e+38
4.5372391 -0.26547897 2.0892503 -2.4483339e+38
4.5932121 -0.27640891 2.1001835 -2.4349376e+38
4.5371981 -0.28205037 2.0892503 -2.3018069e+38
4.5371776 -0.29033604 2.0892503 -2.1684642e+38
4.280056 -0.33959121 2.0390739 -1.7147112e+38
4.2800369 -0.34738737 2.0390739 -2.1291143e+38
4.2800179 -0.35518354 2.0390739 -2.54185e+38
4.2799988 -0.36297971 2.0390739 -2.555194e+38
4.3289709 -0.37439626 2.0486407 -2.5684335e+38
4.3289514 -0.38228577 2.0486407 -2.5282961e+38
4.3289318 -0.39017522 2.0486407 -2.5015079e+38
4.3289127 -0.39806473 2.0486407 -2.6493885e+38
4.3288932 -0.40595424 2.0486407 -2.7972201e+38
4.3288741 -0.41384375 2.0486407 -2.9443246e+38
4.3288546 -0.42173326 2.0486407 -3.1042995e+38
4.328835 -0.42962277 2.0486407 -3.250878e+38
4.3288159 -0.43751222 2.0486407 -3.3974578e+38
4.3287964 -0.44540179 2.0486407 nan
4.3287768 -0.45329124 2.0486407 nan
4.3287578 -0.46118075 2.0486407 nan
4.3287382 -0.46907026 2.0486407 nan
4.3287187 -0.47695976 2.0486407 nan
4.3286996 -0.48484927 2.0486407 nan
4.32868 -0.49273878 2.0486407 nan
4.3286605 -0.50062823 2.0486407 nan
4.3286414 -0.50851774 2.0486407 nan
4.3286219 -0.51640725 2.0486407 nan
4.3286028 -0.52429676 2.0486407 nan
4.3285832 -0.53218627 2.0486407 nan
4.3285637 -0.54007578 2.0486407 nan
4.3285446 -0.54796523 2.0486407 nan
4.2795391 -0.55008775 2.0390739 nan
4.27952 -0.55788392 2.0390739 nan
4.279501 -0.56568009 2.0390739 nan
4.2794819 -0.57347625 2.0390739 nan
4.2794623 -0.58127242 2.0390739 nan
4.2794433 -0.58906859 2.0390739 nan
4.2794242 -0.59686476 2.0390739 nan
4.2794051 -0.60466093 2.0390739 nan
4.279386 -0.6124571 2.0390739 nan
4.279367 -0.62025321 2.0390739 nan
4.2793474 -0.62804943 2.0390739 nan
4.3283119 -0.64263922 2.0486407 nan
4.3282924 -0.65052873 2.0486407 -3.3699873e+38
4.3282733 -0.65841824 2.0486407 -3.1029365e+38
4.3282537 -0.66630775 2.0486407 -2.6614764e+38
4.3282342 -0.67419726 2.0486407 -2.208971e+38
4.3781967 -0.68949527 2.0584025 -2.2626107e+38
4.3781772 -0.69748002 2.0584025 -2.3292238e+38
4.5934391 -0.18409297 2.0917912 -3.3284817e+38
4.5374222 -0.19090778 2.0809646 -1.797636e+38
4.5374017 -0.19919345 2.0809646 -2.2486381e+38
4.5373812 -0.20747915 2.0809646 -2.6876998e+38
4.5373611 -0.21576484 2.0809646 -2.6348434e+38
4.483345 -0.22211789 2.0705245 -2.5682778e+38
4.5373201 -0.23233622 2.0809646 -2.5416409e+38
4.5373001 -0.24062191 2.0809646 -2.5149523e+38
4.5372796 -0.2489076 2.0809646 -2.5016077e+38
4.5372591 -0.2571933 2.0809646 -2.474919e+38
4.5372391 -0.26547897 2.0809646 -2.4616264e+38
4.5932121 -0.27640891 2.0917912 -2.448229e+38
4.5931916 -0.28480124 2.0917912 -2.1954151e+38
4.5931706 -0.29319358 2.0917912 -1.9291541e+38
4.6501431 -0.3046031 2.1028113 -2.7810023e+38
4.280056 -0.33959121 2.0312779 -1.7024574e+38
4.2800369 -0.34738737 2.0312779 -2.1300998e+38
4.2800179 -0.35518354 2.0312779 -2.5420053e+38
4.32899 -0.36650676 2.0407512 -2.5552982e+38
4.3289709 -0.37439626 2.0407512 -2.5551425e+38
4.3289514 -0.38228577 2.0407512 -2.5683307e+38
4.3289318 -0.39017522 2.0407512 -2.5684366e+38
4.3289127 -0.39806473 2.0407512 -2.5821984e+38
4.3288932 -0.40595424 2.0407512 -2.5967421e+38
4.3288741 -0.41384375 2.0407512 -2.8770797e+38
4.3288546 -0.42173326 2.0407512 -3.1436015e+38
4.328835 -0.42962277 2.0407512 -3.2504083e+38
4.3288159 -0.43751222 2.0407512 -3.3566433e+38
4.3287964 -0.44540179 2.0407512 nan
4.3287768 -0.45329124 2.0407512 nan
4.3287578 -0.46118075 2.0407512 nan
4.3287382 -0.46907026 2.0407512 nan
4.3287187 -0.47695976 2.0407512 nan
4.3286996 -0.48484927 2.0407512 nan
4.32868 -0.49273878 2.0407512 nan
4.3286605 -0.50062823 2.0407512 nan
4.3286414 -0.50851774 2.0407512 nan
4.3286219 -0.51640725 2.0407512 nan
4.3286028 -0.52429676 2.0407512 nan
4.3285832 -0.53218627 2.0407512 nan
4.3285637 -0.54007578 2.0407512 nan
4.3285446 -0.54796523 2.0407512 nan
4.3285251 -0.55585474 2.0407512 nan
4.3285055 -0.56374425 2.0407512 nan
4.279501 -0.56568009 2.0312779 nan
4.2794819 -0.57347625 2.0312779 nan
4.2794623 -0.58127242 2.0312779 nan
4.2794433 -0.58906859 2.0312779 nan
4.2794242 -0.59686476 2.0312779 nan
4.2794051 -0.60466093 2.0312779 nan
4.279386 -0.6124571 2.0312779 nan
4.279367 -0.62025321 2.0312779 nan
4.2793474 -0.62804943 2.0312779 nan
4.3283119 -0.64263922 2.0407512 nan
4.3282924 -0.65052873 2.0407512 -3.3567457e+38
4.3282733 -0.65841824 2.0407512 -2.9558375e+38
4.3282537 -0.66630775 2.0407512 -2.593716e+38
4.3282342 -0.67419726 2.0407512 -2.2220538e+38
4.3781967 -0.68949527 2.0504179 -2.2094389e+38
4.4291582 -0.70513386 2.0602779 -2.182801e+38
4.5934391 -0.18409297 2.0833988 nan
4.5374222 -0.19090778 2.0726788 -1.9275948e+38
4.5374017 -0.19919345 2.0726788 -2.2216362e+38
4.5373812 -0.20747915 2.0726788 -2.528295e+38
4.5373611 -0.21576484 2.0726788 -2.5416928e+38
4.483345 -0.22211789 2.0623417 -2.5416411e+38
4.5373201 -0.23233622 2.0726788 -2.5282969e+38
4.5373001 -0.24062191 2.0726788 -2.5016083e+38
4.5372796 -0.2489076 2.0726788 -2.4882639e+38
4.5372591 -0.2571933 2.0726788 -2.461575e+38
4.5372391 -0.26547897 2.0726788 -2.4615746e+38
4.5932121 -0.27640891 2.0833988 -2.4482803e+38
4.5931916 -0.28480124 2.0833988 -2.1281211e+38
4.5931706 -0.29319358 2.0833988 -1.8211052e+38
4.6501431 -0.3046031 2.0943103 -2.8888017e+38
4.2800756 -0.33179504 2.0234816 nan
4.280056 -0.33959121 2.0234816 -2.2997275e+38
4.3290291 -0.35072774 2.0328617 -2.3949058e+38
4.3290095 -0.35861725 2.0328617 -2.4888358e+38
4.32899 -0.36650676 2.0328617 -2.515318e+38
4.3289709 -0.37439626 2.0328617 -2.5550918e+38
4.3289514 -0.38228577 2.0328617 -2.5949692e+38
4.3289318 -0.39017522 2.0328617 -2.6217617e+38
4.3289127 -0.39806473 2.0328617 -2.6353136e+38
4.3288932 -0.40595424 2.0328617 -2.6488176e+38
4.3288741 -0.41384375 2.0328617 -2.8498672e+38
4.3288546 -0.42173326 2.0328617 -3.0368961e+38
4.328835 -0.42962277 2.0328617 -3.1834769e+38
4.3288159 -0.43751222 2.0328617 -3.3295884e+38
4.3287964 -0.44540179 2.0328617 nan
4.3287768 -0.45329124 2.0328617 nan
4.3287578 -0.46118075 2.0328617 nan
4.3287382 -0.46907026 2.0328617 nan
4.3287187 -0.47695976 2.0328617 nan
4.2797117 -0.47992224 2.0234816 nan
4.2796922 -0.4877184 2.0234816 nan
4.2796731 -0.49551457 2.0234816 nan
4.3286414 -0.50851774 2.0328617 nan
4.3286219 -0.51640725 2.0328617 nan
4.3286028 -0.52429676 2.0328617 nan
4.3285832 -0.53218627 2.0328617 nan
4.3285637 -0.54007578 2.0328617 nan
4.3285446 -0.54796523 2.0328617 nan
4.3285251 -0.55585474 2.0328617 nan
4.3285055 -0.56374425 2.0328617 nan
4.3284864 -0.57163376 2.0328617 nan
4.2794819 -0.57347625 2.0234816 nan
4.2794623 -0.58127242 2.0234816 nan
4.2794433 -0.58906859 2.0234816 nan
4.2794242 -0.59686476 2.0234816 nan
4.2794051 -0.60466093 2.0234816 nan
4.279386 -0.6124571 2.0234816 nan
4.279367 -0.62025321 2.0234816 nan
4.2793474 -0.62804943 2.0234816 nan
4.3283119 -0.64263922 2.0328617 nan
4.3282924 -0.65052873 2.0328617 -3.3431404e+38
4.3282733 -0.65841824 2.0328617 -2.902771e+38
4.3282537 -0.66630775 2.0328617 -2.5813571e+38
4.3282342 -0.67419726 2.0328617 -2.2614613e+38
4.3781967 -0.68949527 2.042433 -2.2353976e+38
4.4291582 -0.70513386 2.052196 -2.2216394e+38
4.3781576 -0.70546478 2.042433 -3.0746314e+38
4.7084317 -0.18711358 2.0968018 nan
4.5934181 -0.19248533 2.0750065 -2.0490444e+38
4.5374017 -0.19919345 2.064393 -2.2084986e+38
4.5373812 -0.20747915 2.064393 -2.368683e+38
4.5373611 -0.21576484 2.064393 -2.4487503e+38
4.483345 -0.22211789 2.0541587 -2.5151078e+38
4.5373201 -0.23233622 2.064393 -2.5017119e+38
4.5373001 -0.24062191 2.064393 -2.4882637e+38
4.5372796 -0.2489076 2.064393 -2.4748675e+38
4.5372591 -0.2571933 2.064393 -2.4482826e+38
4.5372391 -0.26547897 2.064393 -2.4482824e+38
4.5372186 -0.27376467 2.064393 -2.4478118e+38
4.5931916 -0.28480124 2.0750065 -2.0741709e+38
4.5931706 -0.29319358 2.0750065 -1.7033437e+38
4.5931501 -0.30158597 2.0750065 -2.99779e+38
4.2800946 -0.32399887 2.0156856 nan
4.2800756 -0.33179504 2.0156856 nan
4.3290482 -0.34283823 2.0249722 -2.8872375e+38
4.3290291 -0.35072774 2.0249722 -2.6609055e+38
4.3290095 -0.35861725 2.0249722 -2.4219582e+38
4.32899 -0.36650676 2.0249722 -2.4885776e+38
4.3289709 -0.37439626 2.0249722 -2.5549879e+38
4.3289514 -0.38228577 2.0249722 -2.6212944e+38
4.3289318 -0.39017522 2.0249722 -2.6748277e+38
4.3289127 -0.39806473 2.0249722 -2.6884324e+38
4.3288932 -0.40595424 2.0249722 -2.7024538e+38
4.3288741 -0.41384375 2.0249722 -2.8232806e+38
4.3288546 -0.42173326 2.0249722 -2.930193e+38
4.328835 -0.42962277 2.0249722 -3.116963e+38
4.3288159 -0.43751222 2.0249722 -3.303108e+38
4.3287964 -0.44540179 2.0249722 -3.3830708e+38
4.3287768 -0.45329124 2.0249722 nan
4.3287578 -0.46118075 2.0249722 nan
4.3287382 -0.46907026 2.0249722 nan
4.3287187 -0.47695976 2.0249722 nan
4.2797117 -0.47992224 2.0156856 nan
4.2796922 -0.4877184 2.0156856 nan
4.3286605 -0.50062823 2.0249722 nan
4.3286414 -0.50851774 2.0249722 nan
4.3286219 -0.51640725 2.0249722 nan
4.3286028 -0.52429676 2.0249722 nan
4.3285832 -0.53218627 2.0249722 nan
4.3285637 -0.54007578 2.0249722 nan
4.3285446 -0.54796523 2.0249722 nan
4.3285251 -0.55585474 2.0249722 nan
4.3285055 -0.56374425 2.0249722 nan
4.3284864 -0.57163376 2.0249722 nan
4.2794819 -0.57347625 2.0156856 nan
4.3284473 -0.58741271 2.0249722 nan
4.3284283 -0.59530228 2.0249722 nan
4.2794242 -0.59686476 2.0156856 nan
4.3283892 -0.61108124 2.0249722 nan
4.279386 -0.6124571 2.0156856 nan
4.279367 -0.62025321 2.0156856 nan
4.2793474 -0.62804943 2.0156856 nan
4.3283119 -0.64263922 2.0249722 nan
4.3282924 -0.65052873 2.0249722 -3.3294831e+38
4.3282733 -0.65841824 2.0249722 -2.8358421e+38
4.3282537 -0.66630775 2.0249722 -2.5674947e+38
4.3782163 -0.68151051 2.0344484 -2.2884099e+38
4.4291782 -0.69705194 2.0441141 -2.27569e+38
4.4291582 -0.70513386 2.0441141 -2.2625036e+38
4.4291387 -0.71321577 2.0441141 -3.1412502e+38
4.4291186 -0.72129762 2.0441141 nan
4.6504359 -0.18559015 2.0773084 nan
4.5934181 -0.19248533 2.0666142 -2.4334318e+38
4.5933976 -0.20087768 2.0666142 -2.4473952e+38
4.5373812 -0.20747915 2.0561075 -2.4620399e+38
4.5373611 -0.21576484 2.0561075 -2.5018671e+38
4.5373406 -0.22405052 2.0561075 -2.5283478e+38
4.5373201 -0.23233622 2.0561075 -2.5016594e+38
4.5373001 -0.24062191 2.0561075 -2.4748673e+38
4.5372796 -0.2489076 2.0561075 -2.461575e+38
4.5372591 -0.2571933 2.0561075 -2.461471e+38
4.5372391 -0.26547897 2.0561075 -2.4615225e+38
4.5932121 -0.27640891 2.0666142 -2.4748105e+38
4.5931916 -0.28480124 2.0666142 -2.1145128e+38
4.5931706 -0.29319358 2.0666142 -1.7546434e+38
4.5931501 -0.30158597 2.0666142 -3.0896436e+38
4.5931296 -0.30997831 2.0666142 nan
4.5931091 -0.3183707 2.0666142 nan
4.3291063 -0.31916976 2.0170827 nan
4.2800946 -0.32399887 2.0078893 nan
4.3290677 -0.33494872 2.0170827 nan
4.3290482 -0.34283823 2.0170827 -3.3933323e+38
4.3290291 -0.35072774 2.0170827 -2.8600804e+38
4.3290095 -0.35861725 2.0170827 -2.328548e+38
4.32899 -0.36650676 2.0170827 -2.4352006e+38
4.3289709 -0.37439626 2.0170827 -2.5415918e+38
4.3289514 -0.38228577 2.0170827 -2.5948658e+38
4.3289318 -0.39017522 2.0170827 -2.6482442e+38
4.3289127 -0.39806473 2.0170827 -2.6885898e+38
4.3288932 -0.40595424 2.0170827 -2.7423824e+38
4.3288741 -0.41384375 2.0170827 -2.9428052e+38
4.3288546 -0.42173326 2.0170827 -3.1557452e+38
4.328835 -0.42962277 2.0170827 -3.2230929e+38
4.3288159 -0.43751222 2.0170827 -3.3030567e+38
4.3287964 -0.44540179 2.0170827 -3.3832801e+38
4.3287768 -0.45329124 2.0170827 nan
4.3287578 -0.46118075 2.0170827 nan
4.3287382 -0.46907026 2.0170827 nan
4.2797308 -0.47212607 2.0078893 nan
4.2797117 -0.47992224 2.0078893 nan
4.2796922 -0.4877184 2.0078893 nan
4.2796731 -0.49551457 2.0078893 nan
4.279654 -0.50331074 2.0078893 nan
4.279635 -0.51110691 2.0078893 nan
4.3286028 -0.52429676 2.0170827 nan
4.3285832 -0.53218627 2.0170827 nan
4.3285637 -0.54007578 2.0170827 nan
4.3285446 -0.54796523 2.0170827 nan
4.3285251 -0.55585474 2.0170827 nan
4.3285055 -0.56374425 2.0170827 nan
4.3284864 -0.57163376 2.0170827 nan
4.2794819 -0.57347625 2.0078893 nan
4.2794623 -0.58127242 2.0078893 nan
4.2794433 -0.58906859 2.0078893 nan
4.2794242 -0.59686476 2.0078893 nan
4.2794051 -0.60466093 2.0078893 nan
4.279386 -0.6124571 2.0078893 nan
4.279367 -0.62025321 2.0078893 nan
4.2793474 -0.62804943 2.0078893 nan
4.2793283 -0.6358456 2.0078893 nan
4.3282924 -0.65052873 2.0170827 -3.263072e+38
4.3282733 -0.65841824 2.0170827 -2.7828283e+38
4.3282537 -0.66630775 2.0170827 -2.567963e+38
4.4291978 -0.68897009 2.0360322 -2.3680084e+38
4.4291782 -0.69705194 2.0360322 -2.3285995e+38
4.4291582 -0.70513386 2.0360322 -2.2887774e+38
4.3781576 -0.70546478 2.0264635 -3.155115e+38
4.3781381 -0.71344954 2.0264635 nan
4.3781185 -0.72143424 2.0264635 nan
4.4290791 -0.73746133 2.0360322 nan
4.429059 -0.74554324 2.0360322 nan
4.7084107 -0.19572498 2.0795789 -2.8209862e+38
4.650394 -0.202592 2.0688074 -2.6856701e+38
4.5933771 -0.20927003 2.0582218 -2.5544109e+38
4.5373611 -0.21576484 2.0478218 -2.5550881e+38
4.5373406 -0.22405052 2.0478218 -2.5416918e+38
4.5373201 -0.23233622 2.0478218 -2.501659e+38
4.5373001 -0.24062191 2.0478218 -2.4617302e+38
4.5372796 -0.2489076 2.0478218 -2.4616781e+38
4.5372591 -0.2571933 2.0478218 -2.4615221e+38
4.5372391 -0.26547897 2.0478218 -2.4880545e+38
4.5372186 -0.27376467 2.0478218 -2.5010832e+38
4.5371981 -0.28205037 2.0478218 -2.1544416e+38
4.5931706 -0.29319358 2.0582218 -1.7967016e+38
4.5371575 -0.29862171 2.0478218 -3.1844042e+38
4.537137 -0.30690742 2.0478218 nan
4.5371165 -0.31519312 2.0478218 nan
4.5370965 -0.32347882 2.0478218 nan
4.537076 -0.33176446 2.0478218 nan
4.3290873 -0.32705927 2.0091932 nan
4.3290677 -0.33494872 2.0091932 nan
4.3290482 -0.34283823 2.0091932 nan
4.3290291 -0.35072774 2.0091932 -3.0574909e+38
4.3290095 -0.35861725 2.0091932 -2.2346187e+38
4.32899 -0.36650676 2.0091932 -2.3821351e+38
4.3289709 -0.37439626 2.0091932 -2.5283514e+38
4.3289514 -0.38228577 2.0091932 -2.5815218e+38
4.3289318 -0.39017522 2.0091932 -2.6217637e+38
4.3289127 -0.39806473 2.0091932 -2.7019344e+38
4.3288932 -0.40595424 2.0091932 -2.7694353e+38
4.3288741 -0.41384375 2.0091932 -3.0764051e+38
4.3288546 -0.42173326 2.0091932 -3.3690979e+38
4.328835 -0.42962277 2.0091932 -3.3430875e+38
4.3288159 -0.43751222 2.0091932 -3.3031612e+38
4.3287964 -0.44540179 2.0091932 -3.3833846e+38
4.3287768 -0.45329124 2.0091932 nan
4.3287578 -0.46118075 2.0091932 nan
4.3287382 -0.46907026 2.0091932 nan
4.3287187 -0.47695976 2.0091932 nan
4.2797117 -0.47992224 2.000093 nan
4.2796922 -0.4877184 2.000093 nan
4.2796731 -0.49551457 2.000093 nan
4.279654 -0.50331074 2.000093 nan
4.279635 -0.51110691 2.000093 nan
4.3286028 -0.52429676 2.0091932 nan
4.3285832 -0.53218627 2.0091932 nan
4.3285637 -0.54007578 2.0091932 nan
4.3285446 -0.54796523 2.0091932 nan
4.3285251 -0.55585474 2.0091932 nan
4.3285055 -0.56374425 2.0091932 nan
4.3284864 -0.57163376 2.0091932 nan
4.2794819 -0.57347625 2.000093 nan
4.3284473 -0.58741271 2.0091932 nan
4.2794433 -0.58906859 2.000093 nan
4.2794242 -0.59686476 2.000093 nan
4.3283892 -0.61108124 2.0091932 nan
4.3283701 -0.61897069 2.0091932 nan
4.3283505 -0.62686026 2.0091932 nan
4.328331 -0.63474977 2.0091932 nan
4.3283119 -0.64263922 2.0091932 nan
4.3282924 -0.65052873 2.0091932 -3.1959895e+38
4.3782554 -0.66554105 2.0184789 -2.7155895e+38
4.3782358 -0.67352581 2.0184789 -2.580114e+38
4.4821792 -0.69672215 2.0377932 -2.4345216e+38
4.4291782 -0.69705194 2.0279503 -2.3685792e+38
4.4291582 -0.70513386 2.0279503 -2.3026405e+38
4.3781576 -0.70546478 2.0184789 -3.1822192e+38
4.3781381 -0.71344954 2.0184789 nan
4.3781185 -0.72143424 2.0184789 nan
4.4290791 -0.73746133 2.0279503 nan
4.429059 -0.74554324 2.0279503 nan
4.7084317 -0.18711358 2.0709674 nan
4.7084107 -0.19572498 2.0709674 -3.2202234e+38
4.650394 -0.202592 2.0603065 -2.7400337e+38
4.5933771 -0.20927003 2.0498292 -2.2623444e+38
4.5933566 -0.21766241 2.0498292 -2.3821846e+38
4.5373406 -0.22405052 2.039536 -2.5151589e+38
4.5373201 -0.23233622 2.039536 -2.4884701e+38
4.5373001 -0.24062191 2.039536 -2.4617815e+38
4.5372796 -0.2489076 2.039536 -2.4616773e+38
4.5372591 -0.2571933 2.039536 -2.4748138e+38
4.5372391 -0.26547897 2.039536 -2.4881578e+38
4.5372186 -0.27376467 2.039536 -2.5015503e+38
4.5371981 -0.28205037 2.039536 -2.1680452e+38
4.5371776 -0.29033604 2.039536 -1.8478983e+38
4.5371575 -0.29862171 2.039536 -3.0228212e+38
4.537137 -0.30690742 2.039536 nan
4.5371165 -0.31519312 2.039536 nan
4.5370965 -0.32347882 2.039536 nan
4.4830837 -0.32849473 2.0296102 nan
4.3790793 -0.33018208 2.010494 nan
4.3290677 -0.33494872 2.0013037 nan
4.3290482 -0.34283823 2.0013037 nan
4.3290291 -0.35072774 2.0013037 -3.0062421e+38
4.3290095 -0.35861725 2.0013037 -2.1006571e+38
4.32899 -0.36650676 2.0013037 -2.3018618e+38
4.3289709 -0.37439626 2.0013037 -2.5018188e+38
4.3289514 -0.38228577 2.0013037 -2.4885799e+38
4.3289318 -0.39017522 2.0013037 -2.4756007e+38
4.3289127 -0.39806473 2.0013037 -2.6758693e+38
4.3288932 -0.40595424 2.0013037 -2.8892747e+38
4.3288741 -0.41384375 2.0013037 -3.1030434e+38
4.3288546 -0.42173326 2.0013037 -3.3162415e+38
4.328835 -0.42962277 2.0013037 -3.2763152e+38
4.3288159 -0.43751222 2.0013037 -3.2230446e+38
4.3287964 -0.44540179 2.0013037 nan
4.3287768 -0.45329124 2.0013037 nan
4.3287578 -0.46118075 2.0013037 nan
4.3287382 -0.46907026 2.0013037 nan
4.2797308 -0.47212607 1.9922969 nan
4.2797117 -0.47992224 1.9922969 nan
4.2796922 -0.4877184 1.9922969 nan
4.2796731 -0.49551457 1.9922969 nan
4.279654 -0.50331074 1.9922969 nan
4.279635 -0.51110691 1.9922969 nan
4.3286028 -0.52429676 2.0013037 nan
4.3285832 -0.53218627 2.0013037 nan
4.3285637 -0.54007578 2.0013037 nan
4.3285446 -0.54796523 2.0013037 nan
4.3285251 -0.55585474 2.0013037 nan
4.3285055 -0.56374425 2.0013037 nan
4.3284864 -0.57163376 2.0013037 nan
4.2794819 -0.57347625 1.9922969 nan
4.3284473 -0.58741271 2.0013037 nan
4.2794433 -0.58906859 1.9922969 nan
4.2794242 -0.59686476 1.9922969 nan
4.3283892 -0.61108124 2.0013037 nan
4.3283701 -0.61897069 2.0013037 nan
4.3283505 -0.62686026 2.0013037 nan
4.328331 -0.63474977 2.0013037 nan
4.3283119 -0.64263922 2.0013037 nan
4.3282924 -0.65052873 2.0013037 -3.2095954e+38
4.3782554 -0.66554105 2.010494 -2.702195e+38
4.3782358 -0.67352581 2.010494 -2.5676013e+38
4.3782163 -0.68151051 2.010494 -2.4347292e+38
4.4291782 -0.69705194 2.0198684 -2.3683184e+38
4.4291582 -0.70513386 2.0198684 -2.3013422e+38
4.3781576 -0.70546478 2.010494 -2.981745e+38
4.3781381 -0.71344954 2.010494 nan
4.3781185 -0.72143424 2.010494 nan
4.4290791 -0.73746133 2.0198684 nan
4.3780789 -0.73740369 2.010494 nan
4.7084107 -0.19572498 2.062356 nan
4.650394 -0.202592 2.0518055 -2.7786613e+38
4.5933771 -0.20927003 2.0414369 -1.9558934e+38
4.5933566 -0.21766241 2.0414369 -2.2227809e+38
4.5373406 -0.22405052 2.0312502 -2.4752821e+38
4.5373201 -0.23233622 2.0312502 -2.4751781e+38
4.5373001 -0.24062191 2.0312502 -2.4618334e+38
4.5372796 -0.2489076 2.0312502 -2.4750217e+38
4.5372591 -0.2571933 2.0312502 -2.47497e+38
4.5372391 -0.26547897 2.0312502 -2.4882622e+38
4.5372186 -0.27376467 2.0312502 -2.5012933e+38
4.5371981 -0.28205037 2.0312502 -2.1948421e+38
4.5931706 -0.29319358 2.0414369 -1.8896971e+38
4.5371575 -0.29862171 2.0312502 -2.8763956e+38
4.537137 -0.30690742 2.0312502 nan
4.5371165 -0.31519312 2.0312502 nan
4.5370965 -0.32347882 2.0312502 nan
4.4830837 -0.32849473 2.0214274 nan
4.3790793 -0.33018208 2.0025094 nan
4.3290677 -0.33494872 1.993414 nan
4.3290482 -0.34283823 1.993414 nan
4.3290291 -0.35072774 1.993414 -2.939627e+38
4.3290095 -0.35861725 1.993414 -1.9690336e+38
4.32899 -0.36650676 1.993414 -2.2227837e+38
4.3289709 -0.37439626 1.993414 -2.4619941e+38
4.3289514 -0.38228577 1.993414 -2.3953783e+38
4.3289318 -0.39017522 1.993414 -2.3296984e+38
4.3289127 -0.39806473 1.993414 -2.6633063e+38
4.3288932 -0.40595424 1.993414 -2.9961342e+38
4.3288741 -0.41384375 1.993414 -3.130149e+38
4.3288546 -0.42173326 1.993414 -3.2630215e+38
4.328835 -0.42962277 1.993414 -3.2094905e+38
4.3288159 -0.43751222 1.993414 -3.1438623e+38
4.3287964 -0.44540179 1.993414 nan
4.3287768 -0.45329124 1.993414 nan
4.3287578 -0.46118075 1.993414 nan
4.3287382 -0.46907026 1.993414 -3.3835939e+38
4.2797308 -0.47212607 1.9845006 -3.3968866e+38
4.2797117 -0.47992224 1.9845006 nan
4.2796922 -0.4877184 1.9845006 nan
4.2796731 -0.49551457 1.9845006 -3.3970955e+38
4.279654 -0.50331074 1.9845006 nan
4.279635 -0.51110691 1.9845006 nan
4.2796159 -0.51890308 1.9845006 nan
4.2795968 -0.52669924 1.9845006 nan
4.3285637 -0.54007578 1.993414 nan
4.3285446 -0.54796523 1.993414 nan
4.3285251 -0.55585474 1.993414 nan
4.3285055 -0.56374425 1.993414 nan
4.3284864 -0.57163376 1.993414 nan
4.2794819 -0.57347625 1.9845006 nan
4.3284473 -0.58741271 1.993414 nan
4.2794433 -0.58906859 1.9845006 nan
4.2794242 -0.59686476 1.9845006 nan
4.3283892 -0.61108124 1.993414 nan
4.3283701 -0.61897069 1.993414 nan
4.3283505 -0.62686026 1.993414 nan
4.328331 -0.63474977 1.993414 nan
4.3283119 -0.64263922 1.993414 nan
4.3782754 -0.6575563 2.0025094 -3.2360749e+38
4.3782554 -0.66554105 2.0025094 -2.6888492e+38
4.3782358 -0.67352581 2.0025094 -2.5533728e+38
4.3782163 -0.68151051 2.0025094 -2.4212299e+38
4.4291782 -0.69705194 2.0117865 -2.3685291e+38
4.4291582 -0.70513386 2.0117865 -2.3019657e+38
4.3781576 -0.70546478 2.0025094 -2.7940415e+38
4.3781381 -0.71344954 2.0025094 -3.2895517e+38
4.3781185 -0.72143424 2.0025094 nan
4.4290791 -0.73746133 2.0117865 nan
4.3780789 -0.73740369 2.0025094 nan
4.7684069 -0.19741522 2.0645447 nan
4.7083898 -0.20433637 2.0537446 -2.8862946e+38
4.650373 -0.21109292 2.0433044 -1.8624304e+38
4.5933566 -0.21766241 2.0330446 -2.1691441e+38
4.5933356 -0.22605476 2.0330446 -2.4885742e+38
4.5933151 -0.23444711 2.0330446 -2.47523e+38
4.5932946 -0.24283947 2.0330446 -2.4618336e+38
4.5372796 -0.2489076 2.0229645 -2.4750738e+38
4.5372591 -0.2571933 2.0229645 -2.4883146e+38
4.5372391 -0.26547897 2.0229645 -2.4882628e+38
4.5372186 -0.27376467 2.0229645 -2.4881594e+38
4.5371981 -0.28205037 2.0229645 -2.2750677e+38
4.5371776 -0.29033604 2.0229645 -2.0752189e+38
4.5371575 -0.29862171 2.0229645 -2.4625147e+38
4.537137 -0.30690742 2.0229645 -2.8641454e+38
4.5371165 -0.31519312 2.0229645 nan
4.5370965 -0.32347882 2.0229645 nan
4.4830837 -0.32849473 2.0132446 nan
4.4300714 -0.33336735 2.0037045 nan
4.3790598 -0.33816683 1.9945245 nan
4.3790402 -0.34615159 1.9945245 -3.3030957e+38
4.3790207 -0.35413629 1.9945245 -2.688062e+38
4.3790011 -0.36212105 1.9945245 -2.0885095e+38
4.32899 -0.36650676 1.9855245 -2.2622975e+38
4.3789616 -0.3780905 1.9945245 -2.4354619e+38
4.3289514 -0.38228577 1.9855245 -2.3689495e+38
4.3289318 -0.39017522 1.9855245 -2.3029074e+38
4.3289127 -0.39806473 1.9855245 -2.5965875e+38
4.3288932 -0.40595424 1.9855245 -2.889798e+38
4.3288741 -0.41384375 1.9855245 -3.0767738e+38
4.3288546 -0.42173326 1.9855245 -3.2498858e+38
4.2798457 -0.42534906 1.9767046 nan
4.3288159 -0.43751222 1.9855245 nan
4.3287964 -0.44540179 1.9855245 nan
4.3287768 -0.45329124 1.9855245 nan
4.3287578 -0.46118075 1.9855245 nan
4.2797499 -0.4643299 1.9767046 -3.3704568e+38
4.2797308 -0.47212607 1.9767046 -3.3835935e+38
4.2797117 -0.47992224 1.9767046 -3.3969373e+38
4.2796922 -0.4877184 1.9767046 -3.3436639e+38
4.2796731 -0.49551457 1.9767046 -3.3041013e+38
4.279654 -0.50331074 1.9767046 -3.3307923e+38
4.279635 -0.51110691 1.9767046 -3.3579997e+38
4.2796159 -0.51890308 1.9767046 -3.3977723e+38
4.2795968 -0.52669924 1.9767046 nan
4.2795773 -0.53449535 1.9767046 nan
4.2795582 -0.54229158 1.9767046 nan
4.2795391 -0.55008775 1.9767046 nan
4.27952 -0.55788392 1.9767046 nan
4.279501 -0.56568009 1.9767046 nan
4.2794819 -0.57347625 1.9767046 nan
4.3284473 -0.58741271 1.9855245 nan
4.2794433 -0.58906859 1.9767046 nan
4.3284087 -0.60319173 1.9855245 nan
4.3283892 -0.61108124 1.9855245 nan
4.3283701 -0.61897069 1.9855245 nan
4.3283505 -0.62686026 1.9855245 nan
4.328331 -0.63474977 1.9855245 nan
4.3782949 -0.6495716 1.9945245 nan
4.3782754 -0.6575563 1.9945245 -3.2628659e+38
4.3782554 -0.66554105 1.9945245 -2.7822053e+38
4.3782358 -0.67352581 1.9945245 -2.6077344e+38
4.3782163 -0.68151051 1.9945245 -2.4346785e+38
4.4291782 -0.69705194 2.0037045 -2.27559e+38
4.4291582 -0.70513386 2.0037045 -2.1161857e+38
4.3781576 -0.70546478 1.9945245 -2.4753361e+38
4.3781381 -0.71344954 1.9945245 -2.849451e+38
4.3281374 -0.71364474 1.9855245 nan
4.3780985 -0.72941899 1.9945245 nan
4.3780789 -0.73740369 1.9945245 nan
4.7684069 -0.19741522 2.0558188 nan
4.7683854 -0.20614092 2.0558188 -3.0043169e+38
4.7083683 -0.21294779 2.0451331 -1.7557291e+38
4.650352 -0.21959384 2.0348036 -2.1293709e+38
4.5933356 -0.22605476 2.0246522 -2.5018147e+38
4.5933151 -0.23444711 2.0246522 -2.4885229e+38
4.5932946 -0.24283947 2.0246522 -2.461886e+38
4.5372796 -0.2489076 2.014679 -2.4884184e+38
4.5372591 -0.2571933 2.014679 -2.5016588e+38
4.5372391 -0.26547897 2.014679 -2.4882628e+38
4.5372186 -0.27376467 2.014679 -2.4616787e+38
4.5371981 -0.28205037 2.014679 -2.3553409e+38
4.5931706 -0.29319358 2.0246522 -2.2480666e+38
4.5371575 -0.29862171 2.014679 -2.0608311e+38
4.537137 -0.30690742 2.014679 -1.8779674e+38
4.5371165 -0.31519312 2.014679 -3.1581371e+38
4.5370965 -0.32347882 2.014679 nan
4.4830837 -0.32849473 2.0050616 nan
4.4830637 -0.33667755 2.0050616 nan
4.3790598 -0.33816683 1.9865398 nan
4.3790402 -0.34615159 1.9865398 -2.6889488e+38
4.3790207 -0.35413629 1.9865398 -2.4476057e+38
4.3790011 -0.36212105 1.9865398 -2.1954181e+38
4.3789816 -0.37010574 1.9865398 -2.3024855e+38
4.3789616 -0.3780905 1.9865398 -2.4087201e+38
4.3289514 -0.38228577 1.977635 -2.3419993e+38
4.3289318 -0.39017522 1.977635 -2.2764772e+38
4.3289127 -0.39806473 1.977635 -2.5303332e+38
4.3288932 -0.40595424 1.977635 -2.7835112e+38
4.3288741 -0.41384375 1.977635 -3.0105722e+38
4.2798648 -0.41755289 1.9689083 -3.2369065e+38
4.2798457 -0.42534906 1.9689083 nan
4.2798262 -0.43314523 1.9689083 nan
4.2798071 -0.44094139 1.9689083 nan
4.279788 -0.44873756 1.9689083 -3.2506178e+38
4.2797689 -0.45653373 1.9689083 -3.3032677e+38
4.2797499 -0.4643299 1.9689083 -3.3567485e+38
4.2797308 -0.47212607 1.9689083 -3.3700929e+38
4.2797117 -0.47992224 1.9689083 -3.3701444e+38
4.2796922 -0.4877184 1.9689083 -3.2901307e+38
4.2796731 -0.49551457 1.9689083 -3.1971894e+38
4.279654 -0.50331074 1.9689083 -3.2102746e+38
4.279635 -0.51110691 1.9689083 -3.2107955e+38
4.2796159 -0.51890308 1.9689083 -3.2643816e+38
4.2795968 -0.52669924 1.9689083 -3.3179667e+38
4.2795773 -0.53449535 1.9689083 -3.3979808e+38
4.2795582 -0.54229158 1.9689083 nan
4.2795391 -0.55008775 1.9689083 nan
4.27952 -0.55788392 1.9689083 nan
4.279501 -0.56568009 1.9689083 nan
4.3284669 -0.57952321 1.977635 nan
4.3284473 -0.58741271 1.977635 nan
4.3284283 -0.59530228 1.977635 nan
4.3284087 -0.60319173 1.977635 nan
4.3283892 -0.61108124 1.977635 nan
4.3283701 -0.61897069 1.977635 nan
4.3283505 -0.62686026 1.977635 nan
4.3783145 -0.64158684 1.9865398 nan
4.3782949 -0.6495716 1.9865398 nan
4.3782754 -0.6575563 1.9865398 -3.3026916e+38
4.3782554 -0.66554105 1.9865398 -2.8755123e+38
4.3782358 -0.67352581 1.9865398 -2.6606978e+38
4.4291978 -0.68897009 1.9956226 -2.4349915e+38
4.4291782 -0.69705194 1.9956226 -2.1828564e+38
4.4291582 -0.70513386 1.9956226 -1.9299376e+38
4.3781576 -0.70546478 1.9865398 -2.1682622e+38
4.3781381 -0.71344954 1.9865398 -2.397512e+38
4.3281374 -0.71364474 1.977635 nan
4.3281178 -0.72153425 1.977635 nan
4.7683854 -0.20614092 2.0470932 nan
4.7083683 -0.21294779 2.0365217 -2.459286e+38
4.650352 -0.21959384 2.0263026 -2.4607948e+38
4.5933356 -0.22605476 2.0162597 -2.4620417e+38
4.5933151 -0.23444711 2.0162597 -2.475231e+38
4.5932946 -0.24283947 2.0162597 -2.488419e+38
4.5932741 -0.25123182 2.0162597 -2.4884705e+38
4.5372591 -0.2571933 2.0063932 -2.4884186e+38
4.5372391 -0.26547897 2.0063932 -2.4750744e+38
4.5932121 -0.27640891 2.0162597 -2.4617825e+38
4.5371981 -0.28205037 2.0063932 -2.4084061e+38
4.5931706 -0.29319358 2.0162597 -2.368005e+38
4.5931501 -0.30158597 2.0162597 -2.0879793e+38
4.537137 -0.30690742 2.0063932 -1.8080221e+38
4.5371165 -0.31519312 2.0063932 -3.0097386e+38
4.5370965 -0.32347882 2.0063932 nan
4.4830837 -0.32849473 1.9968789 nan
4.4830637 -0.33667755 1.9968789 nan
4.3790598 -0.33816683 1.978555 nan
4.3790402 -0.34615159 1.978555 -2.6994871e+38
4.3790207 -0.35413629 1.978555 -2.4476045e+38
4.3790011 -0.36212105 1.978555 -2.1955731e+38
4.32899 -0.36650676 1.9697454 -2.3156214e+38
4.3789616 -0.3780905 1.978555 -2.4353032e+38
4.3289514 -0.38228577 1.9697454 -2.408614e+38
4.3289318 -0.39017522 1.9697454 -2.3825542e+38
4.3289127 -0.39806473 1.9697454 -2.636411e+38
4.3288932 -0.40595424 1.9697454 -2.8761935e+38
4.3288741 -0.41384375 1.9697454 -3.2230931e+38
4.2798648 -0.41755289 1.9611121 nan
4.2798457 -0.42534906 1.9611121 nan
4.2798262 -0.43314523 1.9611121 nan
4.2798071 -0.44094139 1.9611121 nan
4.279788 -0.44873756 1.9611121 -3.2631306e+38
4.2797689 -0.45653373 1.9611121 -3.3164034e+38
4.2797499 -0.4643299 1.9611121 -3.3697804e+38
4.2797308 -0.47212607 1.9611121 -3.3834882e+38
4.2797117 -0.47992224 1.9611121 -3.3967803e+38
4.2796922 -0.4877184 1.9611121 -3.3969357e+38
4.2796731 -0.49551457 1.9611121 nan
4.3286414 -0.50851774 1.9697454 nan
4.279635 -0.51110691 1.9611121 nan
4.3286028 -0.52429676 1.9697454 nan
4.2795968 -0.52669924 1.9611121 nan
4.2795773 -0.53449535 1.9611121 nan
4.2795582 -0.54229158 1.9611121 nan
4.3285251 -0.55585474 1.9697454 nan
4.27952 -0.55788392 1.9611121 nan
4.279501 -0.56568009 1.9611121 nan
4.3284669 -0.57952321 1.9697454 nan
4.3284473 -0.58741271 1.9697454 nan
4.3284283 -0.59530228 1.9697454 nan
4.3284087 -0.60319173 1.9697454 nan
4.3283892 -0.61108124 1.9697454 nan
4.3283701 -0.61897069 1.9697454 nan
4.3283505 -0.62686026 1.9697454 nan
4.3783145 -0.64158684 1.978555 nan
4.3782949 -0.6495716 1.978555 nan
4.3782754 -0.6575563 1.978555 -3.3161924e+38
4.3782554 -0.66554105 1.978555 -2.9557866e+38
4.3782358 -0.67352581 1.978555 -2.5816729e+38
4.3782163 -0.68151051 1.978555 -2.2091278e+38
4.4291782 -0.69705194 1.9875407 -2.2093897e+38
4.3781772 -0.69748002 1.978555 -2.2227308e+38
4.3781576 -0.70546478 1.978555 -2.3817159e+38
4.3781381 -0.71344954 1.978555 -2.5547334e+38
4.3281374 -0.71364474 1.9697454 nan
4.3281178 -0.72153425 1.9697454 nan
4.7084107 -0.19572498 2.0279102 nan
4.7083683 -0.21294779 2.0279102 -3.1531342e+38
4.650352 -0.21959384 2.0178018 -2.7792343e+38
4.6503315 -0.22809479 2.0178018 -2.4078843e+38
4.6503105 -0.23659571 2.0178018 -2.4619391e+38
4.5932946 -0.24283947 2.0078673 -2.5151076e+38
4.5932741 -0.25123182 2.0078673 -2.4885746e+38
4.5372591 -0.2571933 1.9981074 -2.461886e+38
4.5372391 -0.26547897 1.9981074 -2.461886e+38
4.5372186 -0.27376467 1.9981074 -2.4484901e+38
4.5371981 -0.28205037 1.9981074 -2.4616787e+38
4.5371776 -0.29033604 1.9981074 -2.4745525e+38
4.5371575 -0.29862171 1.9981074 -2.1017426e+38
4.537137 -0.30690742 1.9981074 -1.7301899e+38
4.5371165 -0.31519312 1.9981074 -2.8633132e+38
4.5370965 -0.32347882 1.9981074 nan
4.4830837 -0.32849473 1.988696 nan
4.4300714 -0.33336735 1.9794588 nan
4.3790598 -0.33816683 1.9705703 nan
4.3790402 -0.34615159 1.9705703 -2.7144943e+38
4.3790207 -0.35413629 1.9705703 -2.4610027e+38
4.3790011 -0.36212105 1.9705703 -2.1956781e+38
4.32899 -0.36650676 1.9618559 -2.3290703e+38
4.3289709 -0.37439626 1.9618559 -2.4484402e+38
4.3289514 -0.38228577 1.9618559 -2.4746602e+38
4.3289318 -0.39017522 1.9618559 -2.4891005e+38
4.3289127 -0.39806473 1.9618559 -2.729873e+38
4.3288932 -0.40595424 1.9618559 -2.9701765e+38
4.2798839 -0.40975672 1.953316 nan
4.2798648 -0.41755289 1.953316 nan
4.2798457 -0.42534906 1.953316 nan
4.2798262 -0.43314523 1.953316 -3.1176946e+38
4.2798071 -0.44094139 1.953316 -3.1965128e+38
4.279788 -0.44873756 1.953316 -3.2630263e+38
4.2797689 -0.45653373 1.953316 -3.3294877e+38
4.2797499 -0.4643299 1.953316 -3.3833335e+38
4.2797308 -0.47212607 1.953316 -3.3971985e+38
4.2797117 -0.47992224 1.953316 nan
4.2796922 -0.4877184 1.953316 nan
4.2796731 -0.49551457 1.953316 nan
4.3286414 -0.50851774 1.9618559 nan
4.3286219 -0.51640725 1.9618559 nan
4.3286028 -0.52429676 1.9618559 nan
4.3285832 -0.53218627 1.9618559 nan
4.2795773 -0.53449535 1.953316 nan
4.2795582 -0.54229158 1.953316 nan
4.2795391 -0.55008775 1.953316 nan
4.3285055 -0.56374425 1.9618559 nan
4.3284864 -0.57163376 1.9618559 nan
4.3284669 -0.57952321 1.9618559 nan
4.3284473 -0.58741271 1.9618559 nan
4.3284283 -0.59530228 1.9618559 nan
4.3284087 -0.60319173 1.9618559 nan
4.3283892 -0.61108124 1.9618559 nan
4.3783536 -0.62561738 1.9705703 nan
4.3283505 -0.62686026 1.9618559 nan
4.3783145 -0.64158684 1.9705703 nan
4.3782949 -0.6495716 1.9705703 nan
4.3782754 -0.6575563 1.9705703 -3.3289107e+38
4.3782554 -0.66554105 1.9705703 -3.0217273e+38
4.3782358 -0.67352581 1.9705703 -2.5010884e+38
4.3782163 -0.68151051 1.9705703 -1.9831073e+38
4.4291782 -0.69705194 1.9794588 -2.2494227e+38
