# .PCD v0.7 - Point Cloud Data file format
VERSION 0.7
FIELDS x y z rgb
SIZE 4 4 4 4
TYPE F F F F
COUNT 1 1 1 1
WIDTH 1033
HEIGHT 1
VIEWPOINT 0 0 0 1 0 0 0
POINTS 1033
DATA ascii
1.8698421 -0.35003003 1.6866302 -2.3690526e+38
1.8698347 -0.35323191 1.6866302 -2.3822923e+38
1.8698273 -0.35643381 1.6866302 -2.3954284e+38
1.8698199 -0.35963571 1.6866302 -2.3954804e+38
1.8698125 -0.36283761 1.6866302 -2.3821883e+38
1.8698053 -0.36603948 1.6866302 -2.355656e+38
1.8697979 -0.36924139 1.6866302 -2.3690009e+38
1.8697906 -0.37244332 1.6866302 -2.3824493e+38
1.8697832 -0.37564519 1.6866302 -2.395846e+38
1.8697758 -0.37884709 1.6866302 -2.3959509e+38
1.8617718 -0.38056019 1.6845045 -2.4358809e+38
1.8617647 -0.38374686 1.6845045 -2.4625703e+38
1.8617573 -0.38693351 1.6845045 -2.4894157e+38
1.8617499 -0.39012015 1.6845045 -2.5030197e+38
1.8617427 -0.39330682 1.6845045 -2.5433643e+38
1.8617353 -0.39649349 1.6845045 -2.5833969e+38
1.861728 -0.39968014 1.6845045 -2.583293e+38
1.8697171 -0.40446228 1.6866302 -2.5828779e+38
1.8697097 -0.40766418 1.6866302 -2.5825146e+38
1.8786983 -0.41269526 1.6890216 -2.5826708e+38
1.878691 -0.41591433 1.6890216 -2.5826193e+38
1.8866799 -0.42078975 1.6911473 -2.5696391e+38
1.8866723 -0.42402405 1.6911473 -2.5830361e+38
1.8866649 -0.42725834 1.6911473 -2.5966405e+38
1.8866575 -0.43049261 1.6911473 -2.6499143e+38
1.8946462 -0.43544427 1.6932731 -2.7031882e+38
1.8946388 -0.43869376 1.6932731 -2.7694951e+38
1.9036267 -0.44390965 1.6956645 -2.8358512e+38
1.9036193 -0.44717631 1.6956645 -2.5825178e+38
1.9116077 -0.4522213 1.6977903 -2.3312697e+38
1.9116001 -0.45550317 1.6977903 -3.3317288e+38
1.920588 -0.46081999 1.7001817 nan
1.9205806 -0.46411905 1.7001817 nan
1.920573 -0.46741804 1.7001817 nan
1.5576 -0.018931389 1.6008559 nan
1.5575941 -0.021537095 1.6008559 nan
1.5575881 -0.024142802 1.6008559 nan
1.5525818 -0.026903715 1.5995369 nan
1.5525758 -0.029499896 1.5995369 nan
2.032263 -0.16646475 1.7261655 -2.2487428e+38
2.0222564 -0.16942847 1.7235274 -2.2222102e+38
2.0222483 -0.1729199 1.7235274 -2.2354505e+38
2.0222404 -0.17641132 1.7235274 -2.2353982e+38
2.0222323 -0.17990273 1.7235274 -2.2221574e+38
2.0132256 -0.18283352 1.721153 -2.2088654e+38
2.0032191 -0.18566582 1.7185149 -2.2088136e+38
1.9932127 -0.18846002 1.7158769 -2.2086577e+38
1.9932048 -0.19189622 1.7158769 -2.2087094e+38
1.9751997 -0.194074 1.7111284 -2.222054e+38
1.9751921 -0.19747588 1.7111284 -2.2086583e+38
1.9661856 -0.2002143 1.7087541 -2.208607e+38
1.9661779 -0.20359904 1.7087541 -2.2086076e+38
1.9661701 -0.2069838 1.7087541 -2.2086074e+38
1.957164 -0.20965365 1.7063798 -2.208607e+38
1.9571562 -0.21302125 1.7063798 -2.2086067e+38
1.9481502 -0.21563965 1.7040055 -2.2086063e+38
1.930146 -0.21745744 1.6992569 -2.2086057e+38
1.9211402 -0.21999013 1.6968826 -2.1953128e+38
1.9211326 -0.22328919 1.6968826 -2.1953126e+38
1.9211252 -0.22658822 1.6968826 -2.1820721e+38
1.9121194 -0.22905234 1.6945083 -2.1687802e+38
1.9121118 -0.23233423 1.6945083 -2.1422478e+38
1.9121044 -0.23561612 1.6945083 -2.1156634e+38
1.9040985 -0.23811015 1.6923978 -2.1024233e+38
1.9040911 -0.24137682 1.6923978 -2.0890277e+38
1.9040835 -0.24464348 1.6923978 -2.0890282e+38
1.6321404 -0.21956852 1.6206417 -2.088976e+38
1.632134 -0.2223171 1.6206417 -2.0889237e+38
1.6321278 -0.22506565 1.6206417 -2.102216e+38
1.6321213 -0.22781423 1.6206417 -2.102216e+38
1.887043 -0.26231018 1.6879131 -2.1022158e+38
1.6381011 -0.23675367 1.6222246 -2.1022675e+38
1.644093 -0.24021885 1.6238074 -2.1156113e+38
1.6440866 -0.24299026 1.6238074 -2.1156636e+38
1.6440804 -0.24576169 1.6238074 -2.1289561e+38
1.644074 -0.2485331 1.6238074 -2.1554889e+38
1.6440675 -0.25130454 1.6238074 -2.1554889e+38
1.8789861 -0.28715271 1.6858026 -2.1954702e+38
1.8699815 -0.28919399 1.6834283 -2.2221073e+38
1.8789713 -0.29359078 1.6858026 -2.2088155e+38
1.8699667 -0.29559776 1.6834283 -2.1955234e+38
1.8619618 -0.29770705 1.6813178 -2.2088678e+38
1.8619545 -0.30089372 1.6813178 -2.2088684e+38
1.8699448 -0.30520347 1.6834283 -2.2089207e+38
1.8699374 -0.30840537 1.6834283 -2.2089207e+38
1.86993 -0.31160724 1.6834283 -2.222213e+38
1.8699226 -0.31480914 1.6834283 -2.2355053e+38
1.8699152 -0.31801105 1.6834283 -2.2488495e+38
1.8699081 -0.32121295 1.6834283 -2.2621416e+38
1.8699007 -0.32441485 1.6834283 -2.2887778e+38
1.8698933 -0.32761675 1.6834283 -2.3021744e+38
1.8698859 -0.33081862 1.6834283 -2.3022267e+38
1.8698785 -0.33402053 1.6834283 -2.3155707e+38
1.8698714 -0.33722243 1.6834283 -2.3289147e+38
1.869864 -0.34042433 1.6834283 -2.3556035e+38
1.8698566 -0.34362623 1.6834283 -2.3423634e+38
1.8698492 -0.34682813 1.6834283 -2.3424159e+38
1.8698421 -0.35003003 1.6834283 -2.3690009e+38
1.8698347 -0.35323191 1.6834283 -2.3823445e+38
1.8618302 -0.35506693 1.6813178 -2.3822398e+38
1.8698199 -0.35963571 1.6834283 -2.3822402e+38
1.8618157 -0.36144024 1.6813178 -2.369e+38
1.8618083 -0.36462688 1.6813178 -2.3690524e+38
1.8697979 -0.36924139 1.6834283 -2.3691045e+38
1.8697906 -0.37244332 1.6834283 -2.3692607e+38
1.8697832 -0.37564519 1.6834283 -2.369313e+38
1.8697758 -0.37884709 1.6834283 -2.36947e+38
1.8617718 -0.38056019 1.6813178 -2.3960558e+38
1.8617647 -0.38374686 1.6813178 -2.4227456e+38
1.8617573 -0.38693351 1.6813178 -2.4494352e+38
1.8617499 -0.39012015 1.6813178 -2.4761757e+38
1.8617427 -0.39330682 1.6813178 -2.5165199e+38
1.8617353 -0.39649349 1.6813178 -2.5698965e+38
1.861728 -0.39968014 1.6813178 -2.5562404e+38
1.8697171 -0.40446228 1.6834283 -2.5558254e+38
1.8787057 -0.40947622 1.6858026 -2.5690659e+38
1.8786983 -0.41269526 1.6858026 -2.5690144e+38
1.8866873 -0.41755551 1.6879131 -2.5691187e+38
1.8866799 -0.42078975 1.6879131 -2.5693272e+38
1.8866723 -0.42402405 1.6879131 -2.5829316e+38
1.8946609 -0.42894524 1.6900235 -2.5965882e+38
1.8946536 -0.43219474 1.6900235 -2.64981e+38
1.8946462 -0.43544427 1.6900235 -2.7031361e+38
1.8946388 -0.43869376 1.6900235 -2.7694947e+38
1.9036267 -0.44390965 1.6923978 -2.8360587e+38
1.9036193 -0.44717631 1.6923978 -2.5827253e+38
1.9116077 -0.4522213 1.6945083 -2.3299708e+38
1.9205956 -0.45752093 1.6968826 -3.3580519e+38
1.920588 -0.46081999 1.6968826 nan
1.9205806 -0.46411905 1.6968826 nan
1.920573 -0.46741804 1.6968826 nan
1.5575881 -0.024142802 1.5982502 nan
2.0322549 -0.16997522 1.7226551 -2.2221582e+38
2.0222483 -0.1729199 1.7200359 -2.2353986e+38
2.0222404 -0.17641132 1.7200359 -2.2487428e+38
2.0132337 -0.17935926 1.7176788 -2.2355026e+38
2.003227 -0.18221059 1.7150598 -2.2088662e+38
2.0032191 -0.18566582 1.7150598 -2.2220548e+38
1.9932127 -0.18846002 1.7124407 -2.2220546e+38
1.9932048 -0.19189622 1.7124407 -2.208814e+38
1.9841983 -0.19470319 1.7100836 -2.19547e+38
1.9661934 -0.19682956 1.7053692 -2.1953664e+38
1.9661856 -0.2002143 1.7053692 -2.1953662e+38
1.9571795 -0.20291841 1.7030121 -2.2085546e+38
1.9571717 -0.20628604 1.7030121 -2.2086063e+38
1.957164 -0.20965365 1.7030121 -2.2218463e+38
1.9481578 -0.21228921 1.700655 -2.2218982e+38
1.939152 -0.21489045 1.6982979 -2.2218982e+38
1.930146 -0.21745744 1.6959407 -2.2219497e+38
1.9211402 -0.21999013 1.6935835 -2.2218457e+38
1.9211326 -0.22328919 1.6935835 -2.2086571e+38
1.9211252 -0.22658822 1.6935835 -2.1953648e+38
1.9121194 -0.22905234 1.6912265 -2.1688321e+38
1.9121118 -0.23233423 1.6912265 -2.155592e+38
1.9121044 -0.23561612 1.6912265 -2.1423001e+38
1.9120967 -0.23889801 1.6912265 -2.115716e+38
1.9040911 -0.24137682 1.6891311 -2.0890799e+38
1.9040835 -0.24464348 1.6891311 -2.1023724e+38
1.9040761 -0.24791011 1.6891311 -2.1023204e+38
1.9040685 -0.2511768 1.6891311 -2.1155608e+38
1.9040611 -0.25444344 1.6891311 -2.1155606e+38
1.8950558 -0.2567209 1.686774 -2.1022164e+38
1.8950484 -0.25997043 1.686774 -2.0756837e+38
1.887043 -0.26231018 1.6846788 -2.088976e+38
1.6500978 -0.23814118 1.6226074 -2.0890277e+38
1.6500914 -0.24092403 1.6226074 -2.0890795e+38
1.6440866 -0.24299026 1.6210359 -2.0757874e+38
1.8790083 -0.27749559 1.6825836 -2.1422492e+38
1.8790009 -0.28071463 1.6825836 -2.1555419e+38
1.8789935 -0.28393367 1.6825836 -2.1555938e+38
1.8789861 -0.28715271 1.6825836 -2.1822303e+38
1.8789787 -0.29037175 1.6825836 -2.2088151e+38
1.8789713 -0.29359078 1.6825836 -2.1954711e+38
1.8699667 -0.29559776 1.6802264 -2.1822826e+38
1.8699594 -0.29879966 1.6802264 -2.195627e+38
1.8619545 -0.30089372 1.6781312 -2.195627e+38
1.8699448 -0.30520347 1.6802264 -2.1955753e+38
1.8699374 -0.30840537 1.6802264 -2.1956272e+38
1.86993 -0.31160724 1.6802264 -2.2089197e+38
1.8699226 -0.31480914 1.6802264 -2.2089193e+38
1.8699152 -0.31801105 1.6802264 -2.2488479e+38
1.8699081 -0.32121295 1.6802264 -2.2886728e+38
1.8699007 -0.32441485 1.6802264 -2.3152573e+38
1.8698933 -0.32761675 1.6802264 -2.3287058e+38
1.8698859 -0.33081862 1.6802264 -2.3287062e+38
1.8698785 -0.33402053 1.6802264 -2.3155182e+38
1.8698714 -0.33722243 1.6802264 -2.3155186e+38
1.8788607 -0.34187639 1.6825836 -2.3156745e+38
1.8698566 -0.34362623 1.6802264 -2.329123e+38
1.8698492 -0.34682813 1.6802264 -2.342364e+38
1.8698421 -0.35003003 1.6802264 -2.368897e+38
1.8698347 -0.35323191 1.6802264 -2.3822929e+38
1.8618302 -0.35506693 1.6781312 -2.3822408e+38
1.8618231 -0.35825357 1.6781312 -2.3690526e+38
1.8618157 -0.36144024 1.6781312 -2.3691047e+38
1.8618083 -0.36462688 1.6781312 -2.3691047e+38
1.8697979 -0.36924139 1.6802264 -2.3691564e+38
1.8697906 -0.37244332 1.6802264 -2.3559684e+38
1.8617866 -0.37418684 1.6781312 -2.3427282e+38
1.8617792 -0.37737352 1.6781312 -2.3295408e+38
1.8617718 -0.38056019 1.6781312 -2.3561266e+38
1.8617647 -0.38374686 1.6781312 -2.382816e+38
1.8617573 -0.38693351 1.6781312 -2.4226939e+38
1.8617499 -0.39012015 1.6781312 -2.4497459e+38
1.8617427 -0.39330682 1.6781312 -2.5031749e+38
1.8617353 -0.39649349 1.6781312 -2.5427919e+38
1.861728 -0.39968014 1.6781312 -2.5424282e+38
1.8787131 -0.40625721 1.6825836 -2.5291362e+38
1.8787057 -0.40947622 1.6825836 -2.542325e+38
1.8866947 -0.41432121 1.6846788 -2.5556177e+38
1.8866873 -0.41755551 1.6846788 -2.5688065e+38
1.8866799 -0.42078975 1.6846788 -2.5691706e+38
1.8946686 -0.42569572 1.686774 -2.5827233e+38
1.8946609 -0.42894524 1.686774 -2.596276e+38
1.8946536 -0.43219474 1.686774 -2.6496534e+38
1.8946462 -0.43544427 1.686774 -2.6896355e+38
1.9036341 -0.44064301 1.6891311 -2.7692866e+38
1.9036267 -0.44390965 1.6891311 -2.8356952e+38
1.9116151 -0.44893938 1.6912265 -2.5823103e+38
1.9116077 -0.4522213 1.6912265 -2.3313737e+38
1.9205956 -0.45752093 1.6935835 -3.3993325e+38
1.920588 -0.46081999 1.6935835 nan
1.9205806 -0.46411905 1.6935835 nan
2.0422618 -0.16699243 1.7217445 -2.2088658e+38
2.0222564 -0.16942847 1.7165445 -2.2355024e+38
2.0222483 -0.1729199 1.7165445 -2.2355024e+38
2.0132415 -0.17588496 1.7142045 -2.2487953e+38
2.0132337 -0.17935926 1.7142045 -2.2354515e+38
2.003227 -0.18221059 1.7116045 -2.2221075e+38
2.0032191 -0.18566582 1.7116045 -2.2088153e+38
1.9932127 -0.18846002 1.7090045 -2.2087631e+38
1.9932048 -0.19189622 1.7090045 -2.1955226e+38
1.9841983 -0.19470319 1.7066646 -2.1955226e+38
1.9661934 -0.19682956 1.7019845 -2.1954185e+38
1.9661856 -0.2002143 1.7019845 -2.1954179e+38
1.9571795 -0.20291841 1.6996446 -2.1953652e+38
1.9571717 -0.20628604 1.6996446 -2.2086573e+38
1.957164 -0.20965365 1.6996446 -2.2086568e+38
1.9481578 -0.21228921 1.6973045 -2.2086573e+38
1.939152 -0.21489045 1.6949645 -2.2087094e+38
1.930146 -0.21745744 1.6926246 -2.2087613e+38
1.9211402 -0.21999013 1.6902845 -2.195365e+38
1.9211326 -0.22328919 1.6902845 -2.1954169e+38
1.9121268 -0.22577044 1.6879445 -2.1821246e+38
1.9121194 -0.22905234 1.6879445 -2.1688843e+38
1.9121118 -0.23233423 1.6879445 -2.1423514e+38
1.9121044 -0.23561612 1.6879445 -2.12906e+38
1.9120967 -0.23889801 1.6879445 -2.1290606e+38
1.9120893 -0.2421799 1.6879445 -2.1289569e+38
1.9040835 -0.24464348 1.6858644 -2.1289569e+38
1.9040761 -0.24791011 1.6858644 -2.1289052e+38
1.9040685 -0.2511768 1.6858644 -2.1289054e+38
1.8950634 -0.2534714 1.6835245 -2.1289054e+38
1.8950558 -0.2567209 1.6835245 -2.1289052e+38
1.8870506 -0.25907588 1.6814445 -2.115665e+38
1.887043 -0.26231018 1.6814445 -2.115665e+38
1.8870356 -0.26554444 1.6814445 -2.1157168e+38
1.8790305 -0.26783848 1.6793644 -2.1156646e+38
1.8790231 -0.27105752 1.6793644 -2.1156648e+38
1.8790157 -0.27427655 1.6793644 -2.1289573e+38
1.8790083 -0.27749559 1.6793644 -2.14225e+38
1.8790009 -0.28071463 1.6793644 -2.1555946e+38
1.8789935 -0.28393367 1.6793644 -2.1555944e+38
1.8789861 -0.28715271 1.6793644 -2.1688865e+38
1.8789787 -0.29037175 1.6793644 -2.1955228e+38
1.8789713 -0.29359078 1.6793644 -2.1955226e+38
1.8699667 -0.29559776 1.6770245 -2.208867e+38
1.8699594 -0.29879966 1.6770245 -2.1955747e+38
1.8619545 -0.30089372 1.6749445 -2.1956262e+38
1.8699448 -0.30520347 1.6770245 -2.1955739e+38
1.8699374 -0.30840537 1.6770245 -2.2088664e+38
1.86993 -0.31160724 1.6770245 -2.2089185e+38
1.8699226 -0.31480914 1.6770245 -2.2222102e+38
1.8699152 -0.31801105 1.6770245 -2.2487941e+38
1.8699081 -0.32121295 1.6770245 -2.2886194e+38
1.8699007 -0.32441485 1.6770245 -2.3020158e+38
1.8698933 -0.32761675 1.6770245 -2.3287565e+38
1.8698859 -0.33081862 1.6770245 -2.3154644e+38
1.8698785 -0.33402053 1.6770245 -2.3155693e+38
1.8698714 -0.33722243 1.6770245 -2.302278e+38
1.8788607 -0.34187639 1.6793644 -2.3023823e+38
1.8698566 -0.34362623 1.6770245 -2.3290192e+38
1.8698492 -0.34682813 1.6770245 -2.3555524e+38
1.8698421 -0.35003003 1.6770245 -2.368897e+38
1.8618376 -0.35188025 1.6749445 -2.3822935e+38
1.8618302 -0.35506693 1.6749445 -2.3691053e+38
1.8618231 -0.35825357 1.6749445 -2.3691574e+38
1.8618157 -0.36144024 1.6749445 -2.3691574e+38
1.8618083 -0.36462688 1.6749445 -2.3824493e+38
1.8618011 -0.36781356 1.6749445 -2.3691564e+38
1.8617938 -0.37100023 1.6749445 -2.3692085e+38
1.8617866 -0.37418684 1.6749445 -2.3693126e+38
1.8617792 -0.37737352 1.6749445 -2.3694175e+38
1.8617718 -0.38056019 1.6749445 -2.3827105e+38
1.8617647 -0.38374686 1.6749445 -2.3960556e+38
1.8617573 -0.38693351 1.6749445 -2.449589e+38
1.8617499 -0.39012015 1.6749445 -2.4898814e+38
1.8617427 -0.39330682 1.6749445 -2.5028104e+38
1.8617353 -0.39649349 1.6749445 -2.5157392e+38
1.8697245 -0.40126038 1.6770245 -2.5024467e+38
1.8787131 -0.40625721 1.6793644 -2.4891549e+38
1.8787057 -0.40947622 1.6793644 -2.5023954e+38
1.8866947 -0.41432121 1.6814445 -2.5289804e+38
1.8946834 -0.4191967 1.6835245 -2.542325e+38
1.894676 -0.42244619 1.6835245 -2.5557739e+38
1.8946686 -0.42569572 1.6835245 -2.5692227e+38
1.8946609 -0.42894524 1.6835245 -2.5960156e+38
1.9036491 -0.43410966 1.6858644 -2.6361526e+38
1.9036417 -0.43737632 1.6858644 -2.6895311e+38
1.9116302 -0.4423756 1.6879445 -2.7560458e+38
1.9116228 -0.44565749 1.6879445 -2.8227145e+38
1.9116151 -0.44893938 1.6879445 -2.4760764e+38
1.9116077 -0.4522213 1.6879445 -2.1303811e+38
1.9205956 -0.45752093 1.6902845 -3.3986074e+38
1.920588 -0.46081999 1.6902845 nan
1.9205806 -0.46411905 1.6902845 nan
2.052269 -0.16397154 1.720796 -2.1955222e+38
2.0422618 -0.16699243 1.718215 -2.2222102e+38
2.0222564 -0.16942847 1.7130531 -2.2355026e+38
2.0132496 -0.1724107 1.7107302 -2.2487951e+38
2.0132415 -0.17588496 1.7107302 -2.2487434e+38
2.0132337 -0.17935926 1.7107302 -2.2353994e+38
2.003227 -0.18221059 1.7081493 -2.2221593e+38
2.0032191 -0.18566582 1.7081493 -2.2088672e+38
1.9932127 -0.18846002 1.7055683 -2.1822305e+38
1.9932048 -0.19189622 1.7055683 -2.1955226e+38
1.9841983 -0.19470319 1.7032454 -2.1954704e+38
1.9661934 -0.19682956 1.6985998 -2.1954185e+38
1.9661856 -0.2002143 1.6985998 -2.1821256e+38
1.9571795 -0.20291841 1.6962769 -2.1954694e+38
1.9571717 -0.20628604 1.6962769 -2.2087094e+38
1.9481654 -0.20893872 1.693954 -2.195365e+38
1.9481578 -0.21228921 1.693954 -2.1821248e+38
1.939152 -0.21489045 1.6916312 -2.1822289e+38
1.930146 -0.21745744 1.6893083 -2.1821252e+38
1.9211402 -0.21999013 1.6869855 -2.1820216e+38
1.9211326 -0.22328919 1.6869855 -2.1820733e+38
1.9121268 -0.22577044 1.6846626 -2.1688329e+38
1.9121194 -0.22905234 1.6846626 -2.1555924e+38
1.9121118 -0.23233423 1.6846626 -2.1423518e+38
1.9121044 -0.23561612 1.6846626 -2.1158196e+38
1.9120967 -0.23889801 1.6846626 -2.1424565e+38
1.9120893 -0.2421799 1.6846626 -2.1555932e+38
1.9120817 -0.24546182 1.6846626 -2.1555415e+38
1.9040761 -0.24791011 1.6825979 -2.1422494e+38
1.9040685 -0.2511768 1.6825979 -2.1422494e+38
1.8950634 -0.2534714 1.680275 -2.1422496e+38
1.8950558 -0.2567209 1.680275 -2.1555421e+38
1.8870506 -0.25907588 1.6782103 -2.1555421e+38
1.887043 -0.26231018 1.6782103 -2.1555419e+38
1.8870356 -0.26554444 1.6782103 -2.1422496e+38
1.8790305 -0.26783848 1.6761454 -2.1422494e+38
1.8790231 -0.27105752 1.6761454 -2.1422494e+38
1.8790157 -0.27427655 1.6761454 -2.1422496e+38
1.8790083 -0.27749559 1.6761454 -2.1423019e+38
1.8790009 -0.28071463 1.6761454 -2.1555946e+38
1.8789935 -0.28393367 1.6761454 -2.1555942e+38
1.8789861 -0.28715271 1.6761454 -2.1688344e+38
1.8789787 -0.29037175 1.6761454 -2.1688863e+38
1.8789713 -0.29359078 1.6761454 -2.1955226e+38
1.8699667 -0.29559776 1.6738226 -2.2221073e+38
1.8699594 -0.29879966 1.6738226 -2.2088151e+38
1.869952 -0.30200157 1.6738226 -2.1822822e+38
1.8789418 -0.30646697 1.6761454 -2.1955743e+38
1.8789344 -0.30968598 1.6761454 -2.2088664e+38
1.86993 -0.31160724 1.6738226 -2.2221586e+38
1.8699226 -0.31480914 1.6738226 -2.2222102e+38
1.8699152 -0.31801105 1.6738226 -2.2620868e+38
1.8699081 -0.32121295 1.6738226 -2.2887235e+38
1.8699007 -0.32441485 1.6738226 -2.3020679e+38
1.8698933 -0.32761675 1.6738226 -2.3153606e+38
1.8698859 -0.33081862 1.6738226 -2.3153612e+38
1.8698785 -0.33402053 1.6738226 -2.3021732e+38
1.8788681 -0.33865738 1.6761454 -2.3022255e+38
1.8788607 -0.34187639 1.6761454 -2.2889855e+38
1.8698566 -0.34362623 1.6738226 -2.3289149e+38
1.8698492 -0.34682813 1.6738226 -2.3555516e+38
1.8698421 -0.35003003 1.6738226 -2.3688443e+38
1.8618376 -0.35188025 1.6717578 -2.3823449e+38
1.8618302 -0.35506693 1.6717578 -2.3692611e+38
1.8618231 -0.35825357 1.6717578 -2.3559167e+38
1.8618157 -0.36144024 1.6717578 -2.3692609e+38
1.8618083 -0.36462688 1.6717578 -2.382501e+38
1.8618011 -0.36781356 1.6717578 -2.3824489e+38
1.8617938 -0.37100023 1.6717578 -2.3825008e+38
1.8617866 -0.37418684 1.6717578 -2.395845e+38
1.8617792 -0.37737352 1.6717578 -2.4092418e+38
1.8617718 -0.38056019 1.6717578 -2.4092943e+38
1.8617647 -0.38374686 1.6717578 -2.4095545e+38
1.8617573 -0.38693351 1.6717578 -2.4763798e+38
1.8617499 -0.39012015 1.6717578 -2.5293416e+38
1.8617427 -0.39330682 1.6717578 -2.5157899e+38
1.8617353 -0.39649349 1.6717578 -2.4891015e+38
1.8697245 -0.40126038 1.6738226 -2.4757056e+38
1.8787131 -0.40625721 1.6761454 -2.4491732e+38
1.8867021 -0.41108695 1.6782103 -2.4757581e+38
1.8866947 -0.41432121 1.6782103 -2.4890506e+38
1.8946834 -0.4191967 1.680275 -2.5156356e+38
1.894676 -0.42244619 1.680275 -2.5423248e+38
1.9036641 -0.42757636 1.6825979 -2.5688582e+38
1.9036567 -0.43084303 1.6825979 -2.5826184e+38
1.9036491 -0.43410966 1.6825979 -2.6359441e+38
1.9116378 -0.43909371 1.6846626 -2.6761341e+38
1.9116302 -0.4423756 1.6846626 -2.742701e+38
1.9206183 -0.44762382 1.6869855 -2.8087464e+38
1.9206107 -0.45092288 1.6869855 -2.3689583e+38
1.9206033 -0.4542219 1.6869855 -1.9326589e+38
1.9295909 -0.45953873 1.6893083 nan
1.920588 -0.46081999 1.6869855 nan
1.9295759 -0.46617109 1.6893083 nan
2.0622678 -0.16448019 1.7198093 -2.2088664e+38
2.0422618 -0.16699243 1.7146854 -2.2222102e+38
2.0222564 -0.16942847 1.7095616 -2.2355028e+38
2.0222483 -0.1729199 1.7095616 -2.2487434e+38
2.0132415 -0.17588496 1.707256 -2.2619838e+38
2.0132337 -0.17935926 1.707256 -2.2487432e+38
2.003227 -0.18221059 1.704694 -2.2354513e+38
2.0032191 -0.18566582 1.704694 -2.2221593e+38
1.9932127 -0.18846002 1.7021321 -2.1955747e+38
1.9932048 -0.19189622 1.7021321 -2.1955226e+38
1.9751997 -0.194074 1.6975207 -2.2087627e+38
1.9661934 -0.19682956 1.695215 -2.182178e+38
1.9571872 -0.19955081 1.6929092 -2.1688336e+38
1.9571795 -0.20291841 1.6929092 -2.1821256e+38
1.9571717 -0.20628604 1.6929092 -2.1953656e+38
1.9481654 -0.20893872 1.6906035 -2.1821248e+38
1.9391596 -0.21155712 1.6882979 -2.1821769e+38
1.939152 -0.21489045 1.6882979 -2.1954175e+38
1.930146 -0.21745744 1.6859921 -2.1952621e+38
1.9211402 -0.21999013 1.6836864 -2.1953664e+38
1.9211326 -0.22328919 1.6836864 -2.1820739e+38
1.9211252 -0.22658822 1.6836864 -2.1821776e+38
1.9121194 -0.22905234 1.6813807 -2.168937e+38
1.9121118 -0.23233423 1.6813807 -2.1556445e+38
1.9121044 -0.23561612 1.6813807 -2.1424563e+38
1.9120967 -0.23889801 1.6813807 -2.1556447e+38
1.9120893 -0.2421799 1.6813807 -2.1688855e+38
1.9120817 -0.24546182 1.6813807 -2.1688338e+38
1.9040761 -0.24791011 1.6793312 -2.1687818e+38
1.9040685 -0.2511768 1.6793312 -2.1688338e+38
1.8950634 -0.2534714 1.6770254 -2.155594e+38
1.8950558 -0.2567209 1.6770254 -2.1555944e+38
1.8870506 -0.25907588 1.6749759 -2.1555942e+38
1.887043 -0.26231018 1.6749759 -2.1555938e+38
1.8870356 -0.26554444 1.6749759 -2.1555419e+38
1.8790305 -0.26783848 1.6729264 -2.1555419e+38
1.8790231 -0.27105752 1.6729264 -2.1555419e+38
1.8790157 -0.27427655 1.6729264 -2.1555417e+38
1.8790083 -0.27749559 1.6729264 -2.1688863e+38
1.8790009 -0.28071463 1.6729264 -2.182179e+38
1.8789935 -0.28393367 1.6729264 -2.1954191e+38
1.8789861 -0.28715271 1.6729264 -2.1954706e+38
1.8789787 -0.29037175 1.6729264 -2.1954706e+38
1.8789713 -0.29359078 1.6729264 -2.1954706e+38
1.8789639 -0.29680985 1.6729264 -2.1955228e+38
1.8789566 -0.30002886 1.6729264 -2.1955228e+38
1.869952 -0.30200157 1.6706207 -2.1822824e+38
1.8789418 -0.30646697 1.6729264 -2.1955747e+38
1.8789344 -0.30968598 1.6729264 -2.2088666e+38
1.86993 -0.31160724 1.6706207 -2.2089179e+38
1.8699226 -0.31480914 1.6706207 -2.2222623e+38
1.8699152 -0.31801105 1.6706207 -2.2487949e+38
1.8699081 -0.32121295 1.6706207 -2.2887237e+38
1.8699007 -0.32441485 1.6706207 -2.2887237e+38
1.8698933 -0.32761675 1.6706207 -2.3019649e+38
1.8698859 -0.33081862 1.6706207 -2.3020695e+38
1.8698785 -0.33402053 1.6706207 -2.3154135e+38
1.8788681 -0.33865738 1.6729264 -2.302173e+38
1.8788607 -0.34187639 1.6729264 -2.3022255e+38
1.8698566 -0.34362623 1.6706207 -2.3155701e+38
1.8698492 -0.34682813 1.6706207 -2.3289664e+38
1.8698421 -0.35003003 1.6706207 -2.3423625e+38
1.8618376 -0.35188025 1.6685712 -2.369156e+38
1.8618302 -0.35506693 1.6685712 -2.3558128e+38
1.8618231 -0.35825357 1.6685712 -2.3425203e+38
1.8618157 -0.36144024 1.6685712 -2.3558643e+38
1.8618083 -0.36462688 1.6685712 -2.3825008e+38
1.8618011 -0.36781356 1.6685712 -2.3825008e+38
1.8617938 -0.37100023 1.6685712 -2.3825008e+38
1.8617866 -0.37418684 1.6685712 -2.3825525e+38
1.8617792 -0.37737352 1.6685712 -2.3959491e+38
1.8617718 -0.38056019 1.6685712 -2.3961051e+38
1.8617647 -0.38374686 1.6685712 -2.3963129e+38
1.8617573 -0.38693351 1.6685712 -2.4227419e+38
1.8617499 -0.39012015 1.6685712 -2.4624634e+38
1.8617427 -0.39330682 1.6685712 -2.4491196e+38
1.8697319 -0.39805844 1.6706207 -2.4490679e+38
1.8787205 -0.40303814 1.6729264 -2.4357239e+38
1.8867095 -0.40785268 1.6749759 -2.4357243e+38
1.8946981 -0.41269764 1.6770254 -2.4490687e+38
1.8946908 -0.41594717 1.6770254 -2.4757573e+38
1.9036791 -0.42104304 1.6793312 -2.5023421e+38
1.9036717 -0.4243097 1.6793312 -2.5289275e+38
1.9036641 -0.42757636 1.6793312 -2.5557205e+38
1.9036567 -0.43084303 1.6793312 -2.5827213e+38
1.9116454 -0.43581182 1.6813807 -2.5961182e+38
1.9206336 -0.44102576 1.6836864 -2.6230161e+38
1.9206259 -0.44432479 1.6836864 -2.6229141e+38
1.9206183 -0.44762382 1.6836864 -2.6226537e+38
1.9296062 -0.45290637 1.6859921 -2.2627748e+38
1.9295986 -0.45622253 1.6859921 -1.9041538e+38
1.9295909 -0.45953873 1.6859921 nan
1.9295833 -0.46285492 1.6859921 nan
1.9295759 -0.46617109 1.6859921 nan
2.0422618 -0.16699243 1.7111559 -2.222314e+38
2.0222564 -0.16942847 1.7060702 -2.2355546e+38
2.0222483 -0.1729199 1.7060702 -2.2486913e+38
2.0132415 -0.17588496 1.7037816 -2.2620355e+38
2.0132337 -0.17935926 1.7037816 -2.2620357e+38
2.003227 -0.18221059 1.7012389 -2.2487434e+38
2.0032191 -0.18566582 1.7012389 -2.2355033e+38
1.9932127 -0.18846002 1.6986959 -2.2088148e+38
1.9842062 -0.19128415 1.6964073 -2.2087112e+38
1.9751997 -0.194074 1.6941187 -2.2087627e+38
1.9661934 -0.19682956 1.6918302 -2.1822297e+38
1.9661856 -0.2002143 1.6918302 -2.155593e+38
1.9571795 -0.20291841 1.6895417 -2.1688851e+38
1.9571717 -0.20628604 1.6895417 -2.1688329e+38
1.9481654 -0.20893872 1.6872531 -2.182125e+38
1.9391596 -0.21155712 1.6849645 -2.1821774e+38
1.9301536 -0.21414125 1.682676 -2.1954181e+38
1.9211478 -0.21669111 1.6803874 -2.2086587e+38
1.9211402 -0.21999013 1.6803874 -2.1954185e+38
1.9211326 -0.22328919 1.6803874 -2.182126e+38
1.9121268 -0.22577044 1.6780988 -2.182178e+38
1.9121194 -0.22905234 1.6780988 -2.1821778e+38
1.9121118 -0.23233423 1.6780988 -2.1688855e+38
1.9121044 -0.23561612 1.6780988 -2.1556451e+38
1.9120967 -0.23889801 1.6780988 -2.1688336e+38
1.9120893 -0.2421799 1.6780988 -2.1821258e+38
1.9040835 -0.24464348 1.6760645 -2.1953664e+38
1.9040761 -0.24791011 1.6760645 -2.1953664e+38
1.8950708 -0.25022188 1.6737759 -2.1820222e+38
1.8950634 -0.2534714 1.6737759 -2.1688342e+38
1.887058 -0.25584161 1.6717417 -2.1688346e+38
1.8870506 -0.25907588 1.6717417 -2.155594e+38
1.887043 -0.26231018 1.6717417 -2.155594e+38
1.8870356 -0.26554444 1.6717417 -2.1555938e+38
1.8790305 -0.26783848 1.6697073 -2.1555938e+38
1.8790231 -0.27105752 1.6697073 -2.1555938e+38
1.8790157 -0.27427655 1.6697073 -2.168834e+38
1.8790083 -0.27749559 1.6697073 -2.1821784e+38
1.8790009 -0.28071463 1.6697073 -2.2087112e+38
1.8789935 -0.28393367 1.6697073 -2.2352958e+38
1.8789861 -0.28715271 1.6697073 -2.2353477e+38
1.8789787 -0.29037175 1.6697073 -2.2220035e+38
1.8789713 -0.29359078 1.6697073 -2.1954189e+38
1.8789639 -0.29680985 1.6697073 -2.1689382e+38
1.8789566 -0.30002886 1.6697073 -2.1822307e+38
1.869952 -0.30200157 1.6674188 -2.1822307e+38
1.8789418 -0.30646697 1.6697073 -2.1955749e+38
1.8789344 -0.30968598 1.6697073 -2.2088668e+38
1.86993 -0.31160724 1.6674188 -2.2089185e+38
1.8699226 -0.31480914 1.6674188 -2.2089183e+38
1.8699152 -0.31801105 1.6674188 -2.2487432e+38
1.8699081 -0.32121295 1.6674188 -2.2753797e+38
1.8788974 -0.32578123 1.6697073 -2.288672e+38
1.8698933 -0.32761675 1.6674188 -2.2887243e+38
1.8698859 -0.33081862 1.6674188 -2.3020691e+38
1.8698785 -0.33402053 1.6674188 -2.3154135e+38
1.8788681 -0.33865738 1.6697073 -2.3154137e+38
1.8788607 -0.34187639 1.6697073 -2.3022253e+38
1.8698566 -0.34362623 1.6674188 -2.3022255e+38
1.8698492 -0.34682813 1.6674188 -2.2890377e+38
1.8698421 -0.35003003 1.6674188 -2.3156748e+38
1.8618376 -0.35188025 1.6653845 -2.3423638e+38
1.8618302 -0.35506693 1.6653845 -2.3290723e+38
1.8618231 -0.35825357 1.6653845 -2.3158837e+38
1.8618157 -0.36144024 1.6653845 -2.3425199e+38
1.8618083 -0.36462688 1.6653845 -2.3691562e+38
1.8618011 -0.36781356 1.6653845 -2.3692079e+38
1.8617938 -0.37100023 1.6653845 -2.3692597e+38
1.8617866 -0.37418684 1.6653845 -2.3825519e+38
1.8617792 -0.37737352 1.6653845 -2.3827077e+38
1.8617718 -0.38056019 1.6653845 -2.3828637e+38
1.8617647 -0.38374686 1.6653845 -2.3693122e+38
1.8617573 -0.38693351 1.6653845 -2.3824493e+38
1.8617499 -0.39012015 1.6653845 -2.395742e+38
1.8697391 -0.39485657 1.6674188 -2.3956386e+38
1.8697319 -0.39805844 1.6674188 -2.3957424e+38
1.8867168 -0.40461838 1.6717417 -2.408983e+38
1.8947058 -0.40944812 1.6737759 -2.409087e+38
1.9036942 -0.41450971 1.6760645 -2.4356201e+38
1.9036865 -0.41777641 1.6760645 -2.4623606e+38
1.9116755 -0.42268422 1.6780988 -2.4889453e+38
1.9206638 -0.42782959 1.6803874 -2.5156863e+38
1.9206562 -0.43112865 1.6803874 -2.5424272e+38
1.9206486 -0.43442768 1.6803874 -2.5691686e+38
1.9296367 -0.43964165 1.682676 -2.5693771e+38
1.9296291 -0.44295782 1.682676 -2.5695866e+38
1.9296215 -0.44627401 1.682676 -2.5031789e+38
1.9296138 -0.44959021 1.682676 -2.4227472e+38
1.9296062 -0.45290637 1.682676 -2.1553409e+38
1.9385941 -0.45822316 1.6849645 -1.8791766e+38
1.9385865 -0.46155649 1.6849645 nan
1.9295833 -0.46285492 1.682676 nan
1.9295759 -0.46617109 1.682676 nan
2.0422699 -0.16346291 1.7076265 -2.2223657e+38
2.032263 -0.16646475 1.7051027 -2.2490022e+38
2.0222564 -0.16942847 1.7025788 -2.275587e+38
2.0132496 -0.1724107 1.7003074 -2.2754831e+38
2.0132415 -0.17588496 1.7003074 -2.2754316e+38
2.0032349 -0.17875537 1.6977836 -2.2753799e+38
2.003227 -0.18221059 1.6977836 -2.2619838e+38
1.9932206 -0.18502386 1.6952598 -2.2487434e+38
1.9932127 -0.18846002 1.6952598 -2.2221071e+38
1.9842062 -0.19128415 1.6929884 -2.2221073e+38
1.9841983 -0.19470319 1.6929884 -2.2221069e+38
1.9661934 -0.19682956 1.6884454 -2.1955218e+38
1.9661856 -0.2002143 1.6884454 -2.1688331e+38
1.9571795 -0.20291841 1.686174 -2.1688849e+38
1.9571717 -0.20628604 1.686174 -2.1688849e+38
1.9481654 -0.20893872 1.6839026 -2.1688847e+38
1.9391596 -0.21155712 1.6816312 -2.1688853e+38
1.9301536 -0.21414125 1.6793598 -2.1954704e+38
1.9211478 -0.21669111 1.6770883 -2.2220031e+38
1.9211402 -0.21999013 1.6770883 -2.1954185e+38
1.9211326 -0.22328919 1.6770883 -2.1688342e+38
1.9121268 -0.22577044 1.6748168 -2.1688861e+38
1.9121194 -0.22905234 1.6748168 -2.1688861e+38
1.9121118 -0.23233423 1.6748168 -2.1555936e+38
1.9121044 -0.23561612 1.6748168 -2.1555936e+38
1.9120967 -0.23889801 1.6748168 -2.1555415e+38
1.9120893 -0.2421799 1.6748168 -2.1555415e+38
1.9040835 -0.24464348 1.6727979 -2.1687816e+38
1.9040761 -0.24791011 1.6727979 -2.1688338e+38
1.9040685 -0.2511768 1.6727979 -2.1555415e+38
1.8950634 -0.2534714 1.6705264 -2.1555417e+38
1.887058 -0.25584161 1.6685073 -2.1555419e+38
1.8870506 -0.25907588 1.6685073 -2.155594e+38
1.887043 -0.26231018 1.6685073 -2.155594e+38
1.8870356 -0.26554444 1.6685073 -2.155594e+38
1.8870282 -0.26877874 1.6685073 -2.1555938e+38
1.8870208 -0.27201301 1.6685073 -2.1688861e+38
1.8790157 -0.27427655 1.6664883 -2.168834e+38
1.8790083 -0.27749559 1.6664883 -2.1821782e+38
1.8790009 -0.28071463 1.6664883 -2.1954185e+38
1.8789935 -0.28393367 1.6664883 -2.208711e+38
1.8789861 -0.28715271 1.6664883 -2.2087112e+38
1.8789787 -0.29037175 1.6664883 -2.2086593e+38
1.8789713 -0.29359078 1.6664883 -2.1954708e+38
1.8789639 -0.29680985 1.6664883 -2.195523e+38
1.8789566 -0.30002886 1.6664883 -2.1955232e+38
1.869952 -0.30200157 1.6642169 -2.1954713e+38
1.8789418 -0.30646697 1.6664883 -2.195523e+38
1.8789344 -0.30968598 1.6664883 -2.2088672e+38
1.86993 -0.31160724 1.6642169 -2.2088672e+38
1.8699226 -0.31480914 1.6642169 -2.2089187e+38
1.8699152 -0.31801105 1.6642169 -2.2222106e+38
1.8699081 -0.32121295 1.6642169 -2.2487951e+38
1.8699007 -0.32441485 1.6642169 -2.2621393e+38
1.8698933 -0.32761675 1.6642169 -2.2887762e+38
1.8698859 -0.33081862 1.6642169 -2.3020687e+38
1.8698785 -0.33402053 1.6642169 -2.3020693e+38
1.8788681 -0.33865738 1.6664883 -2.2888813e+38
1.8788607 -0.34187639 1.6664883 -2.288933e+38
1.8698566 -0.34362623 1.6642169 -2.2756924e+38
1.8698492 -0.34682813 1.6642169 -2.2756935e+38
1.8698421 -0.35003003 1.6642169 -2.2890906e+38
1.8618376 -0.35188025 1.6621978 -2.3023833e+38
1.8618302 -0.35506693 1.6621978 -2.3024354e+38
1.8618231 -0.35825357 1.6621978 -2.3025393e+38
1.8618157 -0.36144024 1.6621978 -2.302591e+38
1.8618083 -0.36462688 1.6621978 -2.3159348e+38
1.8618011 -0.36781356 1.6621978 -2.3159863e+38
1.8617938 -0.37100023 1.6621978 -2.3293822e+38
1.8617866 -0.37418684 1.6621978 -2.3160897e+38
1.8617792 -0.37737352 1.6621978 -2.3162455e+38
1.8617718 -0.38056019 1.6621978 -2.3025898e+38
1.8617647 -0.38374686 1.6621978 -2.302331e+38
1.8617573 -0.38693351 1.6621978 -2.3157277e+38
1.8617499 -0.39012015 1.6621978 -2.3290723e+38
1.8787351 -0.3966001 1.6664883 -2.3424688e+38
1.8867242 -0.40138412 1.6685073 -2.3691055e+38
1.8947132 -0.40619862 1.6705264 -2.3691574e+38
1.9037015 -0.41124305 1.6727979 -2.3825538e+38
1.9116905 -0.41612044 1.6748168 -2.4090866e+38
1.9206789 -0.42123151 1.6770883 -2.4357233e+38
1.9206712 -0.42453057 1.6770883 -2.4756523e+38
1.9296594 -0.4296931 1.6793598 -2.5023413e+38
1.9296517 -0.43300927 1.6793598 -2.5289782e+38
1.9296443 -0.43632546 1.6793598 -2.5422715e+38
1.9476278 -0.44347143 1.6839026 -2.5559282e+38
1.9476202 -0.44682193 1.6839026 -2.5828261e+38
1.938617 -0.4482232 1.6816312 -2.542899e+38
1.9386094 -0.45155653 1.6816312 -2.5162053e+38
1.9386017 -0.45488983 1.6816312 -2.4355117e+38
1.9475894 -0.46022379 1.6839026 -2.3689118e+38
1.9475818 -0.46357426 1.6839026 nan
1.9385788 -0.46488982 1.6816312 nan
2.0422699 -0.16346291 1.7040969 -2.2223156e+38
2.032263 -0.16646475 1.7015922 -2.2624533e+38
2.0222564 -0.16942847 1.6990874 -2.3021736e+38
2.0132496 -0.1724107 1.6968331 -2.302173e+38
2.0132415 -0.17588496 1.6968331 -2.2887766e+38
2.0032349 -0.17875537 1.6943283 -2.2887243e+38
2.003227 -0.18221059 1.6943283 -2.2753799e+38
1.9932206 -0.18502386 1.6918236 -2.2620874e+38
1.9932127 -0.18846002 1.6918236 -2.2355031e+38
1.9842062 -0.19128415 1.6895692 -2.2355035e+38
1.9841983 -0.19470319 1.6895692 -2.2221591e+38
1.9661934 -0.19682956 1.6850607 -2.1955743e+38
1.9661856 -0.2002143 1.6850607 -2.1689374e+38
1.9571795 -0.20291841 1.6828065 -2.1689372e+38
1.9571717 -0.20628604 1.6828065 -2.1556966e+38
1.9481654 -0.20893872 1.6805521 -2.1556966e+38
1.9391596 -0.21155712 1.6782979 -2.1556451e+38
1.9301536 -0.21414125 1.6760435 -2.1955222e+38
1.9211478 -0.21669111 1.6737893 -2.222055e+38
1.9211402 -0.21999013 1.6737893 -2.1954185e+38
1.9211326 -0.22328919 1.6737893 -2.1555938e+38
1.9121268 -0.22577044 1.671535 -2.1556977e+38
1.9121194 -0.22905234 1.671535 -2.142353e+38
1.9121118 -0.23233423 1.671535 -2.1423009e+38
1.9121044 -0.23561612 1.671535 -2.1423009e+38
1.9120967 -0.23889801 1.671535 -2.142249e+38
1.9120893 -0.2421799 1.671535 -2.1289046e+38
1.9040835 -0.24464348 1.6695311 -2.142093e+38
1.9040761 -0.24791011 1.6695311 -2.1421971e+38
1.9040685 -0.2511768 1.6695311 -2.1422492e+38
1.8950634 -0.2534714 1.6672769 -2.1289571e+38
1.887058 -0.25584161 1.6652731 -2.1422498e+38
1.8870506 -0.25907588 1.6652731 -2.1423017e+38
1.887043 -0.26231018 1.6652731 -2.155594e+38
1.8870356 -0.26554444 1.6652731 -2.1555938e+38
1.8870282 -0.26877874 1.6652731 -2.168782e+38
1.8870208 -0.27201301 1.6652731 -2.168834e+38
1.8790157 -0.27427655 1.6632693 -2.1820224e+38
1.8790083 -0.27749559 1.6632693 -2.1820743e+38
1.8790009 -0.28071463 1.6632693 -2.1820745e+38
1.8789935 -0.28393367 1.6632693 -2.1687822e+38
1.8789861 -0.28715271 1.6632693 -2.1820747e+38
1.8789787 -0.29037175 1.6632693 -2.1821266e+38
1.8789713 -0.29359078 1.6632693 -2.1954711e+38
1.8789639 -0.29680985 1.6632693 -2.2087633e+38
1.8789566 -0.30002886 1.6632693 -2.2087633e+38
1.869952 -0.30200157 1.661015 -2.2087631e+38
1.8789418 -0.30646697 1.6632693 -2.2087631e+38
1.8789344 -0.30968598 1.6632693 -2.1955226e+38
1.86993 -0.31160724 1.661015 -2.1955224e+38
1.8699226 -0.31480914 1.661015 -2.1955741e+38
1.8699152 -0.31801105 1.661015 -2.2089702e+38
1.8699081 -0.32121295 1.661015 -2.2089702e+38
1.8699007 -0.32441485 1.661015 -2.248899e+38
1.8698933 -0.32761675 1.661015 -2.288776e+38
1.8698859 -0.33081862 1.661015 -2.2888281e+38
1.8698785 -0.33402053 1.661015 -2.2888805e+38
1.8788681 -0.33865738 1.6632693 -2.2755888e+38
1.8788607 -0.34187639 1.6632693 -2.2623484e+38
1.8698566 -0.34362623 1.661015 -2.2624006e+38
1.8698492 -0.34682813 1.661015 -2.249161e+38
1.8698421 -0.35003003 1.661015 -2.2492138e+38
1.8618376 -0.35188025 1.6590111 -2.2491624e+38
1.8618302 -0.35506693 1.6590111 -2.2625071e+38
1.8618231 -0.35825357 1.6590111 -2.2757991e+38
1.8618157 -0.36144024 1.6590111 -2.2625586e+38
1.8618083 -0.36462688 1.6590111 -2.2493699e+38
1.8618011 -0.36781356 1.6590111 -2.2627659e+38
1.8617938 -0.37100023 1.6590111 -2.2760062e+38
1.8617866 -0.37418684 1.6590111 -2.2627659e+38
1.8617792 -0.37737352 1.6590111 -2.2359732e+38
1.8617718 -0.38056019 1.6590111 -2.2355576e+38
1.8617647 -0.38374686 1.6590111 -2.2224736e+38
1.8697538 -0.38845277 1.661015 -2.2358184e+38
1.8787425 -0.39338103 1.6632693 -2.2492665e+38
1.8867316 -0.39814982 1.6652731 -2.2892993e+38
1.8947206 -0.40294909 1.6672769 -2.3291759e+38
1.9037092 -0.40797642 1.6695311 -2.3425201e+38
1.9116981 -0.41283852 1.671535 -2.3558648e+38
1.9116905 -0.41612044 1.671535 -2.3824497e+38
1.9206789 -0.42123151 1.6737893 -2.409087e+38
1.929667 -0.42637691 1.6760435 -2.4489127e+38
1.9296594 -0.4296931 1.6760435 -2.488946e+38
1.9386475 -0.43488988 1.6782979 -2.5022388e+38
1.9386399 -0.43822321 1.6782979 -2.5157394e+38
1.9476278 -0.44347143 1.6805521 -2.5558767e+38
1.9476202 -0.44682193 1.6805521 -2.5826172e+38
1.9476125 -0.45017239 1.6805521 -2.5960138e+38
1.9386094 -0.45155653 1.6782979 -2.5958059e+38
1.947597 -0.45687333 1.6805521 -2.7282092e+38
1.9475894 -0.46022379 1.6805521 -2.8641574e+38
1.9385865 -0.46155649 1.6782979 nan
2.0522771 -0.16042298 1.7030531 -2.5543622e+38
2.0422699 -0.16346291 1.7005674 -2.581105e+38
2.032263 -0.16646475 1.6980817 -2.4617884e+38
2.0222564 -0.16942847 1.695596 -2.3552411e+38
2.0132496 -0.1724107 1.6933588 -2.3155705e+38
2.003243 -0.17530014 1.6908731 -2.2887774e+38
2.0032349 -0.17875537 1.6908731 -2.2755361e+38
1.9932284 -0.18158767 1.6883874 -2.2621915e+38
1.9932206 -0.18502386 1.6883874 -2.2621911e+38
1.9842141 -0.18786512 1.6861502 -2.2621395e+38
1.9842062 -0.19128415 1.6861502 -2.2488475e+38
1.9751997 -0.194074 1.6839131 -2.2487957e+38
1.9661934 -0.19682956 1.6816759 -2.2221593e+38
1.9571872 -0.19955081 1.6794388 -2.2088146e+38
1.9571795 -0.20291841 1.6794388 -2.1955739e+38
1.9481733 -0.20558825 1.6772016 -2.1823335e+38
1.9481654 -0.20893872 1.6772016 -2.1955739e+38
1.9391596 -0.21155712 1.6749645 -2.195522e+38
1.939152 -0.21489045 1.6749645 -2.195522e+38
1.9211478 -0.21669111 1.6704903 -2.2087106e+38
1.9211402 -0.21999013 1.6704903 -2.1954704e+38
1.9121344 -0.22248855 1.6682531 -2.1822303e+38
1.9121268 -0.22577044 1.6682531 -2.168938e+38
1.9121194 -0.22905234 1.6682531 -2.1555932e+38
1.9121118 -0.23233423 1.6682531 -2.1423003e+38
1.9121044 -0.23561612 1.6682531 -2.1290082e+38
1.9120967 -0.23889801 1.6682531 -2.1289563e+38
1.9120893 -0.2421799 1.6682531 -2.1289044e+38
1.9040835 -0.24464348 1.6662645 -2.1289042e+38
1.9040761 -0.24791011 1.6662645 -2.1289046e+38
1.8950708 -0.25022188 1.6640273 -2.1289048e+38
1.8950634 -0.2534714 1.6640273 -2.1289052e+38
1.8950558 -0.2567209 1.6640273 -2.1289575e+38
1.8870506 -0.25907588 1.6620388 -2.1289575e+38
1.887043 -0.26231018 1.6620388 -2.1423015e+38
1.8870356 -0.26554444 1.6620388 -2.1555936e+38
1.8870282 -0.26877874 1.6620388 -2.1688336e+38
1.8870208 -0.27201301 1.6620388 -2.182126e+38
1.8790157 -0.27427655 1.6600502 -2.1953664e+38
1.8790083 -0.27749559 1.6600502 -2.2218473e+38
1.8790009 -0.28071463 1.6600502 -2.2086591e+38
1.8789935 -0.28393367 1.6600502 -2.2086593e+38
1.8789861 -0.28715271 1.6600502 -2.2087112e+38
1.8789787 -0.29037175 1.6600502 -2.2086595e+38
1.8699741 -0.29239586 1.6578131 -2.2087633e+38
1.8699667 -0.29559776 1.6578131 -2.2087631e+38
1.8699594 -0.29879966 1.6578131 -2.1955226e+38
1.869952 -0.30200157 1.6578131 -2.1955226e+38
1.8789418 -0.30646697 1.6600502 -2.1955226e+38
1.8789344 -0.30968598 1.6600502 -2.2088144e+38
1.86993 -0.31160724 1.6578131 -2.2088138e+38
1.8699226 -0.31480914 1.6578131 -2.2088142e+38
1.8699152 -0.31801105 1.6578131 -2.2222106e+38
1.8699081 -0.32121295 1.6578131 -2.2355548e+38
1.8699007 -0.32441485 1.6578131 -2.2621911e+38
1.8698933 -0.32761675 1.6578131 -2.2754835e+38
1.8698859 -0.33081862 1.6578131 -2.2755355e+38
1.8698785 -0.33402053 1.6578131 -2.2623476e+38
1.8788681 -0.33865738 1.6600502 -2.249056e+38
1.8788607 -0.34187639 1.6600502 -2.235816e+38
1.8698566 -0.34362623 1.6578131 -2.2225239e+38
1.8698492 -0.34682813 1.6578131 -2.2225247e+38
1.8698421 -0.35003003 1.6578131 -2.2225254e+38
1.8618376 -0.35188025 1.6558245 -2.2357665e+38
1.8618302 -0.35506693 1.6558245 -2.2357671e+38
1.8618231 -0.35825357 1.6558245 -2.2357667e+38
1.8618157 -0.36144024 1.6558245 -2.2358702e+38
1.8618083 -0.36462688 1.6558245 -2.2226819e+38
1.8618011 -0.36781356 1.6558245 -2.2358704e+38
1.8617938 -0.37100023 1.6558245 -2.2491109e+38
1.8617866 -0.37418684 1.6558245 -2.2491109e+38
1.8617792 -0.37737352 1.6558245 -2.2489545e+38
1.8617718 -0.38056019 1.6558245 -2.2356097e+38
1.8697612 -0.3852509 1.6578131 -2.2357661e+38
1.8867464 -0.39168128 1.6620388 -2.262403e+38
1.886739 -0.39491555 1.6620388 -2.2757989e+38
1.8947279 -0.39969957 1.6640273 -2.3024871e+38
1.9037166 -0.40470976 1.6662645 -2.3158311e+38
1.9037092 -0.40797642 1.6662645 -2.3424674e+38
1.9116981 -0.41283852 1.6682531 -2.3558641e+38
1.9116905 -0.41612044 1.6682531 -2.369157e+38
1.9206789 -0.42123151 1.6704903 -2.3958469e+38
1.929667 -0.42637691 1.6727273 -2.4223807e+38
1.9386551 -0.43155655 1.6749645 -2.4623622e+38
1.9386475 -0.43488988 1.6749645 -2.475707e+38
1.9476354 -0.440121 1.6772016 -2.5024999e+38
1.9566236 -0.44538638 1.6794388 -2.5290848e+38
1.9566159 -0.44875401 1.6794388 -2.555824e+38
1.9566081 -0.45212162 1.6794388 -2.5425824e+38
1.9476049 -0.45352286 1.6772016 -2.5161065e+38
1.9565928 -0.45885682 1.6794388 -2.4764423e+38
1.9565849 -0.46222445 1.6794388 -2.4389127e+38
1.9565773 -0.46559203 1.6794388 nan
1.9565694 -0.46895966 1.6794388 nan
2.0322871 -0.15593335 1.6945711 -2.8746742e+38
2.0422781 -0.1599334 1.6970378 -2.9148133e+38
2.0322711 -0.16295427 1.6945711 -2.9410853e+38
2.032263 -0.16646475 1.6945711 -2.6748754e+38
2.0222564 -0.16942847 1.6921046 -2.3955307e+38
2.0132496 -0.1724107 1.6898845 -2.3426222e+38
2.003243 -0.17530014 1.6874179 -2.289089e+38
2.0032349 -0.17875537 1.6874179 -2.2756922e+38
1.9932284 -0.18158767 1.6849512 -2.2490036e+38
1.9932206 -0.18502386 1.6849512 -2.2622957e+38
1.9842141 -0.18786512 1.6827312 -2.2755363e+38
1.9842062 -0.19128415 1.6827312 -2.2755365e+38
1.9751997 -0.194074 1.6805112 -2.2621403e+38
1.9661934 -0.19682956 1.6782912 -2.2487442e+38
1.9571872 -0.19955081 1.6760712 -2.2354515e+38
1.9571795 -0.20291841 1.6760712 -2.222211e+38
1.9481733 -0.20558825 1.6738513 -2.2089185e+38
1.9481654 -0.20893872 1.6738513 -2.2221586e+38
1.9391596 -0.21155712 1.6716312 -2.235399e+38
1.9301536 -0.21414125 1.6694112 -2.2088142e+38
1.9211478 -0.21669111 1.6671911 -2.1822299e+38
1.9211402 -0.21999013 1.6671911 -2.1955222e+38
1.9121344 -0.22248855 1.6649711 -2.1955222e+38
1.9121268 -0.22577044 1.6649711 -2.182178e+38
1.9121194 -0.22905234 1.6649711 -2.1689372e+38
1.9121118 -0.23233423 1.6649711 -2.1423003e+38
1.9041059 -0.23484349 1.6629978 -2.1024754e+38
1.9040985 -0.23811015 1.6629978 -2.1157157e+38
1.9040911 -0.24137682 1.6629978 -2.1289559e+38
1.9040835 -0.24464348 1.6629978 -2.1289038e+38
1.8950782 -0.24697235 1.6607778 -2.1156119e+38
1.8950708 -0.25022188 1.6607778 -2.1289044e+38
1.8950634 -0.2534714 1.6607778 -2.1289044e+38
1.8950558 -0.2567209 1.6607778 -2.1156121e+38
1.8870506 -0.25907588 1.6588045 -2.1024239e+38
1.887043 -0.26231018 1.6588045 -2.1291125e+38
1.8870356 -0.26554444 1.6588045 -2.1423009e+38
1.8870282 -0.26877874 1.6588045 -2.1688855e+38
1.8790231 -0.27105752 1.6568311 -2.1821258e+38
1.8790157 -0.27427655 1.6568311 -2.2219507e+38
1.8790083 -0.27749559 1.6568311 -2.2485355e+38
1.8790009 -0.28071463 1.6568311 -2.2485876e+38
1.8789935 -0.28393367 1.6568311 -2.2485878e+38
1.8699887 -0.28599209 1.6546111 -2.2486402e+38
1.8789787 -0.29037175 1.6568311 -2.2353477e+38
1.8699741 -0.29239586 1.6546111 -2.2220554e+38
1.8699667 -0.29559776 1.6546111 -2.1955228e+38
1.8699594 -0.29879966 1.6546111 -2.1822824e+38
1.869952 -0.30200157 1.6546111 -2.1689897e+38
1.8789418 -0.30646697 1.6568311 -2.1955741e+38
1.8789344 -0.30968598 1.6568311 -2.2088658e+38
1.86993 -0.31160724 1.6546111 -2.2221057e+38
1.8699226 -0.31480914 1.6546111 -2.2221578e+38
1.8699152 -0.31801105 1.6546111 -2.2487426e+38
1.8699081 -0.32121295 1.6546111 -2.2621389e+38
1.8699007 -0.32441485 1.6546111 -2.2621913e+38
1.8698933 -0.32761675 1.6546111 -2.2622432e+38
1.8698859 -0.33081862 1.6546111 -2.2489511e+38
1.8698785 -0.33402053 1.6546111 -2.2357111e+38
1.8698714 -0.33722243 1.6546111 -2.2224714e+38
1.869864 -0.34042433 1.6546111 -2.1958868e+38
1.8618596 -0.34232026 1.6526378 -2.195887e+38
1.8618522 -0.34550694 1.6526378 -2.1958877e+38
1.861845 -0.34869361 1.6526378 -2.2091803e+38
1.8618376 -0.35188025 1.6526378 -2.209129e+38
1.8618302 -0.35506693 1.6526378 -2.209026e+38
1.8618231 -0.35825357 1.6526378 -2.1957852e+38
1.8618157 -0.36144024 1.6526378 -2.1958367e+38
1.8618083 -0.36462688 1.6526378 -2.1958369e+38
1.8618011 -0.36781356 1.6526378 -2.2089735e+38
1.8617938 -0.37100023 1.6526378 -2.2223179e+38
1.8617866 -0.37418684 1.6526378 -2.2355067e+38
1.8617792 -0.37737352 1.6526378 -2.2488503e+38
1.8697686 -0.38204899 1.6546111 -2.248798e+38
1.886754 -0.38844699 1.6588045 -2.2489541e+38
1.8867464 -0.39168128 1.6588045 -2.2756949e+38
1.8947356 -0.39645007 1.6607778 -2.3023314e+38
1.903724 -0.40144309 1.6629978 -2.3023835e+38
1.9037166 -0.40470976 1.6629978 -2.3024869e+38
1.9037092 -0.40797642 1.6629978 -2.329123e+38
1.9116981 -0.41283852 1.6649711 -2.3557603e+38
1.9206865 -0.41793248 1.6671911 -2.3691051e+38
1.9206789 -0.42123151 1.6671911 -2.3691578e+38
1.929667 -0.42637691 1.6694112 -2.3957434e+38
1.9386551 -0.43155655 1.6716312 -2.4224328e+38
1.9386475 -0.43488988 1.6716312 -2.4490184e+38
1.9476354 -0.440121 1.6738513 -2.4756551e+38
1.9566236 -0.44538638 1.6760712 -2.5020843e+38
1.9566159 -0.44875401 1.6760712 -2.5290313e+38
1.9566081 -0.45212162 1.6760712 -2.4891534e+38
1.9566004 -0.45548922 1.6760712 -2.4359359e+38
1.9565928 -0.45885682 1.6760712 -2.2225359e+38
1.9655805 -0.46422508 1.6782912 -2.0137137e+38
1.9655726 -0.46760979 1.6782912 nan
1.9655647 -0.47099456 1.6782912 nan
2.0222883 -0.1554628 1.6886131 nan
2.0222805 -0.15895422 1.6886131 nan
2.0222723 -0.16244563 1.6886131 nan
2.0222645 -0.16593705 1.6886131 -2.9946639e+38
2.0222564 -0.16942847 1.6886131 -2.3156705e+38
2.0132496 -0.1724107 1.6864102 -2.3290179e+38
2.003243 -0.17530014 1.6839626 -2.3555504e+38
2.0032349 -0.17875537 1.6839626 -2.3289137e+38
1.9932284 -0.18158767 1.681515 -2.3022253e+38
1.9932206 -0.18502386 1.681515 -2.3022253e+38
1.9842141 -0.18786512 1.6793121 -2.3021214e+38
1.9842062 -0.19128415 1.6793121 -2.2755369e+38
1.9751997 -0.194074 1.6771092 -2.2620888e+38
1.9661934 -0.19682956 1.6749065 -2.2621405e+38
1.9571872 -0.19955081 1.6727035 -2.2487963e+38
1.9481809 -0.20223778 1.6705008 -2.2355039e+38
1.9481733 -0.20558825 1.6705008 -2.2354515e+38
1.9391673 -0.20822379 1.6682979 -2.2354511e+38
1.9301612 -0.21082509 1.666095 -2.235399e+38
1.9301536 -0.21414125 1.666095 -2.2221584e+38
1.9211478 -0.21669111 1.6638921 -2.2088662e+38
1.9211402 -0.21999013 1.6638921 -2.1955739e+38
1.9121344 -0.22248855 1.6616893 -2.1955737e+38
1.9121268 -0.22577044 1.6616893 -2.1822812e+38
1.9121194 -0.22905234 1.6616893 -2.1822812e+38
1.9121118 -0.23233423 1.6616893 -2.1556964e+38
1.9041059 -0.23484349 1.6597311 -2.1291119e+38
1.9040985 -0.23811015 1.6597311 -2.142352e+38
1.9040911 -0.24137682 1.6597311 -2.1555403e+38
1.8950856 -0.24372286 1.6575283 -2.1555399e+38
1.8950782 -0.24697235 1.6575283 -2.1421961e+38
1.8950708 -0.25022188 1.6575283 -2.1421963e+38
1.8950634 -0.2534714 1.6575283 -2.1554362e+38
1.8950558 -0.2567209 1.6575283 -2.1422472e+38
1.8950484 -0.25997043 1.6575283 -2.1290074e+38
1.887043 -0.26231018 1.6555703 -2.1290078e+38
1.8870356 -0.26554444 1.6555703 -2.1422486e+38
1.8870282 -0.26877874 1.6555703 -2.1555411e+38
1.8790231 -0.27105752 1.6536121 -2.1688334e+38
1.8790157 -0.27427655 1.6536121 -2.1954177e+38
1.8790083 -0.27749559 1.6536121 -2.2352948e+38
1.8790009 -0.28071463 1.6536121 -2.235295e+38
1.8699961 -0.28279018 1.6514093 -2.2485359e+38
1.8699887 -0.28599209 1.6514093 -2.2353479e+38
1.8699815 -0.28919399 1.6514093 -2.2353996e+38
1.8699741 -0.29239586 1.6514093 -2.2221071e+38
1.8699667 -0.29559776 1.6514093 -2.2087631e+38
1.8699594 -0.29879966 1.6514093 -2.1955747e+38
1.869952 -0.30200157 1.6514093 -2.1822818e+38
1.8789418 -0.30646697 1.6536121 -2.1955735e+38
1.8789344 -0.30968598 1.6536121 -2.2089173e+38
1.86993 -0.31160724 1.6514093 -2.222157e+38
1.8699226 -0.31480914 1.6514093 -2.2487418e+38
1.8699152 -0.31801105 1.6514093 -2.2621381e+38
1.8699081 -0.32121295 1.6514093 -2.2754829e+38
1.8699007 -0.32441485 1.6514093 -2.2621913e+38
1.8698933 -0.32761675 1.6514093 -2.2622434e+38
1.8698859 -0.33081862 1.6514093 -2.2356069e+38
1.8698785 -0.33402053 1.6514093 -2.2090227e+38
1.8698714 -0.33722243 1.6514093 -2.1957828e+38
1.861867 -0.33913365 1.6494511 -2.1824905e+38
1.8618596 -0.34232026 1.6494511 -2.1691982e+38
