# .PCD v0.7 - Point Cloud Data file format
VERSION 0.7
FIELDS x y z rgb
SIZE 4 4 4 4
TYPE F F F F
COUNT 1 1 1 1
WIDTH 1167
HEIGHT 1
VIEWPOINT 0 0 0 1 0 0 0
POINTS 1167
DATA ascii
1.8947039 0.32885957 1.5957874 nan
1.9037009 0.32768792 1.5976645 nan
1.903693 0.32442129 1.5976645 nan
1.9116895 0.32297117 1.599333 nan
1.9116814 0.31968927 1.599333 nan
1.9116733 0.31640738 1.599333 nan
1.9116653 0.31312549 1.599333 nan
1.9206622 0.3118186 1.6012102 nan
1.9296589 0.31047744 1.6030874 nan
1.9296508 0.30716127 1.6030874 nan
1.9386473 0.30576867 1.6049645 nan
1.9386392 0.3024354 1.6049645 nan
1.9476355 0.30099136 1.6068417 -3.2097011e+38
1.9476273 0.29764086 1.6068417 -2.9960853e+38
1.9476191 0.29429042 1.6068417 -2.7424891e+38
1.9476109 0.29093999 1.6068417 -2.4762254e+38
1.9476026 0.28758949 1.6068417 -2.542269e+38
1.9475944 0.28423905 1.6068417 -2.6085742e+38
1.9475862 0.28088856 1.6068417 -2.608574e+38
1.947578 0.27753806 1.6068417 -2.6084179e+38
1.9475697 0.27418762 1.6068417 -2.5951771e+38
1.9475615 0.27083719 1.6068417 -2.5685921e+38
1.9565576 0.26920456 1.6087188 -2.5686439e+38
1.9655535 0.26753771 1.6105959 -2.5552997e+38
1.9745493 0.26583654 1.612473 -2.5684881e+38
1.9745409 0.26243466 1.612473 -2.5818323e+38
1.9655286 0.25738347 1.6105959 -2.5818844e+38
1.9044955 0.65108693 1.5943978 -2.6870228e+38
1.8704525 0.6336239 1.5873711 -2.4617821e+38
1.8704447 0.630422 1.5873711 -2.5019715e+38
1.8624287 0.62391019 1.5857178 -2.5551926e+38
1.8704289 0.62401819 1.5873711 -2.5286599e+38
1.8624129 0.6175369 1.5857178 -2.5153683e+38
1.8624052 0.6143502 1.5857178 -2.4752322e+38
1.8623973 0.61116362 1.5857178 -2.4218558e+38
1.8623894 0.60797691 1.5857178 -2.7814747e+38
1.8543738 0.60157186 1.5840645 -3.1539277e+38
1.8543661 0.59840041 1.5840645 nan
1.8543582 0.59522897 1.5840645 nan
1.8463426 0.58888483 1.5824112 nan
1.8463348 0.58572865 1.5824112 nan
1.8463271 0.58257252 1.5824112 nan
1.8463193 0.57941633 1.5824112 nan
1.8463116 0.57626015 1.5824112 nan
1.8463038 0.57310396 1.5824112 nan
1.8462961 0.56994778 1.5824112 nan
1.8462883 0.56679159 1.5824112 -3.3838545e+38
1.8462806 0.56363547 1.5824112 -3.3305282e+38
1.8382653 0.55744368 1.5807579 -3.2907031e+38
1.8382576 0.55430275 1.5807579 -3.2904431e+38
1.8382498 0.55116177 1.5807579 -3.3034756e+38
1.8382422 0.54802084 1.5807579 -3.2634427e+38
1.8382344 0.54487991 1.5807579 -3.2367022e+38
1.8382267 0.54173899 1.5807579 -3.2101175e+38
1.8382189 0.53859806 1.5807579 -3.1701362e+38
1.8382113 0.53545707 1.5807579 -3.143551e+38
1.8382035 0.53231615 1.5807579 -3.1302058e+38
1.8381958 0.52917516 1.5807579 -3.1299451e+38
1.8381881 0.52603424 1.5807579 -3.1295813e+38
1.8381804 0.52289331 1.5807579 -3.1029442e+38
1.8381727 0.51975238 1.5807579 -3.0897562e+38
1.8381649 0.51661146 1.5807579 -3.0765162e+38
1.8381573 0.51347047 1.5807579 -3.0628601e+38
1.8381495 0.51032954 1.5807579 -3.0362232e+38
1.8381418 0.50718856 1.5807579 -3.0227226e+38
1.8381341 0.50404769 1.5807579 -3.0096893e+38
1.8381264 0.50090671 1.5807579 -3.0096372e+38
1.8381187 0.49776578 1.5807579 -2.9964484e+38
1.8381109 0.49462479 1.5807579 -2.9962407e+38
1.8381032 0.49148387 1.5807579 -2.9833118e+38
1.8380955 0.48834294 1.5807579 -2.9831561e+38
1.8380878 0.48520201 1.5807579 -2.9832597e+38
1.83808 0.48206109 1.5807579 -2.9830005e+38
1.8380724 0.4789201 1.5807579 -2.9698642e+38
1.8380647 0.47577918 1.5807579 -2.95626e+38
1.8380569 0.47263819 1.5807579 -2.956519e+38
1.8380492 0.46949726 1.5807579 -2.9696559e+38
1.8380415 0.46635634 1.5807579 -2.9432275e+38
1.8380338 0.46321541 1.5807579 -2.9296237e+38
1.838026 0.46007448 1.5807579 -2.929935e+38
1.8380183 0.4569335 1.5807579 -2.9162264e+38
1.8380107 0.45379257 1.5807579 -2.9297772e+38
1.8460091 0.45316905 1.5824112 -2.9427578e+38
1.8460014 0.45001286 1.5824112 -2.9563095e+38
1.8459936 0.44685674 1.5824112 -2.9693429e+38
1.8459859 0.44370055 1.5824112 -2.9960839e+38
1.837972 0.43808788 1.5807579 -3.0224603e+38
1.8379643 0.43494689 1.5807579 -2.9560505e+38
1.8379567 0.43180597 1.5807579 -2.8892783e+38
1.8459549 0.43107581 1.5824112 -2.9163829e+38
1.8379412 0.42552406 1.5807579 -2.9427596e+38
1.8379335 0.42238313 1.5807579 -2.9696555e+38
1.8459316 0.42160732 1.5824112 -2.9961891e+38
1.8459239 0.41845113 1.5824112 -2.9963459e+38
1.8459162 0.41529495 1.5824112 -3.0094305e+38
1.8459084 0.41213876 1.5824112 -3.0228786e+38
1.8459007 0.40898257 1.5824112 -3.0362753e+38
1.8458929 0.40582639 1.5824112 -2.9832624e+38
1.8538908 0.40494382 1.5840645 -2.9300944e+38
1.853883 0.40177244 1.5840645 -3.0101609e+38
1.8538752 0.398601 1.5840645 -3.0899665e+38
1.8538674 0.39542961 1.5840645 -3.0634336e+38
1.8538597 0.39225817 1.5840645 -3.0369548e+38
1.8618572 0.39128429 1.5857178 -3.0771969e+38
1.8618493 0.38809758 1.5857178 -3.1306248e+38
1.8618416 0.38491094 1.5857178 -3.0775068e+38
1.8618337 0.3817243 1.5857178 -3.024286e+38
1.8618258 0.37853765 1.5857178 -3.0241304e+38
1.8698233 0.37747228 1.5873711 -3.0373209e+38
1.8618102 0.37216431 1.5857178 -3.0909072e+38
1.8618023 0.36897767 1.5857178 -3.1442822e+38
1.8697997 0.36786658 1.5873711 -3.2239302e+38
1.8697919 0.36466467 1.5873711 -3.3170818e+38
1.869784 0.36146283 1.5873711 -3.3173433e+38
1.8697761 0.35826093 1.5873711 -3.3176025e+38
1.8697683 0.35505903 1.5873711 -3.2643289e+38
1.8697604 0.35185713 1.5873711 -3.2109004e+38
1.878758 0.35088742 1.5892311 -3.1979717e+38
1.8787501 0.34766835 1.5892311 -3.1842659e+38
1.8787422 0.34444928 1.5892311 -3.2911769e+38
1.8787342 0.34123027 1.5892311 -3.3845334e+38
1.8787264 0.33801121 1.5892311 nan
1.8867232 0.33670014 1.5908844 nan
1.8867153 0.33346587 1.5908844 nan
1.8867073 0.33023161 1.5908844 nan
1.8866993 0.32699728 1.5908844 nan
1.9037009 0.32768792 1.5943978 nan
1.903693 0.32442129 1.5943978 nan
1.903685 0.32115465 1.5943978 nan
1.9036769 0.31788796 1.5943978 nan
1.9116733 0.31640738 1.5960512 nan
1.9116653 0.31312549 1.5960512 nan
1.9206622 0.3118186 1.5979111 nan
1.9296589 0.31047744 1.5997711 nan
1.9296508 0.30716127 1.5997711 nan
1.9386473 0.30576867 1.6016312 nan
1.9476439 0.30434185 1.6034912 nan
1.9476355 0.30099136 1.6034912 -3.3566457e+38
1.9476273 0.29764086 1.6034912 -3.0897566e+38
1.9566238 0.29614544 1.6053512 -2.8361595e+38
1.9476109 0.29093999 1.6034912 -2.5696355e+38
1.9476026 0.28758949 1.6034912 -2.5955416e+38
1.9475944 0.28423905 1.6034912 -2.6218665e+38
1.9475862 0.28088856 1.6034912 -2.6081587e+38
1.947578 0.27753806 1.6034912 -2.5948143e+38
1.9475697 0.27418762 1.6034912 -2.5817293e+38
1.9475615 0.27083719 1.6034912 -2.5685404e+38
1.9565576 0.26920456 1.6053512 -2.5552997e+38
1.9655535 0.26753771 1.6072111 -2.5552995e+38
1.9745493 0.26583654 1.6090711 -2.5552473e+38
1.9745409 0.26243466 1.6090711 -2.5552995e+38
1.9655286 0.25738347 1.6072111 -2.5686439e+38
1.8794618 0.63738179 1.5860121 -2.2487925e+38
1.8704447 0.630422 1.5841693 -2.3957371e+38
1.8704368 0.62722009 1.5841693 -2.5419003e+38
1.8704289 0.62401819 1.5841693 -2.5552447e+38
1.8624129 0.6175369 1.5825312 -2.5683287e+38
1.8624052 0.6143502 1.5825312 -2.434886e+38
1.8623973 0.61116362 1.5825312 -2.3025896e+38
1.8543816 0.60474324 1.580893 -2.9425432e+38
1.8543738 0.60157186 1.580893 nan
1.8543661 0.59840041 1.580893 nan
1.8543582 0.59522897 1.580893 nan
1.8463426 0.58888483 1.579255 nan
1.8463348 0.58572865 1.579255 nan
1.8463271 0.58257252 1.579255 nan
1.8463193 0.57941633 1.579255 nan
1.8463116 0.57626015 1.579255 nan
1.8463038 0.57310396 1.579255 nan
1.8462961 0.56994778 1.579255 nan
1.8462883 0.56679159 1.579255 -3.3971983e+38
1.8462806 0.56363547 1.579255 -3.3574245e+38
1.8462728 0.56047928 1.579255 -3.3173396e+38
1.8382576 0.55430275 1.5776169 -3.3305276e+38
1.8382498 0.55116177 1.5776169 -3.3302676e+38
1.8382422 0.54802084 1.5776169 -3.3034232e+38
1.8382344 0.54487991 1.5776169 -3.2766829e+38
1.8382267 0.54173899 1.5776169 -3.2499947e+38
1.8382189 0.53859806 1.5776169 -3.2100653e+38
1.8382113 0.53545707 1.5776169 -3.1834284e+38
1.8382035 0.53231615 1.5776169 -3.1436033e+38
1.846203 0.53207362 1.579255 -3.1567396e+38
1.8381881 0.52603424 1.5776169 -3.1698236e+38
1.8381804 0.52289331 1.5776169 -3.1826999e+38
1.8461797 0.52260506 1.579255 -3.1831167e+38
1.846172 0.51944888 1.579255 -3.1566372e+38
1.8381573 0.51347047 1.5776169 -3.1298431e+38
1.8381495 0.51032954 1.5776169 -3.0897568e+38
1.8381418 0.50718856 1.5776169 -3.0366911e+38
1.8381341 0.50404769 1.5776169 -3.0368984e+38
1.8381264 0.50090671 1.5776169 -3.0234501e+38
1.8381187 0.49776578 1.5776169 -3.023554e+38
1.8381109 0.49462479 1.5776169 -3.0102623e+38
1.8381032 0.49148387 1.5776169 -3.0105744e+38
1.8380955 0.48834294 1.5776169 -2.9970225e+38
1.8380878 0.48520201 1.5776169 -2.9837303e+38
1.83808 0.48206109 1.5776169 -2.9703859e+38
1.8380724 0.4789201 1.5776169 -2.9572489e+38
1.8380647 0.47577918 1.5776169 -2.9304569e+38
1.8380569 0.47263819 1.5776169 -2.9574053e+38
1.8380492 0.46949726 1.5776169 -2.9704899e+38
1.8380415 0.46635634 1.5776169 -2.9706457e+38
1.8380338 0.46321541 1.5776169 -2.9571984e+38
1.838026 0.46007448 1.5776169 -2.9442183e+38
1.8380183 0.4569335 1.5776169 -2.917218e+38
1.8380107 0.45379257 1.5776169 -2.9573021e+38
1.8380029 0.45065159 1.5776169 -2.9836788e+38
1.8379952 0.44751066 1.5776169 -2.9838343e+38
1.8379875 0.44436973 1.5776169 -2.9835749e+38
1.8379798 0.44122881 1.5776169 -3.0231404e+38
1.837972 0.43808788 1.5776169 -3.0498288e+38
1.8379643 0.43494689 1.5776169 -2.9033541e+38
1.8379567 0.43180597 1.5776169 -2.7575023e+38
1.8459549 0.43107581 1.579255 -2.8510675e+38
1.8459471 0.42791963 1.579255 -2.9306141e+38
1.8459394 0.42476344 1.579255 -2.957355e+38
1.8459316 0.42160732 1.579255 -2.9705439e+38
1.8459239 0.41845113 1.579255 -2.9972329e+38
1.8459162 0.41529495 1.579255 -3.0235057e+38
1.8459084 0.41213876 1.579255 -3.0367978e+38
1.8459007 0.40898257 1.579255 -3.0369539e+38
1.8458929 0.40582639 1.579255 -2.9842525e+38
1.8458852 0.4026702 1.579255 -2.9176887e+38
1.853883 0.40177244 1.580893 -3.0244959e+38
1.8538752 0.398601 1.580893 -3.1172297e+38
1.8538674 0.39542961 1.580893 -3.1037291e+38
1.8538597 0.39225817 1.580893 -3.077561e+38
1.8538518 0.38908678 1.580893 -3.1308871e+38
1.8618493 0.38809758 1.5825312 -3.184159e+38
1.8618416 0.38491094 1.5825312 -3.1313006e+38
1.8618337 0.3817243 1.5825312 -3.0644244e+38
1.8698312 0.38067418 1.5841693 -3.0505097e+38
1.8698233 0.37747228 1.5841693 -3.0377896e+38
1.8698155 0.37427038 1.5841693 -3.0780828e+38
1.8698076 0.37106848 1.5841693 -3.1179065e+38
1.8697997 0.36786658 1.5841693 -3.2908086e+38
1.8697919 0.36466467 1.5841693 nan
1.869784 0.36146283 1.5841693 nan
1.8697761 0.35826093 1.5841693 nan
1.8697683 0.35505903 1.5841693 nan
1.8697604 0.35185713 1.5841693 nan
1.878758 0.35088742 1.5860121 nan
1.8787501 0.34766835 1.5860121 -3.3978255e+38
1.8787422 0.34444928 1.5860121 nan
1.8787342 0.34123027 1.5860121 nan
1.8787264 0.33801121 1.5860121 nan
1.8867232 0.33670014 1.5876502 nan
1.8867153 0.33346587 1.5876502 nan
1.8867073 0.33023161 1.5876502 nan
1.8866993 0.32699728 1.5876502 nan
1.9037009 0.32768792 1.5911312 nan
1.903693 0.32442129 1.5911312 nan
1.903685 0.32115465 1.5911312 nan
1.9036769 0.31788796 1.5911312 nan
1.9116733 0.31640738 1.5927693 nan
1.9116653 0.31312549 1.5927693 nan
1.9116572 0.3098436 1.5927693 nan
1.9206541 0.3085196 1.5946121 nan
1.9296508 0.30716127 1.596455 nan
1.9386473 0.30576867 1.5982978 nan
1.9386392 0.3024354 1.5982978 nan
1.9476355 0.30099136 1.6001407 nan
1.956632 0.29951304 1.6019835 -3.18348e+38
1.9566238 0.29614544 1.6019835 -2.9294679e+38
1.96562 0.29461575 1.6038264 -2.6624758e+38
1.9566072 0.28941023 1.6019835 -2.6482965e+38
1.956599 0.28604263 1.6019835 -2.6213974e+38
1.9475862 0.28088856 1.6001407 -2.6073751e+38
1.9565824 0.27930743 1.6019835 -2.5813632e+38
1.9565742 0.27593976 1.6019835 -2.5683838e+38
1.9475615 0.27083719 1.6001407 -2.5552471e+38
1.9565576 0.26920456 1.6019835 -2.555299e+38
1.9655535 0.26753771 1.6038264 -2.5420066e+38
1.9745493 0.26583654 1.6056693 -2.5286624e+38
1.9745409 0.26243466 1.6056693 -2.5153703e+38
1.9745326 0.25903273 1.6056693 -2.5685915e+38
1.8794618 0.63738179 1.5827931 -2.5273578e+38
1.8704447 0.630422 1.5809674 -2.5947577e+38
1.8704368 0.62722009 1.5809674 -2.6614789e+38
1.8704289 0.62401819 1.5809674 -2.6482387e+38
1.8704211 0.62081635 1.5809674 -2.6481333e+38
1.8624052 0.6143502 1.5793445 -2.527878e+38
1.8623973 0.61116362 1.5793445 -2.4079419e+38
1.8623894 0.60797691 1.5793445 -3.0358003e+38
1.8623817 0.60479021 1.5793445 nan
1.8623738 0.60160363 1.5793445 nan
1.8543582 0.59522897 1.5777216 nan
1.8543504 0.59205759 1.5777216 nan
1.8463348 0.58572865 1.5760988 nan
1.8463271 0.58257252 1.5760988 nan
1.8463193 0.57941633 1.5760988 nan
1.8463116 0.57626015 1.5760988 nan
1.8463038 0.57310396 1.5760988 nan
1.8462961 0.56994778 1.5760988 nan
1.8462883 0.56679159 1.5760988 nan
1.8462806 0.56363547 1.5760988 nan
1.8462728 0.56047928 1.5760988 nan
1.8382576 0.55430275 1.574476 -3.3837487e+38
1.8382498 0.55116177 1.574476 -3.3703002e+38
1.8382422 0.54802084 1.574476 -3.3832804e+38
1.8382344 0.54487991 1.574476 -3.3962617e+38
1.8382267 0.54173899 1.574476 -3.316768e+38
1.8382189 0.53859806 1.574476 -3.2500466e+38
1.8382113 0.53545707 1.574476 -3.2103249e+38
1.8382035 0.53231615 1.574476 -3.1836891e+38
1.8381958 0.52917516 1.574476 -3.1836897e+38
1.8381881 0.52603424 1.574476 -3.1835852e+38
1.8381804 0.52289331 1.574476 -3.2101173e+38
1.8461797 0.52260506 1.5760988 -3.2368598e+38
1.846172 0.51944888 1.5760988 -3.2233621e+38
1.8381573 0.51347047 1.574476 -3.2100146e+38
1.8381495 0.51032954 1.574476 -3.1700826e+38
1.8381418 0.50718856 1.574476 -3.1302575e+38
1.8381341 0.50404769 1.574476 -3.1035687e+38
1.8381264 0.50090671 1.574476 -3.0901728e+38
1.8381187 0.49776578 1.574476 -3.0902249e+38
1.8381109 0.49462479 1.574476 -3.0904857e+38
1.8381032 0.49148387 1.574476 -3.0636945e+38
1.8380955 0.48834294 1.574476 -3.0238698e+38
1.8380878 0.48520201 1.574476 -2.9973893e+38
1.83808 0.48206109 1.574476 -2.9840442e+38
1.8380724 0.4789201 1.574476 -2.9971797e+38
1.8380647 0.47577918 1.574476 -3.0237653e+38
1.8380569 0.47263819 1.574476 -3.0504547e+38
1.8380492 0.46949726 1.574476 -3.0773506e+38
1.8380415 0.46635634 1.574476 -3.0239734e+38
1.8380338 0.46321541 1.574476 -2.984202e+38
1.838026 0.46007448 1.574476 -2.9709112e+38
1.8380183 0.4569335 1.574476 -2.9708075e+38
1.8380107 0.45379257 1.574476 -2.9708597e+38
1.8380029 0.45065159 1.574476 -2.9843594e+38
1.8379952 0.44751066 1.574476 -2.9577227e+38
1.8379875 0.44436973 1.574476 -2.9314495e+38
1.8379798 0.44122881 1.574476 -2.9576183e+38
1.837972 0.43808788 1.574476 -2.9845148e+38
1.8379643 0.43494689 1.574476 -2.9176384e+38
1.8379567 0.43180597 1.574476 -2.8382472e+38
1.8459549 0.43107581 1.5760988 -2.9046035e+38
1.8459471 0.42791963 1.5760988 -2.9579817e+38
1.8459394 0.42476344 1.5760988 -2.9711197e+38
1.8459316 0.42160732 1.5760988 -2.9844641e+38
1.8539298 0.42080098 1.5777216 -3.0241332e+38
1.8539219 0.41762954 1.5777216 -3.0637501e+38
1.8539141 0.4144581 1.5777216 -3.0638535e+38
1.8539064 0.41128671 1.5777216 -3.0771979e+38
1.8538985 0.40811527 1.5777216 -3.037529e+38
1.8538908 0.40494382 1.5777216 -3.0109983e+38
1.853883 0.40177244 1.5777216 -3.077877e+38
1.8538752 0.398601 1.5777216 -3.1577333e+38
1.8538674 0.39542961 1.5777216 -3.1710762e+38
1.861865 0.39447093 1.5793445 -3.1847845e+38
1.8618572 0.39128429 1.5793445 -3.2376425e+38
1.8618493 0.38809758 1.5793445 -3.303999e+38
1.8618416 0.38491094 1.5793445 -3.2777248e+38
1.8698391 0.38387609 1.5809674 -3.264278e+38
1.8698312 0.38067418 1.5809674 -3.2244022e+38
1.8698233 0.37747228 1.5809674 -3.1846294e+38
1.8698155 0.37427038 1.5809674 -3.2244543e+38
1.8698076 0.37106848 1.5809674 -3.277363e+38
1.8697997 0.36786658 1.5809674 -3.3707716e+38
1.8697919 0.36466467 1.5809674 nan
1.869784 0.36146283 1.5809674 nan
1.8697761 0.35826093 1.5809674 nan
1.8697683 0.35505903 1.5809674 nan
1.8787659 0.35410643 1.5827931 nan
1.878758 0.35088742 1.5827931 nan
1.8787501 0.34766835 1.5827931 nan
1.8787422 0.34444928 1.5827931 nan
1.8787342 0.34123027 1.5827931 nan
1.8787264 0.33801121 1.5827931 nan
1.8787185 0.3347922 1.5827931 nan
1.8787105 0.33157319 1.5827931 nan
1.8867073 0.33023161 1.5844159 nan
1.8866993 0.32699728 1.5844159 nan
1.8946959 0.32561004 1.5860388 nan
1.903693 0.32442129 1.5878645 nan
1.903685 0.32115465 1.5878645 nan
1.9036769 0.31788796 1.5878645 nan
1.9116733 0.31640738 1.5894873 nan
1.9116653 0.31312549 1.5894873 nan
1.9116572 0.3098436 1.5894873 nan
1.9206541 0.3085196 1.5913131 nan
1.920646 0.30522054 1.5913131 nan
1.9296426 0.30384511 1.5931388 nan
1.9386392 0.3024354 1.5949645 nan
1.9476355 0.30099136 1.5967902 nan
1.9476273 0.29764086 1.5967902 -3.2375861e+38
1.9566238 0.29614544 1.5986159 -2.9565224e+38
1.96562 0.29461575 1.6004417 -2.6753545e+38
1.9566072 0.28941023 1.5986159 -2.528719e+38
1.956599 0.28604263 1.5986159 -2.3953749e+38
1.9565907 0.28267503 1.5986159 -2.4615189e+38
1.9565824 0.27930743 1.5986159 -2.5282429e+38
1.9565742 0.27593976 1.5986159 -2.5151614e+38
1.9565659 0.27257222 1.5986159 -2.502077e+38
1.9565576 0.26920456 1.5986159 -2.5287137e+38
1.9655535 0.26753771 1.6004417 -2.5420579e+38
1.9745493 0.26583654 1.6022674 -2.5286618e+38
1.9745409 0.26243466 1.6022674 -2.5153178e+38
1.9745326 0.25903273 1.6022674 -2.5552986e+38
1.9745243 0.25563085 1.6022674 -2.6085189e+38
1.8794696 0.6406008 1.579574 nan
1.8794618 0.63738179 1.579574 -2.8080035e+38
1.8794539 0.63416272 1.579574 -2.7943492e+38
1.8704368 0.62722009 1.5777655 -2.7809019e+38
1.8704289 0.62401819 1.5777655 -2.7546816e+38
1.8704211 0.62081635 1.5777655 -2.7143346e+38
1.8624052 0.6143502 1.5761578 -2.6072149e+38
1.8623973 0.61116362 1.5761578 -2.5022356e+38
1.8543816 0.60474324 1.5745502 -3.1303569e+38
1.8543738 0.60157186 1.5745502 nan
1.8543661 0.59840041 1.5745502 nan
1.8543582 0.59522897 1.5745502 nan
1.8463426 0.58888483 1.5729426 nan
1.8463348 0.58572865 1.5729426 nan
1.8463271 0.58257252 1.5729426 nan
1.8463193 0.57941633 1.5729426 nan
1.8463116 0.57626015 1.5729426 nan
1.8463038 0.57310396 1.5729426 nan
1.8462961 0.56994778 1.5729426 nan
1.8462883 0.56679159 1.5729426 nan
1.8462806 0.56363547 1.5729426 nan
1.8462728 0.56047928 1.5729426 nan
1.8462651 0.5573231 1.5729426 nan
1.8382498 0.55116177 1.571335 -3.3970941e+38
1.8382422 0.54802084 1.571335 nan
1.8382344 0.54487991 1.571335 nan
1.8382267 0.54173899 1.571335 -3.3973533e+38
1.8382189 0.53859806 1.571335 -3.2905471e+38
1.8382113 0.53545707 1.571335 -3.2506178e+38
1.8382035 0.53231615 1.571335 -3.2106894e+38
1.8381958 0.52917516 1.571335 -3.2107939e+38
1.8381881 0.52603424 1.571335 -3.1972941e+38
1.8381804 0.52289331 1.571335 -3.2505153e+38
1.8381727 0.51975238 1.571335 -3.2903411e+38
1.846172 0.51944888 1.5729426 -3.2899786e+38
1.8381573 0.51347047 1.571335 -3.2900285e+38
1.8381495 0.51032954 1.571335 -3.2502537e+38
1.8381418 0.50718856 1.571335 -3.2102734e+38
1.8381341 0.50404769 1.571335 -3.1835335e+38
1.8381264 0.50090671 1.571335 -3.1437601e+38
1.8381187 0.49776578 1.571335 -3.1566887e+38
1.8381109 0.49462479 1.571335 -3.1700339e+38
1.8381032 0.49148387 1.571335 -3.1165543e+38
1.8380955 0.48834294 1.571335 -3.0505604e+38
1.8380878 0.48520201 1.571335 -3.0244434e+38
1.83808 0.48206109 1.571335 -2.9840982e+38
1.8380724 0.4789201 1.571335 -3.0501432e+38
1.8380647 0.47577918 1.571335 -3.1167612e+38
1.8380569 0.47263819 1.571335 -3.1433467e+38
1.8380492 0.46949726 1.571335 -3.1701388e+38
1.8380415 0.46635634 1.571335 -3.0902813e+38
1.8380338 0.46321541 1.571335 -3.0108915e+38
1.838026 0.46007448 1.571335 -3.0109957e+38
1.8380183 0.4569335 1.571335 -3.0108401e+38
1.8380107 0.45379257 1.571335 -2.9974961e+38
1.8380029 0.45065159 1.571335 -2.9843596e+38
1.8379952 0.44751066 1.571335 -2.9311907e+38
1.8379875 0.44436973 1.571335 -2.8780725e+38
1.8379798 0.44122881 1.571335 -2.904656e+38
1.837972 0.43808788 1.571335 -2.9178974e+38
1.8379643 0.43494689 1.571335 -2.9177427e+38
1.8379567 0.43180597 1.571335 -2.9178976e+38
1.8459549 0.43107581 1.5729426 -2.9577737e+38
1.8459471 0.42791963 1.5729426 -2.9845148e+38
1.8459394 0.42476344 1.5729426 -2.9845677e+38
1.8459316 0.42160732 1.5729426 -2.9846197e+38
1.8539298 0.42080098 1.5745502 -3.0377371e+38
1.8539219 0.41762954 1.5745502 -3.090854e+38
1.8539141 0.4144581 1.5745502 -3.104198e+38
1.8539064 0.41128671 1.5745502 -3.1041982e+38
1.8538985 0.40811527 1.5745502 -3.1042506e+38
1.8538908 0.40494382 1.5745502 -3.091167e+38
1.8618885 0.40403086 1.5761578 -3.1447527e+38
1.8618807 0.40084422 1.5761578 -3.184629e+38
1.8618728 0.39765757 1.5761578 -3.2379534e+38
1.861865 0.39447093 1.5761578 -3.2911226e+38
1.8618572 0.39128429 1.5761578 -3.3574803e+38
1.8618493 0.38809758 1.5761578 nan
1.8618416 0.38491094 1.5761578 nan
1.8618337 0.3817243 1.5761578 nan
1.8698312 0.38067418 1.5777655 -3.3982405e+38
1.8698233 0.37747228 1.5777655 -3.3179675e+38
1.8698155 0.37427038 1.5777655 -3.370929e+38
1.8698076 0.37106848 1.5777655 nan
1.8697997 0.36786658 1.5777655 nan
1.8697919 0.36466467 1.5777655 nan
1.869784 0.36146283 1.5777655 nan
1.8697761 0.35826093 1.5777655 nan
1.8697683 0.35505903 1.5777655 nan
1.8787659 0.35410643 1.579574 nan
1.878758 0.35088742 1.579574 nan
1.8787501 0.34766835 1.579574 nan
1.8787422 0.34444928 1.579574 nan
1.8787342 0.34123027 1.579574 nan
1.8787264 0.33801121 1.579574 nan
1.8787185 0.3347922 1.579574 nan
1.8867153 0.33346587 1.5811816 nan
1.8867073 0.33023161 1.5811816 nan
1.8866993 0.32699728 1.5811816 nan
1.8946959 0.32561004 1.5827893 nan
1.903693 0.32442129 1.5845978 nan
1.903685 0.32115465 1.5845978 nan
1.9036769 0.31788796 1.5845978 nan
1.9116733 0.31640738 1.5862055 nan
1.9116653 0.31312549 1.5862055 nan
1.9116572 0.3098436 1.5862055 nan
1.9206541 0.3085196 1.588014 nan
1.9296508 0.30716127 1.5898225 nan
1.9296426 0.30384511 1.5898225 nan
1.9386392 0.3024354 1.5916312 nan
1.9476355 0.30099136 1.5934398 nan
1.9476273 0.29764086 1.5934398 -3.2775163e+38
1.9566238 0.29614544 1.5952483 -2.9835765e+38
1.96562 0.29461575 1.5970569 -2.6763428e+38
1.9656117 0.29123098 1.5970569 -2.4224341e+38
1.956599 0.28604263 1.5952483 -2.1560627e+38
1.9565907 0.28267503 1.5952483 -2.3150444e+38
1.9565824 0.27930743 1.5952483 -2.4617296e+38
1.9565742 0.27593976 1.5952483 -2.4619401e+38
1.9565659 0.27257222 1.5952483 -2.4488038e+38
1.9565576 0.26920456 1.5952483 -2.5020251e+38
1.9655535 0.26753771 1.5970569 -2.5419538e+38
1.9745493 0.26583654 1.5988655 -2.5286618e+38
1.9745409 0.26243466 1.5988655 -2.5021295e+38
1.9745326 0.25903273 1.5988655 -2.5552993e+38
1.88747 0.6407221 1.5779474 -3.3275469e+38
1.8794539 0.63416272 1.576355 -2.9667849e+38
1.8704368 0.62722009 1.5745635 -2.5940833e+38
1.8704289 0.62401819 1.5745635 -2.6478248e+38
1.8624129 0.6175369 1.5729711 -2.6878018e+38
1.8624052 0.6143502 1.5729711 -2.6474538e+38
1.8543894 0.60791463 1.5713788 -2.5945565e+38
1.8543816 0.60474324 1.5713788 -3.2231998e+38
1.8543738 0.60157186 1.5713788 nan
1.8543661 0.59840041 1.5713788 nan
1.8543582 0.59522897 1.5713788 nan
1.8463426 0.58888483 1.5697864 nan
1.8463348 0.58572865 1.5697864 nan
1.8463271 0.58257252 1.5697864 nan
1.8463193 0.57941633 1.5697864 nan
1.8463116 0.57626015 1.5697864 nan
1.8463038 0.57310396 1.5697864 nan
1.8462961 0.56994778 1.5697864 nan
1.8462883 0.56679159 1.5697864 nan
1.8462806 0.56363547 1.5697864 nan
1.8462728 0.56047928 1.5697864 nan
1.8462651 0.5573231 1.5697864 nan
1.8462573 0.55416685 1.5697864 nan
1.8382422 0.54802084 1.568194 nan
1.8382344 0.54487991 1.568194 nan
1.8382267 0.54173899 1.568194 nan
1.8382189 0.53859806 1.568194 -3.3571649e+38
1.8462185 0.53838599 1.5697864 -3.303995e+38
1.8382035 0.53231615 1.568194 -3.2507224e+38
1.846203 0.53207362 1.5697864 -3.2508267e+38
1.8381881 0.52603424 1.568194 -3.25062e+38
1.8381804 0.52289331 1.568194 -3.264121e+38
1.8381727 0.51975238 1.568194 -3.2910167e+38
1.846172 0.51944888 1.5697864 -3.2904451e+38
1.8381573 0.51347047 1.568194 -3.3035291e+38
1.8381495 0.51032954 1.568194 -3.2769439e+38
1.8381418 0.50718856 1.568194 -3.2503606e+38
1.8381341 0.50404769 1.568194 -3.2107444e+38
1.8381264 0.50090671 1.568194 -3.1712304e+38
1.8381187 0.49776578 1.568194 -3.1838988e+38
1.8381109 0.49462479 1.568194 -3.1968284e+38
1.8381032 0.49148387 1.568194 -3.1170755e+38
1.8380955 0.48834294 1.568194 -3.0506663e+38
1.8380878 0.48520201 1.568194 -3.1307317e+38
1.83808 0.48206109 1.568194 -3.2233093e+38
1.8380724 0.4789201 1.568194 -3.2100678e+38
1.8380647 0.47577918 1.568194 -3.2099128e+38
1.8380569 0.47263819 1.568194 -3.2101213e+38
1.8380492 0.46949726 1.568194 -3.2100177e+38
1.8380415 0.46635634 1.568194 -3.1439199e+38
1.8380338 0.46321541 1.568194 -3.0776656e+38
1.838026 0.46007448 1.568194 -3.1041455e+38
1.8380183 0.4569335 1.568194 -3.1438149e+38
1.8380107 0.45379257 1.568194 -3.0775612e+38
1.8380029 0.45065159 1.568194 -3.0242886e+38
1.8379952 0.44751066 1.568194 -3.1041985e+38
1.8379875 0.44436973 1.568194 -3.1968274e+38
1.8379798 0.44122881 1.568194 -3.1971373e+38
1.837972 0.43808788 1.568194 -3.2101716e+38
1.8459704 0.43738818 1.5697864 -3.130679e+38
1.8459626 0.434232 1.5697864 -3.0642172e+38
1.8459549 0.43107581 1.5697864 -3.1308339e+38
1.8459471 0.42791963 1.5697864 -3.1972438e+38
1.8459394 0.42476344 1.5697864 -3.1575749e+38
1.8539375 0.42397237 1.5713788 -3.1177501e+38
1.8539298 0.42080098 1.5713788 -3.1310424e+38
1.8539219 0.41762954 1.5713788 -3.157627e+38
1.8619198 0.41677749 1.5729711 -3.1710231e+38
1.8539064 0.41128671 1.5713788 -3.1976081e+38
1.8538985 0.40811527 1.5713788 -3.1843681e+38
1.8538908 0.40494382 1.5713788 -3.1710762e+38
1.8618885 0.40403086 1.5729711 -3.2112131e+38
1.8618807 0.40084422 1.5729711 -3.2378498e+38
1.8618728 0.39765757 1.5729711 -3.2778305e+38
1.861865 0.39447093 1.5729711 -3.3177071e+38
1.8618572 0.39128429 1.5729711 -3.370928e+38
1.8698548 0.39027989 1.5745635 nan
1.8698469 0.38707799 1.5745635 nan
1.8698391 0.38387609 1.5745635 nan
1.8698312 0.38067418 1.5745635 nan
1.8698233 0.37747228 1.5745635 -3.397877e+38
1.8698155 0.37427038 1.5745635 nan
1.8698076 0.37106848 1.5745635 nan
1.8697997 0.36786658 1.5745635 nan
1.8697919 0.36466467 1.5745635 nan
1.869784 0.36146283 1.5745635 nan
1.8697761 0.35826093 1.5745635 nan
1.8697683 0.35505903 1.5745635 nan
1.8787659 0.35410643 1.576355 nan
1.878758 0.35088742 1.576355 nan
1.8787501 0.34766835 1.576355 nan
1.8787422 0.34444928 1.576355 nan
1.8787342 0.34123027 1.576355 nan
1.8787264 0.33801121 1.576355 nan
1.8867232 0.33670014 1.5779474 nan
1.8867153 0.33346587 1.5779474 nan
1.8867073 0.33023161 1.5779474 nan
1.8866993 0.32699728 1.5779474 nan
1.8946959 0.32561004 1.5795398 nan
1.903693 0.32442129 1.5813311 nan
1.903685 0.32115465 1.5813311 nan
1.9036769 0.31788796 1.5813311 nan
1.9116733 0.31640738 1.5829235 nan
1.9116653 0.31312549 1.5829235 nan
1.9206622 0.3118186 1.584715 nan
1.9296589 0.31047744 1.5865064 nan
1.9296508 0.30716127 1.5865064 nan
1.9386473 0.30576867 1.5882978 nan
1.9386392 0.3024354 1.5882978 nan
1.9476355 0.30099136 1.5900893 nan
1.9476273 0.29764086 1.5900893 nan
1.9566238 0.29614544 1.5918807 -3.223411e+38
1.96562 0.29461575 1.5936722 -2.850027e+38
1.9656117 0.29123098 1.5936722 -2.5294485e+38
1.9656035 0.28784621 1.5936722 -2.2225249e+38
1.9655951 0.2844615 1.5936722 -2.3550772e+38
1.9655868 0.28107673 1.5936722 -2.5017103e+38
1.9655784 0.27769196 1.5936722 -2.475232e+38
1.9565659 0.27257222 1.5918807 -2.4621478e+38
1.9655619 0.27092248 1.5936722 -2.4887326e+38
1.9745578 0.26923841 1.5954635 -2.5153693e+38
1.9835535 0.26752019 1.597255 -2.5154212e+38
1.9745409 0.26243466 1.5954635 -2.5287662e+38
1.9745326 0.25903273 1.5954635 -2.5552997e+38
1.8704447 0.630422 1.5713617 -3.1245247e+38
1.8624287 0.62391019 1.5697845 -2.4076257e+38
1.8704289 0.62401819 1.5713617 -2.5414845e+38
1.8624129 0.6175369 1.5697845 -2.6609063e+38
1.8624052 0.6143502 1.5697845 -2.6736264e+38
1.8543894 0.60791463 1.5682074 -2.6890573e+38
1.8543816 0.60474324 1.5682074 -3.3179582e+38
1.8543738 0.60157186 1.5682074 nan
1.8543661 0.59840041 1.5682074 nan
1.8543582 0.59522897 1.5682074 nan
1.8463426 0.58888483 1.5666302 nan
1.8463348 0.58572865 1.5666302 nan
1.8463271 0.58257252 1.5666302 nan
1.8463193 0.57941633 1.5666302 nan
1.8463116 0.57626015 1.5666302 nan
1.8463038 0.57310396 1.5666302 nan
1.8462961 0.56994778 1.5666302 nan
1.8462883 0.56679159 1.5666302 nan
1.8462806 0.56363547 1.5666302 nan
1.8462728 0.56047928 1.5666302 nan
1.8462651 0.5573231 1.5666302 nan
1.8462573 0.55416685 1.5666302 nan
1.8382422 0.54802084 1.5650531 nan
1.8382344 0.54487991 1.5650531 nan
1.8382267 0.54173899 1.5650531 nan
1.8382189 0.53859806 1.5650531 nan
1.8382113 0.53545707 1.5650531 -3.3441333e+38
1.8382035 0.53231615 1.5650531 -3.2776202e+38
1.8381958 0.52917516 1.5650531 -3.2911203e+38
1.8381881 0.52603424 1.5650531 -3.2908611e+38
1.8381804 0.52289331 1.5650531 -3.2908615e+38
1.8381727 0.51975238 1.5650531 -3.2908094e+38
1.846172 0.51944888 1.5666302 -3.3038936e+38
1.8381573 0.51347047 1.5650531 -3.3037893e+38
1.8461565 0.51313651 1.5666302 -3.2903411e+38
1.8381418 0.50718856 1.5650531 -3.2773609e+38
1.846141 0.50682414 1.5666302 -3.2377965e+38
1.8381264 0.50090671 1.5650531 -3.1844716e+38
1.8381187 0.49776578 1.5650531 -3.1975564e+38
1.8381109 0.49462479 1.5650531 -3.2106409e+38
1.8381032 0.49148387 1.5650531 -3.1308875e+38
1.8380955 0.48834294 1.5650531 -3.0513411e+38
1.8380878 0.48520201 1.5650531 -3.2511405e+38
1.83808 0.48206109 1.5650531 nan
1.8380724 0.4789201 1.5650531 -3.3835432e+38
1.8380647 0.47577918 1.5650531 -3.303738e+38
1.8380569 0.47263819 1.5650531 -3.2772579e+38
1.8380492 0.46949726 1.5650531 -3.2373293e+38
1.8380415 0.46635634 1.5650531 -3.1976602e+38
1.8380338 0.46321541 1.5650531 -3.1443868e+38
1.838026 0.46007448 1.5650531 -3.2106923e+38
1.8380183 0.4569335 1.5650531 -3.2640695e+38
1.8380107 0.45379257 1.5650531 -3.1578355e+38
1.8380029 0.45065159 1.5650531 -3.0514974e+38
1.8379952 0.44751066 1.5650531 -3.2776743e+38
1.8379875 0.44436973 1.5650531 nan
1.8379798 0.44122881 1.5650531 nan
1.8459781 0.44054437 1.5666302 nan
1.8459704 0.43738818 1.5666302 -3.3439268e+38
1.8459626 0.434232 1.5666302 -3.1976598e+38
1.8459549 0.43107581 1.5666302 -3.3040498e+38
1.8459471 0.42791963 1.5666302 nan
1.8459394 0.42476344 1.5666302 -3.3306347e+38
1.8539375 0.42397237 1.5682074 -3.2376407e+38
1.8539298 0.42080098 1.5682074 -3.2244003e+38
1.8539219 0.41762954 1.5682074 -3.2111602e+38
1.8619198 0.41677749 1.5697845 -3.251193e+38
1.8539064 0.41128671 1.5682074 -3.2910181e+38
1.8538985 0.40811527 1.5682074 -3.2777782e+38
1.8618963 0.40721756 1.5697845 -3.2511419e+38
1.8618885 0.40403086 1.5697845 -3.2778824e+38
1.8698862 0.40308744 1.5713617 -3.2911228e+38
1.8698784 0.39988554 1.5713617 -3.3178114e+38
1.8698705 0.39668363 1.5713617 -3.3443957e+38
1.8618572 0.39128429 1.5697845 -3.3842726e+38
1.8698548 0.39027989 1.5713617 nan
1.8698469 0.38707799 1.5713617 nan
1.8698391 0.38387609 1.5713617 nan
1.8698312 0.38067418 1.5713617 nan
1.8698233 0.37747228 1.5713617 nan
1.8698155 0.37427038 1.5713617 nan
1.8698076 0.37106848 1.5713617 nan
1.8697997 0.36786658 1.5713617 nan
1.8697919 0.36466467 1.5713617 nan
1.869784 0.36146283 1.5713617 nan
1.8697761 0.35826093 1.5713617 nan
1.8697683 0.35505903 1.5713617 nan
1.8787659 0.35410643 1.573136 nan
1.878758 0.35088742 1.573136 nan
1.8787501 0.34766835 1.573136 nan
1.8787422 0.34444928 1.573136 nan
1.8787342 0.34123027 1.573136 nan
1.8787264 0.33801121 1.573136 nan
1.8867232 0.33670014 1.5747131 nan
1.8867153 0.33346587 1.5747131 nan
1.8867073 0.33023161 1.5747131 nan
1.8866993 0.32699728 1.5747131 nan
1.9037009 0.32768792 1.5780644 nan
1.903693 0.32442129 1.5780644 nan
1.903685 0.32115465 1.5780644 nan
1.9036769 0.31788796 1.5780644 nan
1.9116733 0.31640738 1.5796416 nan
1.9116653 0.31312549 1.5796416 nan
1.9206622 0.3118186 1.5814159 nan
1.9206541 0.3085196 1.5814159 nan
1.9296508 0.30716127 1.5831902 nan
1.9296426 0.30384511 1.5831902 nan
1.9386392 0.3024354 1.5849645 nan
1.9476355 0.30099136 1.5867388 nan
1.9476273 0.29764086 1.5867388 nan
1.9656284 0.29800045 1.5902873 nan
1.96562 0.29461575 1.5902873 -3.0232436e+38
1.9746162 0.29305172 1.5920616 -2.6493405e+38
1.9656035 0.28784621 1.5902873 -2.2760062e+38
1.9655951 0.2844615 1.5902873 -2.4076747e+38
1.9655868 0.28107673 1.5902873 -2.5279831e+38
1.9655784 0.27769196 1.5902873 -2.501661e+38
1.9655702 0.27430719 1.5902873 -2.4752843e+38
1.9655619 0.27092248 1.5902873 -2.4753886e+38
1.9745578 0.26923841 1.5920616 -2.4754926e+38
1.9835535 0.26752019 1.5938359 -2.5153697e+38
1.9745409 0.26243466 1.5920616 -2.5420068e+38
1.9745326 0.25903273 1.5920616 -2.5685919e+38
1.9655203 0.2539987 1.5902873 -2.5818323e+38
1.8704368 0.62722009 1.5681598 -2.8457496e+38
1.8704289 0.62401819 1.5681598 -2.6204573e+38
1.8624129 0.6175369 1.5665978 -2.3950615e+38
1.8624052 0.6143502 1.5665978 -2.6609607e+38
1.8543894 0.60791463 1.5650359 -2.9278003e+38
1.8543816 0.60474324 1.5650359 nan
1.8543738 0.60157186 1.5650359 nan
1.8543661 0.59840041 1.5650359 nan
1.8543582 0.59522897 1.5650359 nan
1.8543504 0.59205759 1.5650359 nan
1.8463348 0.58572865 1.5634741 nan
1.8463271 0.58257252 1.5634741 nan
1.8463193 0.57941633 1.5634741 nan
1.8463116 0.57626015 1.5634741 nan
1.8463038 0.57310396 1.5634741 nan
1.8462961 0.56994778 1.5634741 nan
1.8462883 0.56679159 1.5634741 nan
1.8462806 0.56363547 1.5634741 nan
1.8462728 0.56047928 1.5634741 nan
1.8462651 0.5573231 1.5634741 nan
1.8462573 0.55416685 1.5634741 nan
1.8462496 0.55101067 1.5634741 nan
1.8382344 0.54487991 1.5619121 nan
1.8382267 0.54173899 1.5619121 nan
1.8382189 0.53859806 1.5619121 nan
1.8462185 0.53838599 1.5634741 -3.3841158e+38
1.8462107 0.5352298 1.5634741 -3.3308428e+38
1.846203 0.53207362 1.5634741 -3.3309465e+38
1.8381881 0.52603424 1.5619121 -3.3308426e+38
1.8381804 0.52289331 1.5619121 -3.3307905e+38
1.8381727 0.51975238 1.5619121 -3.3306864e+38
1.846172 0.51944888 1.5634741 -3.317394e+38
1.8381573 0.51347047 1.5619121 -3.317342e+38
1.8461565 0.51313651 1.5634741 -3.3174457e+38
1.8381418 0.50718856 1.5619121 -3.3176019e+38
1.8381341 0.50404769 1.5619121 -3.3043098e+38
1.8381264 0.50090671 1.5619121 -3.2908627e+38
1.8381187 0.49776578 1.5619121 -3.2908636e+38
1.8381109 0.49462479 1.5619121 -3.2774668e+38
1.8381032 0.49148387 1.5619121 -3.2244529e+38
1.8380955 0.48834294 1.5619121 -3.1713868e+38
1.8380878 0.48520201 1.5619121 -3.3043607e+38
1.83808 0.48206109 1.5619121 nan
1.8380724 0.4789201 1.5619121 -3.3839592e+38
1.8460712 0.47841853 1.5634741 -3.3441347e+38
1.8380569 0.47263819 1.5619121 -3.3042061e+38
1.8380492 0.46949726 1.5619121 -3.2775696e+38
1.8380415 0.46635634 1.5619121 -3.2377967e+38
1.8380338 0.46321541 1.5619121 -3.2111602e+38
1.838026 0.46007448 1.5619121 -3.2511409e+38
1.8380183 0.4569335 1.5619121 -3.2912781e+38
1.8380107 0.45379257 1.5619121 -3.2379538e+38
1.8380029 0.45065159 1.5619121 -3.1980774e+38
1.8379952 0.44751066 1.5619121 -3.3442927e+38
1.8379875 0.44436973 1.5619121 nan
1.8459859 0.44370055 1.5634741 nan
1.8459781 0.44054437 1.5634741 nan
1.8459704 0.43738818 1.5634741 -3.3841154e+38
1.8459626 0.434232 1.5634741 -3.2911215e+38
1.8459549 0.43107581 1.5634741 -3.3707197e+38
1.8459471 0.42791963 1.5634741 nan
1.8459394 0.42476344 1.5634741 -3.3707199e+38
1.8539375 0.42397237 1.5650359 -3.3175507e+38
1.8539298 0.42080098 1.5650359 -3.3044659e+38
1.8619276 0.41996419 1.5665978 -3.3045183e+38
1.8619198 0.41677749 1.5665978 -3.3178108e+38
1.8539064 0.41128671 1.5650359 -3.3443957e+38
1.8619041 0.41040421 1.5665978 -3.3310517e+38
1.8618963 0.40721756 1.5665978 -3.3176556e+38
1.869894 0.40628934 1.5681598 -3.3177075e+38
1.8698862 0.40308744 1.5681598 -3.3176037e+38
1.8698784 0.39988554 1.5681598 -3.3311036e+38
1.8698705 0.39668363 1.5681598 -3.3577921e+38
1.8698627 0.39348173 1.5681598 nan
1.8698548 0.39027989 1.5681598 nan
1.8698469 0.38707799 1.5681598 nan
1.8618337 0.3817243 1.5665978 nan
1.8698312 0.38067418 1.5681598 nan
1.8698233 0.37747228 1.5681598 nan
1.8698155 0.37427038 1.5681598 nan
1.8698076 0.37106848 1.5681598 nan
1.8697997 0.36786658 1.5681598 nan
1.8697919 0.36466467 1.5681598 nan
1.869784 0.36146283 1.5681598 nan
1.8697761 0.35826093 1.5681598 nan
1.8697683 0.35505903 1.5681598 nan
1.8787659 0.35410643 1.5699168 nan
1.878758 0.35088742 1.5699168 nan
1.8787501 0.34766835 1.5699168 nan
1.8787422 0.34444928 1.5699168 nan
1.8787342 0.34123027 1.5699168 nan
1.8787264 0.33801121 1.5699168 nan
1.8867232 0.33670014 1.5714788 nan
1.8867153 0.33346587 1.5714788 nan
1.8867073 0.33023161 1.5714788 nan
1.8947039 0.32885957 1.5730407 nan
1.9037009 0.32768792 1.5747979 nan
1.903693 0.32442129 1.5747979 nan
1.903685 0.32115465 1.5747979 nan
1.9036769 0.31788796 1.5747979 nan
1.9116733 0.31640738 1.5763597 nan
1.9116653 0.31312549 1.5763597 nan
1.9206622 0.3118186 1.5781169 nan
1.9206541 0.3085196 1.5781169 nan
1.9296508 0.30716127 1.579874 nan
1.9296426 0.30384511 1.579874 nan
1.9386392 0.3024354 1.5816312 nan
1.9476355 0.30099136 1.5833883 nan
1.956632 0.29951304 1.5851455 nan
1.9746329 0.29985547 1.5886598 nan
1.9746245 0.2964536 1.5886598 -3.1972391e+38
1.9746162 0.29305172 1.5886598 -2.8229206e+38
1.9746078 0.28964978 1.5886598 -2.449118e+38
1.9745995 0.28624791 1.5886598 -2.3816088e+38
1.9745911 0.28284603 1.5886598 -2.3153583e+38
1.9745828 0.2794441 1.5886598 -2.3820307e+38
1.9655702 0.27430719 1.5869026 -2.4486481e+38
1.9745661 0.27264035 1.5886598 -2.4620444e+38
1.9745578 0.26923841 1.5886598 -2.4754928e+38
1.9745493 0.26583654 1.5886598 -2.5154218e+38
1.9745409 0.26243466 1.5886598 -2.5420068e+38
1.9655286 0.25738347 1.5869026 -2.5685917e+38
1.9655203 0.2539987 1.5869026 -2.5952278e+38
1.8624287 0.62391019 1.5634112 -3.2861609e+38
1.8704289 0.62401819 1.5649579 -2.6994812e+38
1.8624129 0.6175369 1.5634112 -2.1152464e+38
1.8624052 0.6143502 1.5634112 -2.6474071e+38
1.8623973 0.61116362 1.5634112 -3.168361e+38
1.8543816 0.60474324 1.5618645 nan
1.8543738 0.60157186 1.5618645 nan
1.8623738 0.60160363 1.5634112 nan
1.8543582 0.59522897 1.5618645 nan
1.8543504 0.59205759 1.5618645 nan
1.8543427 0.58888614 1.5618645 nan
1.8543348 0.5857147 1.5618645 nan
1.8543271 0.58254331 1.5618645 nan
1.8543192 0.57937193 1.5618645 nan
1.8543115 0.57620049 1.5618645 nan
1.8543037 0.57302904 1.5618645 nan
1.8542958 0.5698576 1.5618645 nan
1.8462806 0.56363547 1.5603179 nan
1.8462728 0.56047928 1.5603179 nan
1.8462651 0.5573231 1.5603179 nan
1.8462573 0.55416685 1.5603179 nan
1.8462496 0.55101067 1.5603179 nan
1.8462418 0.54785448 1.5603179 nan
1.8462341 0.54469836 1.5603179 nan
1.8462262 0.54154217 1.5603179 nan
1.8462185 0.53838599 1.5603179 nan
1.8462107 0.5352298 1.5603179 -3.3708754e+38
1.846203 0.53207362 1.5603179 -3.3708756e+38
1.8381881 0.52603424 1.5587711 -3.3575312e+38
1.8381804 0.52289331 1.5587711 -3.3574793e+38
1.8381727 0.51975238 1.5587711 -3.3574791e+38
1.846172 0.51944888 1.5603179 -3.3441866e+38
1.8381573 0.51347047 1.5587711 -3.3308943e+38
1.8461565 0.51313651 1.5603179 -3.3443943e+38
1.8461487 0.50998032 1.5603179 -3.3443426e+38
1.846141 0.50682414 1.5603179 -3.3709273e+38
1.8381264 0.50090671 1.5587711 -3.3974087e+38
1.8381187 0.49776578 1.5587711 -3.3709284e+38
1.8381109 0.49462479 1.5587711 -3.3443955e+38
1.8381032 0.49148387 1.5587711 -3.3180704e+38
1.8380955 0.48834294 1.5587711 -3.2779852e+38
1.8380878 0.48520201 1.5587711 -3.3443941e+38
1.83808 0.48206109 1.5587711 nan
1.846079 0.48157471 1.5603179 -3.3975119e+38
1.8460712 0.47841853 1.5603179 -3.3842198e+38
1.8460635 0.47526234 1.5603179 -3.344447e+38
1.8460557 0.47210616 1.5603179 -3.3045183e+38
1.846048 0.46894997 1.5603179 -3.2912777e+38
1.8380338 0.46321541 1.5587711 -3.2779337e+38
1.838026 0.46007448 1.5587711 -3.2913818e+38
1.8380183 0.4569335 1.5587711 -3.3046227e+38
1.8380107 0.45379257 1.5587711 -3.3179673e+38
1.8460091 0.45316905 1.5603179 -3.3311562e+38
1.8460014 0.45001286 1.5603179 nan
1.8459936 0.44685674 1.5603179 nan
1.8459859 0.44370055 1.5603179 nan
1.8459781 0.44054437 1.5603179 nan
1.8459704 0.43738818 1.5603179 nan
1.8459626 0.434232 1.5603179 -3.3842722e+38
1.8459549 0.43107581 1.5603179 nan
1.8539531 0.4303152 1.5618645 nan
1.8539453 0.42714381 1.5618645 nan
1.8539375 0.42397237 1.5618645 -3.3843764e+38
1.8619355 0.42315084 1.5634112 -3.3978766e+38
1.8619276 0.41996419 1.5634112 -3.3977727e+38
1.8619198 0.41677749 1.5634112 -3.3977208e+38
1.861912 0.41359085 1.5634112 -3.3843249e+38
1.8619041 0.41040421 1.5634112 -3.3842732e+38
1.8618963 0.40721756 1.5634112 -3.384273e+38
1.869894 0.40628934 1.5649579 -3.3575846e+38
1.8698862 0.40308744 1.5649579 -3.3311039e+38
1.8698784 0.39988554 1.5649579 -3.3578442e+38
1.8698705 0.39668363 1.5649579 -3.3711363e+38
1.8698627 0.39348173 1.5649579 nan
1.8698548 0.39027989 1.5649579 nan
1.8698469 0.38707799 1.5649579 nan
1.8698391 0.38387609 1.5649579 nan
1.8698312 0.38067418 1.5649579 nan
1.8698233 0.37747228 1.5649579 nan
1.8698155 0.37427038 1.5649579 nan
1.8698076 0.37106848 1.5649579 nan
1.8697997 0.36786658 1.5649579 nan
1.8697919 0.36466467 1.5649579 nan
1.869784 0.36146283 1.5649579 nan
1.8787817 0.3605445 1.5666978 nan
1.8787738 0.35732543 1.5666978 nan
1.8787659 0.35410643 1.5666978 nan
1.878758 0.35088742 1.5666978 nan
1.8787501 0.34766835 1.5666978 nan
1.8787422 0.34444928 1.5666978 nan
1.8867391 0.34316874 1.5682445 nan
1.8867311 0.33993441 1.5682445 nan
1.8867232 0.33670014 1.5682445 nan
1.8947198 0.33535862 1.5697912 nan
1.8947119 0.33210909 1.5697912 nan
1.8947039 0.32885957 1.5697912 nan
1.9037009 0.32768792 1.5715312 nan
1.903693 0.32442129 1.5715312 nan
1.903685 0.32115465 1.5715312 nan
1.9036769 0.31788796 1.5715312 nan
1.9116733 0.31640738 1.5730778 nan
1.9116653 0.31312549 1.5730778 nan
1.9206622 0.3118186 1.5748179 nan
1.9206541 0.3085196 1.5748179 nan
1.9296508 0.30716127 1.5765579 nan
1.9296426 0.30384511 1.5765579 nan
1.9386392 0.3024354 1.5782979 nan
1.9476355 0.30099136 1.5800378 nan
1.9656367 0.30138522 1.5835178 nan
1.9746329 0.29985547 1.5852578 nan
1.9746245 0.2964536 1.5852578 -3.3700923e+38
1.9746162 0.29305172 1.5852578 -2.9959817e+38
1.9746078 0.28964978 1.5852578 -2.6090432e+38
1.9745995 0.28624791 1.5852578 -2.3543006e+38
1.9745911 0.28284603 1.5852578 -2.0889762e+38
1.9745828 0.2794441 1.5852578 -2.249057e+38
1.9655702 0.27430719 1.5835178 -2.4087201e+38
1.9745661 0.27264035 1.5852578 -2.4487006e+38
1.9745578 0.26923841 1.5852578 -2.475493e+38
1.9745493 0.26583654 1.5852578 -2.515422e+38
1.9745409 0.26243466 1.5852578 -2.5420068e+38
1.9745326 0.25903273 1.5852578 -2.5685398e+38
1.9655203 0.2539987 1.5835178 -2.5951238e+38
1.8704368 0.62722009 1.5617559 nan
1.8704289 0.62401819 1.5617559 -2.8738357e+38
1.8624129 0.6175369 1.5602245 -1.9950944e+38
1.8704132 0.61761445 1.5617559 -2.6610093e+38
1.8623973 0.61116362 1.5602245 -3.3405909e+38
1.8543816 0.60474324 1.5586931 nan
1.8543738 0.60157186 1.5586931 nan
1.8543661 0.59840041 1.5586931 nan
1.862366 0.59841692 1.5602245 nan
1.8623582 0.59523034 1.5602245 nan
1.8543427 0.58888614 1.5586931 nan
1.8543348 0.5857147 1.5586931 nan
1.8543271 0.58254331 1.5586931 nan
1.8543192 0.57937193 1.5586931 nan
1.8543115 0.57620049 1.5586931 nan
1.8543037 0.57302904 1.5586931 nan
1.8542958 0.5698576 1.5586931 nan
1.8462806 0.56363547 1.5571617 nan
1.8462728 0.56047928 1.5571617 nan
1.8462651 0.5573231 1.5571617 nan
1.8462573 0.55416685 1.5571617 nan
1.8462496 0.55101067 1.5571617 nan
1.8462418 0.54785448 1.5571617 nan
1.8462341 0.54469836 1.5571617 nan
1.8462262 0.54154217 1.5571617 nan
1.8462185 0.53838599 1.5571617 nan
1.8462107 0.5352298 1.5571617 -3.3975638e+38
1.846203 0.53207362 1.5571617 -3.3975123e+38
1.8381881 0.52603424 1.5556302 -3.3975123e+38
1.8381804 0.52289331 1.5556302 -3.3841679e+38
1.8381727 0.51975238 1.5556302 -3.3841679e+38
1.846172 0.51944888 1.5571617 -3.3708754e+38
1.8461642 0.51629269 1.5571617 -3.3575833e+38
1.8461565 0.51313651 1.5571617 -3.3576353e+38
1.8461487 0.50998032 1.5571617 -3.3576355e+38
1.846141 0.50682414 1.5571617 -3.3841681e+38
1.8461332 0.50366801 1.5571617 nan
1.8461255 0.50051183 1.5571617 -3.3975644e+38
1.8461177 0.49735564 1.5571617 -3.3711878e+38
1.8381032 0.49148387 1.5556302 -3.3444994e+38
1.8461022 0.49104327 1.5571617 -3.331155e+38
1.8460945 0.48788702 1.5571617 -3.3710314e+38
1.8460867 0.4847309 1.5571617 nan
1.846079 0.48157471 1.5571617 nan
1.8460712 0.47841853 1.5571617 nan
1.8460635 0.47526234 1.5571617 -3.3976687e+38
1.8460557 0.47210616 1.5571617 -3.3711359e+38
1.846048 0.46894997 1.5571617 -3.3710837e+38
1.8460401 0.46579385 1.5571617 -3.3711359e+38
1.8460324 0.46263766 1.5571617 -3.3577919e+38
1.8380183 0.4569335 1.5556302 -3.3577403e+38
1.8460169 0.45632529 1.5571617 -3.3711886e+38
1.8460091 0.45316905 1.5571617 -3.3712411e+38
1.8460014 0.45001286 1.5571617 nan
1.8459936 0.44685674 1.5571617 nan
1.8459859 0.44370055 1.5571617 nan
1.8459781 0.44054437 1.5571617 nan
1.8459704 0.43738818 1.5571617 nan
1.8459626 0.434232 1.5571617 nan
1.8539609 0.43348658 1.5586931 nan
1.8539531 0.4303152 1.5586931 nan
1.8539453 0.42714381 1.5586931 -3.3976691e+38
1.8539375 0.42397237 1.5586931 -3.3578965e+38
1.8619355 0.42315084 1.5602245 -3.3447085e+38
1.8619276 0.41996419 1.5602245 -3.3447083e+38
1.8619198 0.41677749 1.5602245 -3.3444485e+38
1.861912 0.41359085 1.5602245 -3.3577927e+38
1.8619041 0.41040421 1.5602245 -3.3577927e+38
1.8699019 0.40949124 1.5617559 -3.3711886e+38
1.869894 0.40628934 1.5617559 -3.3443961e+38
1.8698862 0.40308744 1.5617559 -3.3180193e+38
1.8698784 0.39988554 1.5617559 -3.3312077e+38
1.8698705 0.39668363 1.5617559 -3.3445517e+38
1.8698627 0.39348173 1.5617559 -3.3443438e+38
1.8698548 0.39027989 1.5617559 -3.3575852e+38
1.8698469 0.38707799 1.5617559 nan
1.8698391 0.38387609 1.5617559 nan
1.8698312 0.38067418 1.5617559 nan
1.8698233 0.37747228 1.5617559 nan
1.8698155 0.37427038 1.5617559 nan
1.8698076 0.37106848 1.5617559 nan
1.8697997 0.36786658 1.5617559 nan
1.8697919 0.36466467 1.5617559 nan
1.869784 0.36146283 1.5617559 nan
1.8787817 0.3605445 1.5634788 nan
1.8787738 0.35732543 1.5634788 nan
1.8787659 0.35410643 1.5634788 nan
1.878758 0.35088742 1.5634788 nan
1.8787501 0.34766835 1.5634788 nan
1.8787422 0.34444928 1.5634788 nan
1.8867391 0.34316874 1.5650102 nan
1.8867311 0.33993441 1.5650102 nan
1.8867232 0.33670014 1.5650102 nan
1.8947198 0.33535862 1.5665417 nan
1.8947119 0.33210909 1.5665417 nan
1.8947039 0.32885957 1.5665417 nan
1.9037009 0.32768792 1.5682645 nan
1.903693 0.32442129 1.5682645 nan
1.903685 0.32115465 1.5682645 nan
1.9036769 0.31788796 1.5682645 nan
1.9116733 0.31640738 1.569796 nan
1.9116653 0.31312549 1.569796 nan
1.9116572 0.3098436 1.569796 nan
1.9206541 0.3085196 1.5715188 nan
1.9296508 0.30716127 1.5732417 nan
1.9296426 0.30384511 1.5732417 nan
1.9386392 0.3024354 1.5749645 nan
1.9476355 0.30099136 1.5766873 nan
1.9656367 0.30138522 1.5801331 nan
1.9746329 0.29985547 1.5818559 nan
1.9746245 0.2964536 1.5818559 nan
1.9746162 0.29305172 1.5818559 -3.08986e+38
1.9746078 0.28964978 1.5818559 -2.756403e+38
1.9745995 0.28624791 1.5818559 -2.3951151e+38
1.9745911 0.28284603 1.5818559 -2.0486343e+38
1.9745828 0.2794441 1.5818559 -2.2355061e+38
1.9655702 0.27430719 1.5801331 -2.4352533e+38
1.9745661 0.27264035 1.5818559 -2.4620452e+38
1.9745578 0.26923841 1.5818559 -2.4888894e+38
1.9745493 0.26583654 1.5818559 -2.515422e+38
1.9745409 0.26243466 1.5818559 -2.5553512e+38
1.9745326 0.25903273 1.5818559 -2.5686437e+38
1.9655203 0.2539987 1.5801331 -2.5952795e+38
1.8794459 0.63094366 1.5602597 nan
1.8704289 0.62401819 1.5585541 -3.0611774e+38
1.8704211 0.62081635 1.5585541 -1.8636778e+38
1.8704132 0.61761445 1.5585541 -2.6874355e+38
1.8704053 0.61441255 1.5585541 nan
1.8623894 0.60797691 1.5570378 nan
1.8623817 0.60479021 1.5570378 nan
1.8623738 0.60160363 1.5570378 nan
1.862366 0.59841692 1.5570378 nan
1.8623582 0.59523034 1.5570378 nan
1.8543427 0.58888614 1.5555216 nan
1.8543348 0.5857147 1.5555216 nan
1.8543271 0.58254331 1.5555216 nan
1.8543192 0.57937193 1.5555216 nan
1.8543115 0.57620049 1.5555216 nan
1.8543037 0.57302904 1.5555216 nan
1.8542958 0.5698576 1.5555216 nan
1.8542881 0.56668621 1.5555216 nan
1.8542804 0.56351483 1.5555216 nan
1.8542725 0.56034338 1.5555216 nan
1.8462573 0.55416685 1.5540054 nan
1.8462496 0.55101067 1.5540054 nan
1.8462418 0.54785448 1.5540054 nan
1.8462341 0.54469836 1.5540054 nan
