# .PCD v0.7 - Point Cloud Data file format
VERSION 0.7
FIELDS x y z rgb
SIZE 4 4 4 4
TYPE F F F F
COUNT 1 1 1 1
WIDTH 1092
HEIGHT 1
VIEWPOINT 0 0 0 1 0 0 0
POINTS 1092
DATA ascii
-0.06810572 -0.59231335 2.1670001 nan
-0.063978098 -0.59231335 2.1670001 nan
-0.05985048 -0.59231335 2.1670001 nan
-0.055722862 -0.59231335 2.1670001 nan
-0.051595241 -0.59231335 2.1670001 nan
-0.047467623 -0.59231335 2.1670001 nan
-0.043340001 -0.59231335 2.1670001 nan
-0.039212383 -0.59231335 2.1670001 nan
-0.035084765 -0.59231335 2.1670001 nan
-0.030957146 -0.59231335 2.1670001 nan
-0.026656192 -0.58848673 2.1530001 nan
-0.022701906 -0.59231335 2.1670001 nan
-0.018454287 -0.58848673 2.1530001 nan
-0.014353334 -0.58848673 2.1530001 nan
-0.010252382 -0.58848673 2.1530001 nan
-0.0061514289 -0.58848673 2.1530001 nan
-0.0020638097 -0.59231335 2.1670001 nan
0.0020771429 -0.59614003 2.181 -3.3785921e+38
0.0062314291 -0.59614003 2.181 -2.2760614e+38
0.010447619 -0.59969336 2.194 -2.4103356e+38
0.014626668 -0.59969336 2.194 -2.5429978e+38
0.018805716 -0.59969336 2.194 -2.4765354e+38
0.02313143 -0.60352004 2.2080002 -2.409502e+38
0.027337145 -0.60352004 2.2080002 -2.355813e+38
0.03154286 -0.60352004 2.2080002 -2.3025399e+38
0.035748575 -0.60352004 2.2080002 -2.3289167e+38
0.03995429 -0.60352004 2.2080002 -2.3555536e+38
0.044160005 -0.60352004 2.2080002 -2.3552425e+38
0.04869429 -0.60762006 2.223 -2.3554504e+38
0.052571431 -0.60352004 2.2080002 -2.3686907e+38
0.057162862 -0.60762006 2.223 -2.3820873e+38
0.060982861 -0.60352004 2.2080002 -2.3553993e+38
0.065631434 -0.60762006 2.223 -2.3291262e+38
0.069865718 -0.60762006 2.223 -2.2894571e+38
0.074100003 -0.60762006 2.223 -2.249736e+38
0.078334294 -0.60762006 2.223 -2.3029573e+38
0.082568578 -0.60762006 2.223 -2.3425745e+38
0.086802863 -0.60762006 2.223 -2.3422632e+38
0.091610484 -0.61144668 2.237 -2.3293343e+38
0.095871434 -0.61144668 2.237 -2.3696785e+38
0.10080381 -0.6155467 2.2520001 -2.4094519e+38
0.10509334 -0.6155467 2.2520001 -2.4626733e+38
0.10938287 -0.6155467 2.2520001 -2.5023439e+38
0.11367239 -0.6155467 2.2520001 -2.5153261e+38
0.11869524 -0.61937338 2.266 -2.5287751e+38
0.12301144 -0.61937338 2.266 -2.4753995e+38
0.12732762 -0.61937338 2.266 -2.4096137e+38
0.13164382 -0.61937338 2.266 -2.5701604e+38
0.13686001 -0.62347335 2.2810001 -2.7165328e+38
0.14219525 -0.62784672 2.2970002 -2.863113e+38
0.14657049 -0.62784672 2.2970002 -3.0096402e+38
0.15291715 -0.63604671 2.3270001 -2.9968159e+38
0.15843144 -0.64042002 2.3430002 -2.9705437e+38
0.16400668 -0.64479339 2.3590002 -3.0243365e+38
0.17085716 -0.65381336 2.3920002 -3.076573e+38
0.17541334 -0.65381336 2.3920002 -3.2083557e+38
-0.24102192 -0.70815718 2.6090002 nan
-0.23605239 -0.70815718 2.6090002 nan
-0.23108287 -0.70815718 2.6090002 nan
-0.22611335 -0.70815718 2.6090002 nan
-0.22114383 -0.70815718 2.6090002 nan
-0.2161743 -0.70815718 2.6090002 nan
-0.20958573 -0.70272863 2.5890002 nan
-0.20465431 -0.70272863 2.5890002 nan
-0.19825716 -0.69757146 2.5700002 -2.9339895e+38
-0.1919324 -0.69241434 2.5510001 -2.3419443e+38
-0.18568002 -0.68725717 2.5320001 -1.7679917e+38
-0.18085715 -0.68725717 2.5320001 -2.1027948e+38
-0.1760343 -0.68725717 2.5320001 -2.4494312e+38
-0.17121144 -0.68725717 2.5320001 -2.4356702e+38
-0.16520573 -0.6823715 2.5140002 -2.4220657e+38
-0.16041715 -0.6823715 2.5140002 -2.4218574e+38
-0.15562858 -0.6823715 2.5140002 -2.4084611e+38
-0.14976001 -0.67748576 2.4960001 -2.3688435e+38
-0.14500572 -0.67748576 2.4960001 -2.3426737e+38
-0.13924001 -0.67260003 2.4780002 -2.2361791e+38
-0.13452001 -0.67260003 2.4780002 -2.1301045e+38
-0.12885715 -0.66771436 2.46 -2.4773174e+38
-0.12417144 -0.66771436 2.46 -2.8245829e+38
-0.11948572 -0.66771436 2.46 -3.3568499e+38
-0.10047334 -0.58438575 2.1530001 nan
-0.096999057 -0.58818573 2.1670001 nan
-0.093471438 -0.59198576 2.181 nan
-0.08931715 -0.59198576 2.181 nan
-0.085162863 -0.59198576 2.181 nan
-0.080488577 -0.58818573 2.1670001 nan
-0.076360956 -0.58818573 2.1670001 nan
-0.072233342 -0.58818573 2.1670001 nan
-0.06810572 -0.58818573 2.1670001 nan
-0.063978098 -0.58818573 2.1670001 nan
-0.05985048 -0.58818573 2.1670001 nan
-0.055722862 -0.58818573 2.1670001 nan
-0.051595241 -0.58818573 2.1670001 nan
-0.047467623 -0.58818573 2.1670001 nan
-0.043340001 -0.58818573 2.1670001 nan
-0.039212383 -0.58818573 2.1670001 nan
-0.035084765 -0.58818573 2.1670001 nan
-0.030957146 -0.58818573 2.1670001 nan
-0.026829526 -0.58818573 2.1670001 nan
-0.022701906 -0.58818573 2.1670001 nan
-0.018574286 -0.58818573 2.1670001 nan
-0.014446667 -0.58818573 2.1670001 nan
-0.010319049 -0.58818573 2.1670001 nan
-0.0061514289 -0.58438575 2.1530001 nan
-0.0020638097 -0.58818573 2.1670001 nan
0.0020771429 -0.59198576 2.181 -3.0881362e+38
0.0062314291 -0.59198576 2.181 -2.0765232e+38
0.010385715 -0.59198576 2.181 -2.2901883e+38
0.014540001 -0.59198576 2.181 -2.5166223e+38
0.018805716 -0.5955143 2.194 -2.4896723e+38
0.022984764 -0.5955143 2.194 -2.462619e+38
0.027337145 -0.59931433 2.2080002 -2.4093444e+38
0.03154286 -0.59931433 2.2080002 -2.3558633e+38
0.035748575 -0.59931433 2.2080002 -2.3692591e+38
0.03995429 -0.59931433 2.2080002 -2.3822923e+38
0.044160005 -0.59931433 2.2080002 -2.3690526e+38
0.048365716 -0.59931433 2.2080002 -2.355553e+38
0.052571431 -0.59931433 2.2080002 -2.3555534e+38
0.056777146 -0.59931433 2.2080002 -2.3419506e+38
0.060982861 -0.59931433 2.2080002 -2.3289709e+38
0.065631434 -0.60338575 2.223 -2.329179e+38
0.069865718 -0.60338575 2.223 -2.3028544e+38
0.074100003 -0.60338575 2.223 -2.2898218e+38
0.078334294 -0.60338575 2.223 -2.3294907e+38
0.082568578 -0.60338575 2.223 -2.3692114e+38
0.086802863 -0.60338575 2.223 -2.3558668e+38
0.091037147 -0.60338575 2.223 -2.3558666e+38
0.095871434 -0.60718578 2.237 -2.3960545e+38
0.10080381 -0.6112572 2.2520001 -2.4359835e+38
0.10509334 -0.6112572 2.2520001 -2.4759125e+38
0.10938287 -0.6112572 2.2520001 -2.5290309e+38
0.11367239 -0.6112572 2.2520001 -2.5422203e+38
0.11869524 -0.61505717 2.266 -2.568754e+38
0.12301144 -0.61505717 2.266 -2.5289301e+38
0.12732762 -0.61505717 2.266 -2.50245e+38
0.13164382 -0.61505717 2.266 -2.5164179e+38
0.13686001 -0.61912858 2.2810001 -2.5434728e+38
0.14120477 -0.61912858 2.2810001 -2.8098926e+38
0.14657049 -0.6234715 2.2970002 -3.0892915e+38
0.15291715 -0.63161433 2.3270001 -3.0901754e+38
0.15843144 -0.63595718 2.3430002 -3.0906417e+38
0.16400668 -0.64030004 2.3590002 -3.0241274e+38
0.17085716 -0.64925718 2.3920002 -2.9568415e+38
0.17541334 -0.64925718 2.3920002 nan
-0.24102192 -0.70318764 2.6090002 nan
-0.23605239 -0.70318764 2.6090002 nan
-0.23108287 -0.70318764 2.6090002 nan
-0.22611335 -0.70318764 2.6090002 nan
-0.22114383 -0.70318764 2.6090002 nan
-0.2161743 -0.70318764 2.6090002 nan
-0.20958573 -0.69779718 2.5890002 nan
-0.20465431 -0.69779718 2.5890002 nan
-0.19825716 -0.69267625 2.5700002 -2.039144e+38
-0.1919324 -0.68755525 2.5510001 -1.9141997e+38
-0.18568002 -0.68243432 2.5320001 -1.7960277e+38
-0.18085715 -0.68243432 2.5320001 -2.1169165e+38
-0.1760343 -0.68243432 2.5320001 -2.422534e+38
-0.17121144 -0.68243432 2.5320001 -2.4088256e+38
-0.16520573 -0.67758292 2.5140002 -2.3953771e+38
-0.16041715 -0.67758292 2.5140002 -2.3951171e+38
-0.15562858 -0.67758292 2.5140002 -2.3952207e+38
-0.14976001 -0.67273146 2.4960001 -2.4086686e+38
-0.14396001 -0.66788006 2.4780002 -2.4088239e+38
-0.13924001 -0.66788006 2.4780002 -2.3556546e+38
-0.13452001 -0.66788006 2.4780002 -2.3028015e+38
-0.12885715 -0.6630286 2.46 -2.1302142e+38
-0.12417144 -0.6630286 2.46 -1.958923e+38
-0.11948572 -0.6630286 2.46 -2.9043392e+38
-0.11480001 -0.6630286 2.46 nan
-0.096372388 -0.58028477 2.1530001 nan
-0.093471438 -0.58783144 2.181 nan
-0.08931715 -0.58783144 2.181 nan
-0.085162863 -0.58783144 2.181 nan
-0.080488577 -0.58405811 2.1670001 nan
-0.076360956 -0.58405811 2.1670001 nan
-0.072233342 -0.58405811 2.1670001 nan
-0.06810572 -0.58405811 2.1670001 nan
-0.063978098 -0.58405811 2.1670001 nan
-0.05985048 -0.58405811 2.1670001 nan
-0.055722862 -0.58405811 2.1670001 nan
-0.051595241 -0.58405811 2.1670001 nan
-0.047467623 -0.58405811 2.1670001 nan
-0.043620002 -0.58783144 2.181 nan
-0.039212383 -0.58405811 2.1670001 nan
-0.035084765 -0.58405811 2.1670001 nan
-0.030957146 -0.58405811 2.1670001 nan
-0.026829526 -0.58405811 2.1670001 nan
-0.022701906 -0.58405811 2.1670001 nan
-0.018574286 -0.58405811 2.1670001 nan
-0.014446667 -0.58405811 2.1670001 nan
-0.010319049 -0.58405811 2.1670001 nan
-0.0061914288 -0.58405811 2.1670001 nan
-0.0020638097 -0.58405811 2.1670001 nan
0.0020771429 -0.58783144 2.181 -2.793418e+38
0.0062314291 -0.58783144 2.181 -1.8638964e+38
0.010385715 -0.58783144 2.181 -2.1706089e+38
0.014540001 -0.58783144 2.181 -2.4763822e+38
0.018805716 -0.5913353 2.194 -2.50281e+38
0.022984764 -0.5913353 2.194 -2.5161013e+38
0.027337145 -0.59510863 2.2080002 -2.4631388e+38
0.03154286 -0.59510863 2.2080002 -2.4097093e+38
0.035748575 -0.59510863 2.2080002 -2.4098642e+38
0.03995429 -0.59510863 2.2080002 -2.4096048e+38
0.044160005 -0.59510863 2.2080002 -2.3830205e+38
0.048365716 -0.59510863 2.2080002 -2.3560726e+38
0.052571431 -0.59510863 2.2080002 -2.3293325e+38
0.056777146 -0.59510863 2.2080002 -2.302593e+38
0.060982861 -0.59510863 2.2080002 -2.3158342e+38
0.065631434 -0.59915149 2.223 -2.3159386e+38
0.069865718 -0.59915149 2.223 -2.3161471e+38
0.074100003 -0.59915149 2.223 -2.3161467e+38
0.078334294 -0.59915149 2.223 -2.3559193e+38
0.082568578 -0.59915149 2.223 -2.3826073e+38
0.086802863 -0.59915149 2.223 -2.382659e+38
0.091610484 -0.60292482 2.237 -2.3827112e+38
0.095871434 -0.60292482 2.237 -2.4225882e+38
0.10080381 -0.60696769 2.2520001 -2.4492251e+38
0.10509334 -0.60696769 2.2520001 -2.5024985e+38
0.10938287 -0.60696769 2.2520001 -2.5427917e+38
0.11367239 -0.60696769 2.2520001 -2.5691179e+38
0.11869524 -0.61074102 2.266 -2.5958588e+38
0.12301144 -0.61074102 2.266 -2.5957558e+38
0.12732762 -0.61074102 2.266 -2.5959113e+38
0.13164382 -0.61074102 2.266 -2.4762287e+38
0.13686001 -0.61478382 2.2810001 -2.3573289e+38
0.14120477 -0.61478382 2.2810001 -2.7703283e+38
0.14657049 -0.61909622 2.2970002 -3.1696678e+38
0.15193143 -0.62313908 2.312 -3.1839469e+38
0.15843144 -0.63149434 2.3430002 -3.1972404e+38
0.16400668 -0.63580668 2.3590002 -3.0245977e+38
0.17085716 -0.644701 2.3920002 -2.8396552e+38
-0.24102192 -0.69821817 2.6090002 nan
-0.23605239 -0.69821817 2.6090002 nan
-0.23108287 -0.69821817 2.6090002 nan
-0.22611335 -0.69821817 2.6090002 nan
-0.22114383 -0.69821817 2.6090002 nan
-0.2161743 -0.69821817 2.6090002 nan
-0.20958573 -0.69286579 2.5890002 nan
-0.20465431 -0.69286579 2.5890002 -3.3035309e+38
-0.19825716 -0.68778098 2.5700002 -1.9432372e+38
-0.1919324 -0.68269622 2.5510001 -2.0089558e+38
-0.18568002 -0.67761147 2.5320001 -2.0762537e+38
-0.18085715 -0.67761147 2.5320001 -2.2229415e+38
-0.1760343 -0.67761147 2.5320001 -2.3826564e+38
-0.16999429 -0.67279434 2.5140002 -2.3689483e+38
-0.16520573 -0.67279434 2.5140002 -2.3687924e+38
-0.15926859 -0.66797721 2.4960001 -2.3685845e+38
-0.1545143 -0.66797721 2.4960001 -2.3818765e+38
-0.14976001 -0.66797721 2.4960001 -2.3819283e+38
-0.14396001 -0.66316003 2.4780002 -2.3953244e+38
-0.13924001 -0.66316003 2.4780002 -2.3821879e+38
-0.13354287 -0.6583429 2.46 -2.3691603e+38
-0.12885715 -0.6583429 2.46 -2.2895674e+38
-0.12417144 -0.6583429 2.46 -2.2229513e+38
-0.11948572 -0.6583429 2.46 -2.5832456e+38
-0.11480001 -0.6583429 2.46 -2.9572479e+38
-0.11092 -0.66316003 2.4780002 nan
-0.093471438 -0.58367717 2.181 nan
-0.08931715 -0.58367717 2.181 nan
-0.085162863 -0.58367717 2.181 nan
-0.081008576 -0.58367717 2.181 nan
-0.076360956 -0.57993054 2.1670001 nan
-0.072233342 -0.57993054 2.1670001 nan
-0.06810572 -0.57993054 2.1670001 nan
-0.063978098 -0.57993054 2.1670001 nan
-0.05985048 -0.57993054 2.1670001 nan
-0.055722862 -0.57993054 2.1670001 nan
-0.051595241 -0.57993054 2.1670001 nan
-0.047467623 -0.57993054 2.1670001 nan
-0.043340001 -0.57993054 2.1670001 nan
-0.039212383 -0.57993054 2.1670001 nan
-0.035084765 -0.57993054 2.1670001 nan
-0.030957146 -0.57993054 2.1670001 nan
-0.026829526 -0.57993054 2.1670001 nan
-0.022701906 -0.57993054 2.1670001 nan
-0.018574286 -0.57993054 2.1670001 nan
-0.014446667 -0.57993054 2.1670001 nan
-0.010319049 -0.57993054 2.1670001 nan
-0.0061914288 -0.57993054 2.1670001 nan
-0.0020638097 -0.57993054 2.1670001 -3.1035068e+38
0.0020638097 -0.57993054 2.1670001 -2.5154709e+38
0.0062314291 -0.58367717 2.181 -1.9436998e+38
0.010385715 -0.58367717 2.181 -2.196777e+38
0.014540001 -0.58367717 2.181 -2.4496938e+38
0.018694287 -0.58367717 2.181 -2.4629342e+38
0.022984764 -0.58715624 2.194 -2.4896741e+38
0.027337145 -0.59090292 2.2080002 -2.4631411e+38
0.03154286 -0.59090292 2.2080002 -2.4366072e+38
0.035748575 -0.59090292 2.2080002 -2.4232099e+38
0.03995429 -0.59090292 2.2080002 -2.4099693e+38
0.044160005 -0.59090292 2.2080002 -2.3830728e+38
0.048365716 -0.59090292 2.2080002 -2.3562807e+38
0.052571431 -0.59090292 2.2080002 -2.3295923e+38
0.056777146 -0.59090292 2.2080002 -2.3161968e+38
0.060982861 -0.59090292 2.2080002 -2.3293339e+38
0.065188579 -0.59090292 2.2080002 -2.3425234e+38
0.069865718 -0.59491718 2.223 -2.3558684e+38
0.074100003 -0.59491718 2.223 -2.3558678e+38
0.078334294 -0.59491718 2.223 -2.3693152e+38
0.082568578 -0.59491718 2.223 -2.3961073e+38
0.086802863 -0.59491718 2.223 -2.3962107e+38
0.091610484 -0.59866387 2.237 -2.3963154e+38
0.095871434 -0.59866387 2.237 -2.4094008e+38
0.10080381 -0.60267812 2.2520001 -2.4358302e+38
0.10509334 -0.60267812 2.2520001 -2.4762786e+38
0.10938287 -0.60267812 2.2520001 -2.5173509e+38
0.11367239 -0.60267812 2.2520001 -2.5566576e+38
0.11869524 -0.60642481 2.266 -2.6099311e+38
0.12301144 -0.60642481 2.266 -2.6364642e+38
0.12732762 -0.60642481 2.266 -2.6629439e+38
0.13164382 -0.60642481 2.266 -2.5963774e+38
0.13596001 -0.60642481 2.266 -2.5297653e+38
0.14120477 -0.61043906 2.2810001 -2.8234465e+38
0.14657049 -0.614721 2.2970002 -3.1166543e+38
0.15193143 -0.61873525 2.312 -3.1972375e+38
0.15843144 -0.62703145 2.3430002 -3.290391e+38
-0.24787717 -0.69856292 2.6290002 nan
-0.24102192 -0.69324863 2.6090002 nan
-0.23605239 -0.69324863 2.6090002 nan
-0.23108287 -0.69324863 2.6090002 nan
-0.22611335 -0.69324863 2.6090002 nan
-0.22114383 -0.69324863 2.6090002 nan
-0.21451716 -0.68793434 2.5890002 nan
-0.20958573 -0.68793434 2.5890002 nan
-0.20465431 -0.68793434 2.5890002 -3.060732e+38
-0.19825716 -0.68288577 2.5700002 -1.8368969e+38
-0.1919324 -0.67783719 2.5510001 -2.08892e+38
-0.18707335 -0.67783719 2.5510001 -2.3419967e+38
-0.18085715 -0.67278862 2.5320001 -2.3425197e+38
-0.1760343 -0.67278862 2.5320001 -2.3423116e+38
-0.16999429 -0.66800576 2.5140002 -2.3421035e+38
-0.16520573 -0.66800576 2.5140002 -2.3287591e+38
-0.15926859 -0.66322291 2.4960001 -2.3551358e+38
-0.1545143 -0.66322291 2.4960001 -2.3684804e+38
-0.14976001 -0.66322291 2.4960001 -2.3684806e+38
-0.14396001 -0.65844005 2.4780002 -2.368637e+38
-0.13924001 -0.65844005 2.4780002 -2.4085144e+38
-0.13354287 -0.6536572 2.46 -2.4356738e+38
-0.12885715 -0.6536572 2.46 -2.4625736e+38
-0.12417144 -0.6536572 2.46 -2.4754496e+38
-0.11948572 -0.6536572 2.46 -2.2749221e+38
-0.11480001 -0.6536572 2.46 -2.0647943e+38
-0.11011429 -0.6536572 2.46 -2.9848738e+38
-0.10542858 -0.6536572 2.46 nan
-0.08931715 -0.57952291 2.181 nan
-0.085162863 -0.57952291 2.181 nan
-0.081008576 -0.57952291 2.181 nan
-0.076360956 -0.57580292 2.1670001 nan
-0.072700001 -0.57952291 2.181 nan
-0.068545721 -0.57952291 2.181 nan
-0.063978098 -0.57580292 2.1670001 nan
-0.05985048 -0.57580292 2.1670001 nan
-0.055722862 -0.57580292 2.1670001 nan
-0.051595241 -0.57580292 2.1670001 nan
-0.047467623 -0.57580292 2.1670001 nan
-0.043340001 -0.57580292 2.1670001 nan
-0.039212383 -0.57580292 2.1670001 nan
-0.035084765 -0.57580292 2.1670001 nan
-0.030957146 -0.57580292 2.1670001 nan
-0.026829526 -0.57580292 2.1670001 nan
-0.022701906 -0.57580292 2.1670001 nan
-0.018574286 -0.57580292 2.1670001 nan
-0.014446667 -0.57580292 2.1670001 nan
-0.010319049 -0.57580292 2.1670001 nan
-0.0061914288 -0.57580292 2.1670001 -3.2891886e+38
-0.0020771429 -0.57952291 2.181 -2.4766406e+38
0.0020638097 -0.57580292 2.1670001 -2.2479147e+38
0.0062314291 -0.57952291 2.181 -2.0097471e+38
0.010385715 -0.57952291 2.181 -2.2098614e+38
0.014540001 -0.57952291 2.181 -2.4095052e+38
0.018694287 -0.57952291 2.181 -2.4361938e+38
0.022984764 -0.58297718 2.194 -2.4629342e+38
0.027163811 -0.58297718 2.194 -2.463038e+38
0.03134286 -0.58297718 2.194 -2.4497445e+38
0.035521906 -0.58297718 2.194 -2.436451e+38
0.039700955 -0.58297718 2.194 -2.4097103e+38
0.044160005 -0.58669716 2.2080002 -2.3829698e+38
0.048365716 -0.58669716 2.2080002 -2.356385e+38
0.052571431 -0.58669716 2.2080002 -2.3431964e+38
0.056777146 -0.58669716 2.2080002 -2.3162485e+38
0.060982861 -0.58669716 2.2080002 -2.3426777e+38
0.065188579 -0.58669716 2.2080002 -2.3691071e+38
0.069865718 -0.59068292 2.223 -2.3822964e+38
0.074100003 -0.59068292 2.223 -2.3957964e+38
0.078334294 -0.59068292 2.223 -2.3959521e+38
0.082568578 -0.59068292 2.223 -2.3962113e+38
0.086802863 -0.59068292 2.223 -2.3964705e+38
0.091610484 -0.59440291 2.237 -2.3962639e+38
0.095871434 -0.59440291 2.237 -2.4094012e+38
0.10013239 -0.59440291 2.237 -2.4227462e+38
0.10509334 -0.59838861 2.2520001 -2.4627796e+38
0.10938287 -0.59838861 2.2520001 -2.4900404e+38
0.11367239 -0.59838861 2.2520001 -2.5567628e+38
0.11869524 -0.6021086 2.266 -2.6102968e+38
0.12301144 -0.6021086 2.266 -2.6638828e+38
0.12732762 -0.6021086 2.266 -2.7167381e+38
0.13164382 -0.6021086 2.266 -2.7164765e+38
0.13596001 -0.6021086 2.266 -2.7033959e+38
0.14120477 -0.6060943 2.2810001 -2.8770823e+38
0.14657049 -0.61034578 2.2970002 -3.0506107e+38
0.15094572 -0.61034578 2.2970002 -3.2112624e+38
0.15532096 -0.61034578 2.2970002 -3.3707726e+38
-0.25288478 -0.6935553 2.6290002 nan
-0.24599144 -0.68827909 2.6090002 nan
-0.24102192 -0.68827909 2.6090002 nan
-0.23605239 -0.68827909 2.6090002 nan
-0.23108287 -0.68827909 2.6090002 nan
-0.22611335 -0.68827909 2.6090002 nan
-0.22114383 -0.68827909 2.6090002 nan
-0.2161743 -0.68827909 2.6090002 nan
-0.20958573 -0.68300289 2.5890002 nan
-0.20465431 -0.68300289 2.5890002 -2.7560929e+38
-0.19972287 -0.68300289 2.5890002 -2.0623961e+38
-0.19336192 -0.6779905 2.5700002 -2.2220534e+38
-0.18707335 -0.67297816 2.5510001 -2.3818228e+38
-0.1822143 -0.67297816 2.5510001 -2.3553443e+38
-0.1760343 -0.66796577 2.5320001 -2.3418956e+38
-0.17121144 -0.66796577 2.5320001 -2.3286028e+38
-0.16520573 -0.66321719 2.5140002 -2.3154143e+38
-0.15926859 -0.6584686 2.4960001 -2.3285506e+38
-0.1545143 -0.6584686 2.4960001 -2.3417918e+38
-0.14976001 -0.6584686 2.4960001 -2.3551887e+38
-0.14396001 -0.65372002 2.4780002 -2.368638e+38
-0.13924001 -0.65372002 2.4780002 -2.382243e+38
-0.13354287 -0.6489715 2.46 -2.409401e+38
-0.12885715 -0.6489715 2.46 -2.4227474e+38
-0.12417144 -0.6489715 2.46 -2.4361409e+38
-0.11948572 -0.6489715 2.46 -2.1823905e+38
-0.11480001 -0.6489715 2.46 -1.9295855e+38
-0.11011429 -0.6489715 2.46 -2.53029e+38
-0.10542858 -0.6489715 2.46 -3.1306727e+38
-0.089849532 -0.57879812 2.194 nan
-0.085162863 -0.57536858 2.181 nan
-0.081008576 -0.57536858 2.181 nan
-0.076360956 -0.5716753 2.1670001 nan
-0.072700001 -0.57536858 2.181 nan
-0.068545721 -0.57536858 2.181 nan
-0.064391434 -0.57536858 2.181 nan
-0.060237147 -0.57536858 2.181 nan
-0.05608286 -0.57536858 2.181 nan
-0.051595241 -0.5716753 2.1670001 nan
-0.047467623 -0.5716753 2.1670001 nan
-0.043340001 -0.5716753 2.1670001 nan
-0.039212383 -0.5716753 2.1670001 nan
-0.035084765 -0.5716753 2.1670001 nan
-0.030957146 -0.5716753 2.1670001 nan
-0.026829526 -0.5716753 2.1670001 nan
-0.022701906 -0.5716753 2.1670001 nan
-0.018574286 -0.5716753 2.1670001 nan
-0.014446667 -0.5716753 2.1670001 nan
-0.010319049 -0.5716753 2.1670001 nan
-0.0061914288 -0.5716753 2.1670001 -3.0620747e+38
-0.0020771429 -0.57536858 2.181 -2.1432432e+38
0.0020771429 -0.57536858 2.181 -2.155806e+38
0.0062314291 -0.57536858 2.181 -2.1559634e+38
0.010385715 -0.57536858 2.181 -2.2760109e+38
0.014540001 -0.57536858 2.181 -2.3959533e+38
0.018805716 -0.57879812 2.194 -2.4095054e+38
0.022984764 -0.57879812 2.194 -2.4362981e+38
0.027163811 -0.57879812 2.194 -2.4495908e+38
0.03134286 -0.57879812 2.194 -2.4629338e+38
0.035521906 -0.57879812 2.194 -2.4494845e+38
0.039700955 -0.57879812 2.194 -2.436036e+38
0.044160005 -0.58249146 2.2080002 -2.409503e+38
0.048365716 -0.58249146 2.2080002 -2.382918e+38
0.052571431 -0.58249146 2.2080002 -2.3562811e+38
0.056777146 -0.58249146 2.2080002 -2.3427293e+38
0.060982861 -0.58249146 2.2080002 -2.3559694e+38
0.065188579 -0.58249146 2.2080002 -2.3690546e+38
0.06939429 -0.58249146 2.2080002 -2.3824511e+38
0.074100003 -0.58644861 2.223 -2.4090882e+38
0.078334294 -0.58644861 2.223 -2.4225369e+38
0.082568578 -0.58644861 2.223 -2.4360884e+38
0.086802863 -0.58644861 2.223 -2.4361399e+38
0.091610484 -0.59014195 2.237 -2.4360371e+38
0.095871434 -0.59014195 2.237 -2.4361419e+38
0.10013239 -0.59014195 2.237 -2.4494354e+38
0.10439334 -0.59014195 2.237 -2.489469e+38
0.10938287 -0.5940991 2.2520001 -2.5295031e+38
0.11367239 -0.5940991 2.2520001 -2.5700044e+38
0.11869524 -0.59779245 2.266 -2.623851e+38
0.12301144 -0.59779245 2.266 -2.6771781e+38
0.12732762 -0.59779245 2.266 -2.7438441e+38
0.13164382 -0.59779245 2.266 -2.8236465e+38
0.13686001 -0.60174954 2.2810001 -2.9162284e+38
0.14120477 -0.60174954 2.2810001 -2.996712e+38
0.14657049 -0.6059705 2.2970002 -3.0771977e+38
0.15094572 -0.6059705 2.2970002 -3.1845275e+38
-0.2669 -0.69902384 2.6690001 nan
-0.2618162 -0.69902384 2.6690001 nan
-0.25288478 -0.68854767 2.6290002 nan
-0.24787717 -0.68854767 2.6290002 nan
-0.24102192 -0.68330956 2.6090002 nan
-0.23605239 -0.68330956 2.6090002 nan
-0.23108287 -0.68330956 2.6090002 nan
-0.22611335 -0.68330956 2.6090002 nan
-0.22114383 -0.68330956 2.6090002 nan
-0.2161743 -0.68330956 2.6090002 nan
-0.20958573 -0.6780715 2.5890002 -2.6388076e+38
-0.20465431 -0.6780715 2.5890002 -2.4614769e+38
-0.19972287 -0.6780715 2.5890002 -2.2754862e+38
-0.19336192 -0.67309529 2.5700002 -2.3550816e+38
-0.18707335 -0.66811907 2.5510001 -2.4215962e+38
-0.1822143 -0.66811907 2.5510001 -2.3816167e+38
-0.1760343 -0.66314292 2.5320001 -2.3284472e+38
-0.17121144 -0.66314292 2.5320001 -2.3150509e+38
-0.16520573 -0.65842861 2.5140002 -2.3019141e+38
-0.15926859 -0.6537143 2.4960001 -2.3151026e+38
-0.1545143 -0.6537143 2.4960001 -2.3152074e+38
-0.14976001 -0.6537143 2.4960001 -2.341793e+38
-0.14396001 -0.64900005 2.4780002 -2.3553974e+38
-0.13924001 -0.64900005 2.4780002 -2.369054e+38
-0.13452001 -0.64900005 2.4780002 -2.3694187e+38
-0.12885715 -0.64428574 2.46 -2.3829199e+38
-0.12417144 -0.64428574 2.46 -2.3956913e+38
-0.11948572 -0.64428574 2.46 -2.1021172e+38
-0.11480001 -0.64428574 2.46 -1.7966051e+38
-0.11011429 -0.64428574 2.46 -2.0760573e+38
-0.10542858 -0.64428574 2.46 -2.3443468e+38
-0.10074286 -0.64428574 2.46 -3.1445351e+38
-0.085670479 -0.57461911 2.194 nan
-0.081008576 -0.57121432 2.181 nan
-0.076360956 -0.56754768 2.1670001 nan
-0.073133335 -0.57461911 2.194 nan
-0.068545721 -0.57121432 2.181 nan
-0.064391434 -0.57121432 2.181 nan
-0.060237147 -0.57121432 2.181 nan
-0.05608286 -0.57121432 2.181 nan
-0.051928576 -0.57121432 2.181 nan
-0.047774289 -0.57121432 2.181 nan
-0.043340001 -0.56754768 2.1670001 nan
-0.039212383 -0.56754768 2.1670001 nan
-0.035084765 -0.56754768 2.1670001 nan
-0.030957146 -0.56754768 2.1670001 nan
-0.026829526 -0.56754768 2.1670001 nan
-0.022701906 -0.56754768 2.1670001 nan
-0.018694287 -0.57121432 2.181 nan
-0.014446667 -0.56754768 2.1670001 nan
-0.010319049 -0.56754768 2.1670001 nan
-0.0061914288 -0.56754768 2.1670001 -2.847057e+38
-0.0020771429 -0.57121432 2.181 -1.8102592e+38
0.0020771429 -0.57121432 2.181 -2.0628647e+38
0.0062314291 -0.57121432 2.181 -2.3022829e+38
0.010385715 -0.57121432 2.181 -2.3422131e+38
0.014540001 -0.57121432 2.181 -2.3692134e+38
0.018805716 -0.57461911 2.194 -2.3828176e+38
0.022984764 -0.57461911 2.194 -2.3961618e+38
0.027163811 -0.57461911 2.194 -2.4360387e+38
0.03134286 -0.57461911 2.194 -2.4760182e+38
0.035748575 -0.57828575 2.2080002 -2.4758614e+38
0.03995429 -0.57828575 2.2080002 -2.4626206e+38
0.044160005 -0.57828575 2.2080002 -2.4360356e+38
0.048365716 -0.57828575 2.2080002 -2.3961586e+38
0.052571431 -0.57828575 2.2080002 -2.3829178e+38
0.056777146 -0.57828575 2.2080002 -2.3694696e+38
0.060982861 -0.57828575 2.2080002 -2.3693657e+38
0.065188579 -0.57828575 2.2080002 -2.3692625e+38
0.06939429 -0.57828575 2.2080002 -2.3958477e+38
0.074100003 -0.5822143 2.223 -2.4090882e+38
0.078334294 -0.5822143 2.223 -2.4490691e+38
0.082568578 -0.5822143 2.223 -2.4758616e+38
0.086802863 -0.5822143 2.223 -2.4759135e+38
0.091610484 -0.58588099 2.237 -2.475966e+38
0.095871434 -0.58588099 2.237 -2.4761743e+38
0.10013239 -0.58588099 2.237 -2.4629346e+38
0.10439334 -0.58588099 2.237 -2.5161045e+38
0.10938287 -0.58980954 2.2520001 -2.5696391e+38
0.11367239 -0.58980954 2.2520001 -2.5965372e+38
0.11869524 -0.59347624 2.266 -2.6236433e+38
0.12301144 -0.59347624 2.266 -2.7037628e+38
0.12732762 -0.59347624 2.266 -2.7708992e+38
0.13164382 -0.59347624 2.266 -2.9445298e+38
0.13686001 -0.59740478 2.2810001 -3.1167068e+38
0.14120477 -0.59740478 2.2810001 -3.1030515e+38
0.14657049 -0.60159528 2.2970002 -3.0906987e+38
0.16634287 -0.64428574 2.46 -3.2253433e+38
-0.2669 -0.69394004 2.6690001 nan
-0.2618162 -0.69394004 2.6690001 nan
-0.25480857 -0.68874007 2.6490002 nan
-0.24976288 -0.68874007 2.6490002 nan
-0.24286954 -0.68354005 2.6290002 nan
-0.23786192 -0.68354005 2.6290002 nan
-0.23108287 -0.67834002 2.6090002 nan
-0.22611335 -0.67834002 2.6090002 nan
-0.22114383 -0.67834002 2.6090002 nan
-0.2161743 -0.67834002 2.6090002 nan
-0.20958573 -0.67314005 2.5890002 -2.2512501e+38
-0.20465431 -0.67314005 2.5890002 -2.3158796e+38
-0.19972287 -0.67314005 2.5890002 -2.3824976e+38
-0.19336192 -0.66820002 2.5700002 -2.3819272e+38
-0.18707335 -0.66326004 2.5510001 -2.3949601e+38
-0.1822143 -0.66326004 2.5510001 -2.3550313e+38
-0.1760343 -0.65832007 2.5320001 -2.3150507e+38
-0.17121144 -0.65832007 2.5320001 -2.2752257e+38
-0.16520573 -0.65364003 2.5140002 -2.248745e+38
-0.15926859 -0.64896005 2.4960001 -2.2620371e+38
-0.1545143 -0.64896005 2.4960001 -2.288675e+38
-0.14976001 -0.64896005 2.4960001 -2.3285531e+38
-0.14396001 -0.64428002 2.4780002 -2.3553455e+38
-0.13924001 -0.64428002 2.4780002 -2.3691051e+38
-0.13452001 -0.64428002 2.4780002 -2.3961053e+38
-0.12885715 -0.63960004 2.46 -2.3959497e+38
-0.12417144 -0.63960004 2.46 -2.3956897e+38
-0.11948572 -0.63960004 2.46 -2.2089221e+38
-0.11480001 -0.63960004 2.46 -2.035653e+38
-0.11011429 -0.63960004 2.46 -2.0624947e+38
-0.10542858 -0.63960004 2.46 -2.0761083e+38
-0.10004667 -0.63518006 2.4430001 -2.7034511e+38
-0.095393337 -0.63518006 2.4430001 -3.3440229e+38
-0.091371432 -0.63960004 2.46 nan
-0.076854289 -0.56706005 2.181 nan
-0.073133335 -0.57044005 2.194 nan
-0.068954289 -0.57044005 2.194 nan
-0.064775243 -0.57044005 2.194 nan
-0.060237147 -0.56706005 2.181 nan
-0.05608286 -0.56706005 2.181 nan
-0.051928576 -0.56706005 2.181 nan
-0.047467623 -0.56342006 2.1670001 nan
-0.043340001 -0.56342006 2.1670001 nan
-0.039212383 -0.56342006 2.1670001 nan
-0.035084765 -0.56342006 2.1670001 nan
-0.030957146 -0.56342006 2.1670001 nan
-0.026829526 -0.56342006 2.1670001 nan
-0.022701906 -0.56342006 2.1670001 nan
-0.018694287 -0.56706005 2.181 nan
-0.014540001 -0.56706005 2.181 nan
-0.010319049 -0.56342006 2.1670001 nan
-0.0061914288 -0.56342006 2.1670001 -2.6616355e+38
-0.0020771429 -0.56706005 2.181 -1.8094785e+38
0.0020771429 -0.56706005 2.181 -2.049573e+38
0.0062314291 -0.56706005 2.181 -2.2892506e+38
0.010447619 -0.57044005 2.194 -2.3291287e+38
0.014626668 -0.57044005 2.194 -2.3559215e+38
0.018805716 -0.57044005 2.194 -2.3692662e+38
0.022984764 -0.57044005 2.194 -2.3826102e+38
0.027163811 -0.57044005 2.194 -2.4092982e+38
0.03134286 -0.57044005 2.194 -2.4493817e+38
0.035748575 -0.57408005 2.2080002 -2.4359843e+38
0.03995429 -0.57408005 2.2080002 -2.436036e+38
0.044160005 -0.57408005 2.2080002 -2.4226914e+38
0.048365716 -0.57408005 2.2080002 -2.409399e+38
0.052571431 -0.57408005 2.2080002 -2.3961584e+38
0.056777146 -0.57408005 2.2080002 -2.3962101e+38
0.060982861 -0.57408005 2.2080002 -2.3960022e+38
0.065188579 -0.57408005 2.2080002 -2.3958992e+38
0.06939429 -0.57408005 2.2080002 -2.4089846e+38
0.074100003 -0.57798004 2.223 -2.4222247e+38
0.078334294 -0.57798004 2.223 -2.4491206e+38
0.082568578 -0.57798004 2.223 -2.4626731e+38
0.086802863 -0.57798004 2.223 -2.4625699e+38
0.091610484 -0.58162004 2.237 -2.4625182e+38
0.095871434 -0.58162004 2.237 -2.4761739e+38
0.10013239 -0.58162004 2.237 -2.4897262e+38
0.10439334 -0.58162004 2.237 -2.5297073e+38
0.10938287 -0.58552003 2.2520001 -2.5698983e+38
0.11367239 -0.58552003 2.2520001 -2.6099853e+38
0.11869524 -0.58916003 2.266 -2.6501761e+38
0.12301144 -0.58916003 2.266 -2.6373014e+38
0.12732762 -0.58916003 2.266 -2.6382395e+38
0.13251525 -0.59306002 2.2810001 -2.8646788e+38
0.13686001 -0.59306002 2.2810001 -3.1041453e+38
0.14219525 -0.59722006 2.2970002 -3.1305717e+38
0.14657049 -0.59722006 2.2970002 -3.1705053e+38
0.16054001 -0.63518006 2.4430001 -3.2375946e+38
0.16634287 -0.63960004 2.46 -3.3178203e+38
-0.27198383 -0.68885624 2.6690001 nan
-0.2669 -0.68885624 2.6690001 nan
-0.2618162 -0.68885624 2.6690001 nan
-0.2567324 -0.68885624 2.6690001 nan
-0.24976288 -0.6836943 2.6490002 nan
-0.24471717 -0.6836943 2.6490002 nan
-0.23786192 -0.67853242 2.6290002 nan
-0.23285431 -0.67853242 2.6290002 nan
-0.22784668 -0.67853242 2.6290002 nan
-0.22114383 -0.67337054 2.6090002 nan
-0.2161743 -0.67337054 2.6090002 -3.3690567e+38
-0.20958573 -0.6682086 2.5890002 -1.8641102e+38
-0.20465431 -0.6682086 2.5890002 -2.168264e+38
-0.19972287 -0.6682086 2.5890002 -2.4749213e+38
-0.19336192 -0.66330481 2.5700002 -2.4216485e+38
-0.18707335 -0.65840101 2.5510001 -2.3684792e+38
-0.1822143 -0.65840101 2.5510001 -2.3284985e+38
-0.1760343 -0.65349716 2.5320001 -2.2885695e+38
-0.17121144 -0.65349716 2.5320001 -2.2353485e+38
-0.16520573 -0.64885145 2.5140002 -2.1822315e+38
-0.16041715 -0.64885145 2.5140002 -2.2221085e+38
-0.1545143 -0.64420575 2.4960001 -2.2619864e+38
-0.14976001 -0.64420575 2.4960001 -2.315001e+38
-0.14396001 -0.63956004 2.4780002 -2.3554492e+38
-0.13924001 -0.63956004 2.4780002 -2.3825014e+38
-0.13452001 -0.63956004 2.4780002 -2.4091896e+38
-0.12885715 -0.63491434 2.46 -2.3958454e+38
-0.12417144 -0.63491434 2.46 -2.3822408e+38
-0.11948572 -0.63491434 2.46 -2.3287593e+38
-0.11480001 -0.63491434 2.46 -2.2752259e+38
-0.11011429 -0.63491434 2.46 -2.0488929e+38
-0.10470001 -0.63052672 2.4430001 -1.8100515e+38
-0.10004667 -0.63052672 2.4430001 -2.2757012e+38
-0.095393337 -0.63052672 2.4430001 -2.7302383e+38
-0.090740003 -0.63052672 2.4430001 nan
-0.085487626 -0.6261391 2.4260001 nan
-0.080300003 -0.62175149 2.4090002 nan
-0.068954289 -0.56626099 2.194 nan
-0.064775243 -0.56626099 2.194 nan
-0.060596194 -0.56626099 2.194 nan
-0.056417145 -0.56626099 2.194 nan
-0.051928576 -0.56290573 2.181 nan
-0.047774289 -0.56290573 2.181 nan
-0.043340001 -0.55929244 2.1670001 nan
-0.039212383 -0.55929244 2.1670001 nan
-0.035084765 -0.55929244 2.1670001 nan
-0.030957146 -0.55929244 2.1670001 nan
-0.026829526 -0.55929244 2.1670001 nan
-0.022701906 -0.55929244 2.1670001 nan
-0.018574286 -0.55929244 2.1670001 nan
-0.014540001 -0.56290573 2.181 nan
-0.010385715 -0.56290573 2.181 -3.1550128e+38
-0.0061914288 -0.55929244 2.1670001 -2.4746091e+38
-0.0020771429 -0.56290573 2.181 -1.7968089e+38
0.0020771429 -0.56290573 2.181 -2.0366955e+38
0.0062685721 -0.56626099 2.194 -2.2759052e+38
0.010447619 -0.56626099 2.194 -2.3157829e+38
0.014626668 -0.56626099 2.194 -2.3424721e+38
0.018805716 -0.56626099 2.194 -2.3557652e+38
0.022984764 -0.56626099 2.194 -2.3691609e+38
0.027163811 -0.56626099 2.194 -2.3957972e+38
0.03154286 -0.56987435 2.2080002 -2.4092446e+38
0.035748575 -0.56987435 2.2080002 -2.4092442e+38
0.03995429 -0.56987435 2.2080002 -2.4092959e+38
0.044160005 -0.56987435 2.2080002 -2.4226399e+38
0.048365716 -0.56987435 2.2080002 -2.4226916e+38
0.052571431 -0.56987435 2.2080002 -2.4227436e+38
0.056777146 -0.56987435 2.2080002 -2.4093994e+38
0.060982861 -0.56987435 2.2080002 -2.4092953e+38
0.065188579 -0.56987435 2.2080002 -2.4090363e+38
0.06939429 -0.56987435 2.2080002 -2.4219657e+38
0.074100003 -0.57374573 2.223 -2.4355696e+38
0.078334294 -0.57374573 2.223 -2.4491214e+38
0.082568578 -0.57374573 2.223 -2.4492778e+38
0.086802863 -0.57374573 2.223 -2.4492265e+38
0.091610484 -0.57735908 2.237 -2.4494344e+38
0.095871434 -0.57735908 2.237 -2.4762788e+38
0.10013239 -0.57735908 2.237 -2.503071e+38
0.10439334 -0.57735908 2.237 -2.5298116e+38
0.10865429 -0.57735908 2.237 -2.5567095e+38
0.11367239 -0.58123052 2.2520001 -2.6099843e+38
0.11869524 -0.58484387 2.266 -2.6632071e+38
0.12301144 -0.58484387 2.266 -2.5835591e+38
0.12732762 -0.58484387 2.266 -2.4916591e+38
0.13251525 -0.58871526 2.2810001 -2.7850795e+38
0.13782001 -0.59284478 2.2970002 -3.0777171e+38
0.14912859 -0.62175149 2.4090002 -3.157886e+38
0.15371716 -0.62175149 2.4090002 -3.2374867e+38
0.16054001 -0.63052672 2.4430001 -3.3304836e+38
0.16519335 -0.63052672 2.4430001 nan
-0.2669 -0.68377244 2.6690001 nan
-0.2618162 -0.68377244 2.6690001 nan
-0.2567324 -0.68377244 2.6690001 nan
-0.24976288 -0.67864859 2.6490002 nan
-0.24471717 -0.67864859 2.6490002 nan
-0.23786192 -0.6735248 2.6290002 nan
-0.23285431 -0.6735248 2.6290002 nan
-0.22611335 -0.668401 2.6090002 nan
-0.22114383 -0.668401 2.6090002 nan
-0.2161743 -0.668401 2.6090002 -2.9823805e+38
-0.20958573 -0.66327721 2.5890002 -1.8078754e+38
-0.20465431 -0.66327721 2.5890002 -2.1153038e+38
-0.19972287 -0.66327721 2.5890002 -2.4222203e+38
-0.19336192 -0.6584096 2.5700002 -2.3819796e+38
-0.18707335 -0.65354192 2.5510001 -2.3419985e+38
-0.1822143 -0.65354192 2.5510001 -2.3020174e+38
-0.1760343 -0.64867431 2.5320001 -2.2620365e+38
-0.17121144 -0.64867431 2.5320001 -2.2353998e+38
-0.16520573 -0.64406288 2.5140002 -2.2088159e+38
-0.16041715 -0.64406288 2.5140002 -2.235401e+38
-0.1545143 -0.63945144 2.4960001 -2.2753306e+38
-0.14868002 -0.63484007 2.4780002 -2.3153121e+38
-0.14396001 -0.63484007 2.4780002 -2.3423127e+38
-0.13924001 -0.63484007 2.4780002 -2.355813e+38
-0.13452001 -0.63484007 2.4780002 -2.3824493e+38
-0.12885715 -0.63022864 2.46 -2.3690528e+38
-0.12417144 -0.63022864 2.46 -2.3555516e+38
-0.11948572 -0.63022864 2.46 -2.3155178e+38
-0.11480001 -0.63022864 2.46 -2.2888302e+38
-0.10935334 -0.62587339 2.4430001 -2.1555445e+38
-0.10470001 -0.62587339 2.4430001 -2.0224132e+38
-0.10004667 -0.62587339 2.4430001 -2.1558025e+38
-0.095393337 -0.62587339 2.4430001 -2.2892011e+38
-0.090740003 -0.62587339 2.4430001 -2.9166987e+38
-0.084888577 -0.61716288 2.4090002 nan
-0.080300003 -0.61716288 2.4090002 nan
-0.075177148 -0.61280763 2.3920002 nan
-0.065188579 -0.56566858 2.2080002 nan
-0.060596194 -0.56208193 2.194 nan
-0.056417145 -0.56208193 2.194 nan
-0.052238099 -0.56208193 2.194 nan
-0.047774289 -0.55875146 2.181 nan
-0.043620002 -0.55875146 2.181 nan
-0.039465718 -0.55875146 2.181 nan
-0.035311431 -0.55875146 2.181 nan
-0.031157145 -0.55875146 2.181 nan
-0.027002858 -0.55875146 2.181 nan
-0.022848573 -0.55875146 2.181 nan
-0.018694287 -0.55875146 2.181 nan
-0.014540001 -0.55875146 2.181 -3.2222595e+38
-0.010385715 -0.55875146 2.181 -2.5565495e+38
-0.0062314291 -0.55875146 2.181 -2.3156731e+38
-0.0020771429 -0.55875146 2.181 -2.0759985e+38
0.0020895239 -0.56208193 2.194 -2.1827021e+38
0.0062685721 -0.56208193 2.194 -2.2891445e+38
0.010447619 -0.56208193 2.194 -2.3157812e+38
0.014626668 -0.56208193 2.194 -2.3290745e+38
0.018805716 -0.56208193 2.194 -2.3424197e+38
0.022984764 -0.56208193 2.194 -2.3557637e+38
0.027163811 -0.56208193 2.194 -2.3691075e+38
0.03134286 -0.56208193 2.194 -2.3825039e+38
0.035521906 -0.56208193 2.194 -2.3825039e+38
0.039700955 -0.56208193 2.194 -2.3958481e+38
0.044160005 -0.56566858 2.2080002 -2.3959517e+38
0.048365716 -0.56566858 2.2080002 -2.3961077e+38
0.052571431 -0.56566858 2.2080002 -2.3961077e+38
0.056777146 -0.56566858 2.2080002 -2.3961077e+38
0.060982861 -0.56566858 2.2080002 -2.3959519e+38
0.065188579 -0.56566858 2.2080002 -2.3956927e+38
0.06939429 -0.56566858 2.2080002 -2.4088296e+38
0.074100003 -0.56951147 2.223 -2.4356221e+38
0.078334294 -0.56951147 2.223 -2.4491221e+38
0.082568578 -0.56951147 2.223 -2.4626228e+38
0.086802863 -0.56951147 2.223 -2.4626754e+38
0.091610484 -0.57309812 2.237 -2.4627796e+38
0.095871434 -0.57309812 2.237 -2.4763317e+38
0.10013239 -0.57309812 2.237 -2.4899353e+38
0.10439334 -0.57309812 2.237 -2.5167272e+38
0.10865429 -0.57309812 2.237 -2.5436764e+38
0.11367239 -0.57694101 2.2520001 -2.5966391e+38
0.11869524 -0.58052766 2.266 -2.6496019e+38
0.12301144 -0.58052766 2.266 -2.6235378e+38
0.12732762 -0.58052766 2.266 -2.5977359e+38
0.13251525 -0.58437049 2.2810001 -2.8242797e+38
0.14454001 -0.61716288 2.4090002 -3.0644255e+38
0.15018097 -0.62151814 2.4260001 -3.0912717e+38
0.15588668 -0.62587339 2.4430001 -3.1315128e+38
0.16054001 -0.62587339 2.4430001 nan
0.16519335 -0.62587339 2.4430001 nan
-0.2669 -0.67868865 2.6690001 nan
-0.2618162 -0.67868865 2.6690001 nan
-0.25480857 -0.67360288 2.6490002 nan
-0.24976288 -0.67360288 2.6490002 nan
-0.24471717 -0.67360288 2.6490002 nan
-0.23786192 -0.66851717 2.6290002 nan
-0.23285431 -0.66851717 2.6290002 nan
-0.22784668 -0.66851717 2.6290002 nan
-0.22114383 -0.66343147 2.6090002 nan
-0.2161743 -0.66343147 2.6090002 -2.5933665e+38
-0.21120478 -0.66343147 2.6090002 -1.7426571e+38
-0.20465431 -0.65834576 2.5890002 -2.062759e+38
-0.19972287 -0.65834576 2.5890002 -2.3687402e+38
-0.19336192 -0.65351433 2.5700002 -2.342051e+38
-0.18707335 -0.64868289 2.5510001 -2.3021216e+38
-0.1822143 -0.64868289 2.5510001 -2.2621923e+38
-0.1760343 -0.64385146 2.5320001 -2.2222112e+38
-0.17121144 -0.64385146 2.5320001 -2.2221588e+38
-0.16520573 -0.6392743 2.5140002 -2.2221071e+38
-0.16041715 -0.6392743 2.5140002 -2.2618805e+38
-0.1545143 -0.6346972 2.4960001 -2.2886219e+38
-0.14976001 -0.6346972 2.4960001 -2.315363e+38
-0.14396001 -0.63012004 2.4780002 -2.3290713e+38
-0.13924001 -0.63012004 2.4780002 -2.3425199e+38
-0.13452001 -0.63012004 2.4780002 -2.3424678e+38
-0.12885715 -0.62554288 2.46 -2.3289676e+38
-0.12417144 -0.62554288 2.46 -2.3155709e+38
-0.11948572 -0.62554288 2.46 -2.302122e+38
-0.11480001 -0.62554288 2.46 -2.2887257e+38
-0.10935334 -0.62122005 2.4430001 -2.2620373e+38
-0.10470001 -0.62122005 2.4430001 -2.2352968e+38
-0.10004667 -0.62122005 2.4430001 -2.0359643e+38
-0.095393337 -0.62122005 2.4430001 -1.8370513e+38
-0.090108581 -0.61689717 2.4260001 -2.4098693e+38
-0.084888577 -0.61257434 2.4090002 -2.9833106e+38
-0.079733342 -0.60825145 2.3920002 nan
-0.075177148 -0.60825145 2.3920002 nan
-0.070148572 -0.6041829 2.3760002 nan
-0.060596194 -0.55790287 2.194 nan
-0.056417145 -0.55790287 2.194 nan
-0.052238099 -0.55790287 2.194 nan
-0.04805905 -0.55790287 2.194 nan
-0.043620002 -0.5545972 2.181 nan
-0.039465718 -0.5545972 2.181 nan
-0.035311431 -0.5545972 2.181 nan
-0.031157145 -0.5545972 2.181 nan
-0.027002858 -0.5545972 2.181 nan
-0.022848573 -0.5545972 2.181 nan
-0.018694287 -0.5545972 2.181 nan
-0.014540001 -0.5545972 2.181 -2.8750452e+38
-0.010385715 -0.5545972 2.181 -1.9572e+38
-0.0062314291 -0.5545972 2.181 -2.155595e+38
-0.0020895239 -0.55790287 2.194 -2.3553435e+38
0.0020895239 -0.55790287 2.194 -2.3289676e+38
0.0062685721 -0.55790287 2.194 -2.3023837e+38
0.010514286 -0.56146288 2.2080002 -2.3157285e+38
0.014626668 -0.55790287 2.194 -2.3157291e+38
0.018805716 -0.55790287 2.194 -2.3289703e+38
0.022984764 -0.55790287 2.194 -2.3423664e+38
0.027163811 -0.55790287 2.194 -2.355607e+38
0.03154286 -0.56146288 2.2080002 -2.355711e+38
0.035748575 -0.56146288 2.2080002 -2.3688996e+38
0.03995429 -0.56146288 2.2080002 -2.3691071e+38
0.044160005 -0.56146288 2.2080002 -2.3691591e+38
0.048365716 -0.56146288 2.2080002 -2.3560747e+38
0.052571431 -0.56146288 2.2080002 -2.3694191e+38
0.056777146 -0.56146288 2.2080002 -2.3827112e+38
0.060982861 -0.56146288 2.2080002 -2.382659e+38
0.065188579 -0.56146288 2.2080002 -2.3690556e+38
0.06939429 -0.56146288 2.2080002 -2.4086732e+38
0.074100003 -0.56527716 2.223 -2.4355696e+38
0.078334294 -0.56527716 2.223 -2.4491219e+38
0.082568578 -0.56527716 2.223 -2.4625703e+38
0.086802863 -0.56527716 2.223 -2.4626748e+38
0.091610484 -0.56883717 2.237 -2.4627794e+38
0.095871434 -0.56883717 2.237 -2.462936e+38
0.10013239 -0.56883717 2.237 -2.4631437e+38
0.10439334 -0.56883717 2.237 -2.4900917e+38
0.10938287 -0.57265145 2.2520001 -2.5167811e+38
0.11367239 -0.57265145 2.2520001 -2.5832435e+38
0.11869524 -0.57621145 2.266 -2.636466e+38
0.12301144 -0.57621145 2.266 -2.6633116e+38
0.12817049 -0.58002573 2.2810001 -2.6902614e+38
0.13995144 -0.61257434 2.4090002 -2.8765112e+38
0.14454001 -0.61257434 2.4090002 -3.0503523e+38
0.14912859 -0.61257434 2.4090002 -3.03779e+38
0.15588668 -0.62122005 2.4430001 -3.0116766e+38
0.16054001 -0.62122005 2.4430001 nan
0.16519335 -0.62122005 2.4430001 nan
-0.2669 -0.67360479 2.6690001 nan
-0.2618162 -0.67360479 2.6690001 nan
-0.25480857 -0.66855717 2.6490002 nan
-0.24976288 -0.66855717 2.6490002 nan
-0.24286954 -0.66350955 2.6290002 nan
-0.23786192 -0.66350955 2.6290002 nan
-0.23285431 -0.66350955 2.6290002 nan
-0.22784668 -0.66350955 2.6290002 nan
-0.22114383 -0.65846193 2.6090002 -2.9192955e+38
-0.2161743 -0.65846193 2.6090002 -2.4355655e+38
-0.21120478 -0.65846193 2.6090002 -1.9687788e+38
-0.20465431 -0.65341431 2.5890002 -2.1689944e+38
-0.19972287 -0.65341431 2.5890002 -2.3687408e+38
-0.19336192 -0.64861912 2.5700002 -2.3154665e+38
-0.18846668 -0.64861912 2.5700002 -2.2754852e+38
-0.1822143 -0.64382386 2.5510001 -2.2356075e+38
-0.1760343 -0.63902861 2.5320001 -2.1823339e+38
-0.17121144 -0.63902861 2.5320001 -2.1823331e+38
-0.16520573 -0.63448578 2.5140002 -2.1823333e+38
-0.16041715 -0.63448578 2.5140002 -2.2353467e+38
-0.15562858 -0.63448578 2.5140002 -2.2752765e+38
-0.14976001 -0.62994289 2.4960001 -2.3022774e+38
-0.14500572 -0.62994289 2.4960001 -2.3293301e+38
-0.13924001 -0.62540007 2.4780002 -2.3291749e+38
-0.13452001 -0.62540007 2.4780002 -2.329123e+38
-0.12885715 -0.62085718 2.46 -2.3156228e+38
-0.12417144 -0.62085718 2.46 -2.2889342e+38
-0.11948572 -0.62085718 2.46 -2.2622456e+38
-0.11480001 -0.62085718 2.46 -2.2355043e+38
-0.10935334 -0.61656672 2.4430001 -2.2221591e+38
-0.10470001 -0.61656672 2.4430001 -2.1954191e+38
-0.10004667 -0.61656672 2.4430001 -2.0890294e+38
-0.095393337 -0.61656672 2.4430001 -1.9955672e+38
-0.090108581 -0.61227626 2.4260001 -2.2093852e+38
-0.084888577 -0.60798573 2.4090002 -2.4228002e+38
-0.079733342 -0.60369527 2.3920002 -2.9968718e+38
-0.075177148 -0.60369527 2.3920002 nan
-0.070148572 -0.59965718 2.3760002 nan
-0.065622859 -0.59965718 2.3760002 nan
-0.056777146 -0.55725718 2.2080002 nan
-0.052238099 -0.55372387 2.194 nan
-0.04805905 -0.55372387 2.194 nan
-0.043880004 -0.55372387 2.194 nan
-0.039465718 -0.55044287 2.181 nan
-0.035311431 -0.55044287 2.181 nan
-0.031157145 -0.55044287 2.181 nan
-0.027002858 -0.55044287 2.181 nan
-0.022848573 -0.55044287 2.181 nan
-0.018694287 -0.55044287 2.181 -3.3691395e+38
-0.014540001 -0.55044287 2.181 -2.6351554e+38
-0.010385715 -0.55044287 2.181 -1.9163342e+38
-0.0062314291 -0.55044287 2.181 -2.1292186e+38
-0.0020895239 -0.55372387 2.194 -2.3423104e+38
0.0020895239 -0.55372387 2.194 -2.3289141e+38
0.0062685721 -0.55372387 2.194 -2.3156228e+38
0.010514286 -0.55725718 2.2080002 -2.3156236e+38
0.014626668 -0.55372387 2.194 -2.315624e+38
0.018805716 -0.55372387 2.194 -2.3156245e+38
0.022984764 -0.55372387 2.194 -2.3157289e+38
0.027163811 -0.55372387 2.194 -2.3290216e+38
0.03134286 -0.55372387 2.194 -2.3290739e+38
0.035521906 -0.55372387 2.194 -2.3290741e+38
0.039700955 -0.55372387 2.194 -2.3425222e+38
0.044160005 -0.55725718 2.2080002 -2.3425739e+38
0.048365716 -0.55725718 2.2080002 -2.3427301e+38
0.052571431 -0.55725718 2.2080002 -2.3560225e+38
0.056777146 -0.55725718 2.2080002 -2.3692627e+38
0.060982861 -0.55725718 2.2080002 -2.3691585e+38
0.065188579 -0.55725718 2.2080002 -2.3689512e+38
0.06939429 -0.55725718 2.2080002 -2.3955361e+38
0.073600002 -0.55725718 2.2080002 -2.4222769e+38
0.078334294 -0.5610429 2.223 -2.4223811e+38
0.082568578 -0.5610429 2.223 -2.4358815e+38
0.086802863 -0.5610429 2.223 -2.4360375e+38
0.091037147 -0.5610429 2.223 -2.4361947e+38
0.095871434 -0.56457621 2.237 -2.4494364e+38
0.10013239 -0.56457621 2.237 -2.462781e+38
0.10439334 -0.56457621 2.237 -2.4897812e+38
0.10865429 -0.56457621 2.237 -2.5165742e+38
0.11367239 -0.56836194 2.2520001 -2.5697961e+38
0.11869524 -0.5718953 2.266 -2.6363108e+38
0.12301144 -0.5718953 2.266 -2.676293e+38
0.13536286 -0.60798573 2.4090002 -2.7297219e+38
0.13995144 -0.60798573 2.4090002 -2.809891e+38
0.14454001 -0.60798573 2.4090002 -2.903564e+38
0.15018097 -0.61227626 2.4260001 -2.7043914e+38
0.15588668 -0.61656672 2.4430001 -2.5052737e+38
0.16054001 -0.61656672 2.4430001 nan
0.16519335 -0.61656672 2.4430001 nan
-0.26490003 -0.66351146 2.6490002 nan
-0.25985432 -0.66351146 2.6490002 nan
-0.25480857 -0.66351146 2.6490002 nan
-0.24787717 -0.65850192 2.6290002 nan
-0.24286954 -0.65850192 2.6290002 nan
-0.23786192 -0.65850192 2.6290002 nan
-0.23108287 -0.65349245 2.6090002 nan
-0.22611335 -0.65349245 2.6090002 nan
-0.22114383 -0.65349245 2.6090002 -2.3714496e+38
-0.2161743 -0.65349245 2.6090002 -2.2740315e+38
-0.21120478 -0.65349245 2.6090002 -2.181506e+38
-0.20465431 -0.64848292 2.5890002 -2.2756955e+38
-0.19972287 -0.64848292 2.5890002 -2.3553443e+38
-0.19336192 -0.64372385 2.5700002 -2.3021744e+38
-0.18846668 -0.64372385 2.5700002 -2.2489008e+38
-0.1822143 -0.63896483 2.5510001 -2.1957313e+38
-0.1760343 -0.63420576 2.5320001 -2.1425096e+38
-0.17121144 -0.63420576 2.5320001 -2.1424571e+38
-0.16638859 -0.63420576 2.5320001 -2.142353e+38
-0.16041715 -0.6296972 2.5140002 -2.2086065e+38
-0.15562858 -0.6296972 2.5140002 -2.2621399e+38
-0.14976001 -0.62518859 2.4960001 -2.3024851e+38
-0.14396001 -0.62068003 2.4780002 -2.3290701e+38
-0.13924001 -0.62068003 2.4780002 -2.3290188e+38
-0.13452001 -0.62068003 2.4780002 -2.3156743e+38
-0.12885715 -0.61617148 2.46 -2.2889338e+38
-0.12417144 -0.61617148 2.46 -2.2622969e+38
-0.11948572 -0.61617148 2.46 -2.2223158e+38
-0.11480001 -0.61617148 2.46 -2.1823345e+38
-0.10935334 -0.61191338 2.4430001 -2.1689899e+38
-0.10470001 -0.61191338 2.4430001 -2.1556457e+38
-0.10004667 -0.61191338 2.4430001 -2.1556457e+38
-0.095393337 -0.61191338 2.4430001 -2.1421979e+38
-0.090108581 -0.60765529 2.4260001 -2.0093272e+38
-0.084888577 -0.60339719 2.4090002 -1.8638451e+38
-0.079733342 -0.59913909 2.3920002 -2.4766461e+38
-0.075177148 -0.59913909 2.3920002 -3.0767219e+38
-0.070148572 -0.59513146 2.3760002 nan
-0.065622859 -0.59513146 2.3760002 nan
-0.060660005 -0.59087336 2.3590002 nan
-0.052571431 -0.55305147 2.2080002 nan
-0.048365716 -0.55305147 2.2080002 nan
-0.043880004 -0.54954481 2.194 nan
-0.039700955 -0.54954481 2.194 nan
-0.035521906 -0.54954481 2.194 nan
-0.03134286 -0.54954481 2.194 nan
-0.027163811 -0.54954481 2.194 nan
-0.022848573 -0.54628861 2.181 -3.3811383e+38
-0.018694287 -0.54628861 2.181 -2.9415029e+38
-0.014540001 -0.54628861 2.181 -2.4066927e+38
-0.010385715 -0.54628861 2.181 -1.8628008e+38
-0.0062314291 -0.54628861 2.181 -2.089394e+38
-0.0020895239 -0.54954481 2.194 -2.3154667e+38
0.0020895239 -0.54954481 2.194 -2.328707e+38
0.0063085719 -0.55305147 2.2080002 -2.3287593e+38
0.010514286 -0.55305147 2.2080002 -2.3288117e+38
0.014626668 -0.54954481 2.194 -2.3155196e+38
0.018805716 -0.54954481 2.194 -2.3022277e+38
0.022984764 -0.54954481 2.194 -2.2889878e+38
0.027163811 -0.54954481 2.194 -2.3022805e+38
0.03134286 -0.54954481 2.194 -2.3023326e+38
0.035521906 -0.54954481 2.194 -2.3023849e+38
0.03995429 -0.55305147 2.2080002 -2.3024888e+38
0.044160005 -0.55305147 2.2080002 -2.3158332e+38
0.048365716 -0.55305147 2.2080002 -2.3292295e+38
0.052571431 -0.55305147 2.2080002 -2.3425739e+38
0.056777146 -0.55305147 2.2080002 -2.3425214e+38
0.060982861 -0.55305147 2.2080002 -2.3557613e+38
0.065188579 -0.55305147 2.2080002 -2.3689499e+38
0.06939429 -0.55305147 2.2080002 -2.3821386e+38
