# .PCD v0.7 - Point Cloud Data file format
VERSION 0.7
FIELDS x y z rgb
SIZE 4 4 4 4
TYPE F F F F
COUNT 1 1 1 1
WIDTH 1229
HEIGHT 1
VIEWPOINT 0 0 0 1 0 0 0
POINTS 1229
DATA ascii
2.596117 -0.33816242 2.1875045 nan
2.6654119 -0.21372333 2.2099247 -2.847255e+38
2.647403 -0.21735495 2.202879 -2.4995737e+38
2.647392 -0.22204065 2.202879 -2.1424583e+38
2.6473808 -0.22672635 2.202879 -2.9297772e+38
2.6303723 -0.23028705 2.1962247 nan
2.6303613 -0.23494038 2.1962247 nan
2.6303504 -0.23959368 2.1962247 nan
2.6133423 -0.24302483 2.1895702 nan
2.5963345 -0.24639124 2.1829159 nan
2.5963235 -0.25097981 2.1829159 nan
2.5793157 -0.25424904 2.1762617 nan
2.5793049 -0.25880522 2.1762617 nan
2.5792942 -0.26336139 2.1762617 nan
2.5792832 -0.26791757 2.1762617 nan
2.5792725 -0.27247375 2.1762617 nan
2.5792618 -0.27702993 2.1762617 nan
2.5792511 -0.28158611 2.1762617 nan
2.5792401 -0.28614229 2.1762617 nan
2.5632329 -0.28921297 2.1699989 nan
2.5632222 -0.29373866 2.1699989 nan
2.5632114 -0.29826435 2.1699989 nan
2.5791969 -0.30436701 2.1762617 nan
2.5791862 -0.30892318 2.1762617 nan
2.5791755 -0.31347936 2.1762617 nan
2.5791647 -0.31803554 2.1762617 nan
2.5791538 -0.32259172 2.1762617 nan
2.579143 -0.3271479 2.1762617 nan
2.596128 -0.33357388 2.1829159 nan
2.6654119 -0.21372333 2.2052045 nan
2.647403 -0.21735495 2.1981931 -2.7537882e+38
2.6303945 -0.22098041 2.1915712 -2.0624945e+38
2.6303835 -0.22563374 2.1915712 -2.8226034e+38
2.6303723 -0.23028705 2.1915712 nan
2.6303613 -0.23494038 2.1915712 nan
2.6303504 -0.23959368 2.1915712 nan
2.6133423 -0.24302483 2.1849494 nan
2.6133313 -0.24764577 2.1849494 nan
2.5963235 -0.25097981 2.1783273 nan
2.5963128 -0.25556836 2.1783273 nan
2.5963018 -0.2601569 2.1783273 nan
2.5792942 -0.26336139 2.1717055 nan
2.5792832 -0.26791757 2.1717055 nan
2.5792725 -0.27247375 2.1717055 nan
2.5792618 -0.27702993 2.1717055 nan
2.5792511 -0.28158611 2.1717055 nan
2.5792401 -0.28614229 2.1717055 nan
2.5792294 -0.29069847 2.1717055 nan
2.5792186 -0.29525465 2.1717055 nan
2.5792079 -0.29981083 2.1717055 nan
2.5791969 -0.30436701 2.1717055 nan
2.5791862 -0.30892318 2.1717055 nan
2.5791755 -0.31347936 2.1717055 nan
2.5791647 -0.31803554 2.1717055 nan
2.5791538 -0.32259172 2.1717055 nan
2.5961387 -0.3289853 2.1783273 nan
2.596128 -0.33357388 2.1783273 nan
2.6301079 -0.34196675 2.1915712 nan
2.6474142 -0.21266925 2.1935074 nan
2.647403 -0.21735495 2.1935074 -3.0059271e+38
2.6303945 -0.22098041 2.1869178 -1.9829477e+38
2.6303835 -0.22563374 2.1869178 -2.7164706e+38
2.6303723 -0.23028705 2.1869178 nan
2.6303613 -0.23494038 2.1869178 nan
2.613353 -0.23840389 2.1803284 nan
2.6133423 -0.24302483 2.1803284 nan
2.6133313 -0.24764577 2.1803284 nan
2.5963235 -0.25097981 2.173739 nan
2.5963128 -0.25556836 2.173739 nan
2.5963018 -0.2601569 2.173739 nan
2.5962908 -0.26474547 2.173739 nan
2.5962801 -0.26933402 2.173739 nan
2.5792725 -0.27247375 2.1671493 nan
2.5792618 -0.27702993 2.1671493 nan
2.5792511 -0.28158611 2.1671493 nan
2.5792401 -0.28614229 2.1671493 nan
2.5792294 -0.29069847 2.1671493 nan
2.5792186 -0.29525465 2.1671493 nan
2.5792079 -0.29981083 2.1671493 nan
2.5791969 -0.30436701 2.1671493 nan
2.5791862 -0.30892318 2.1671493 nan
2.5961714 -0.31521961 2.173739 nan
2.5961604 -0.31980819 2.173739 nan
2.5961497 -0.32439673 2.173739 nan
2.6131341 -0.33082271 2.1803284 nan
2.6131232 -0.33544365 2.1803284 nan
2.6301079 -0.34196675 2.1869178 nan
2.6654232 -0.20900333 2.1957645 nan
2.6474142 -0.21266925 2.1888218 nan
2.6304054 -0.21632707 2.1822646 -3.2872985e+38
2.6303945 -0.22098041 2.1822646 -2.287008e+38
2.6303835 -0.22563374 2.1822646 -2.8618007e+38
2.6303723 -0.23028705 2.1822646 nan
2.6303613 -0.23494038 2.1822646 nan
2.613353 -0.23840389 2.1757073 nan
2.6133423 -0.24302483 2.1757073 nan
2.6133313 -0.24764577 2.1757073 nan
2.6133204 -0.25226673 2.1757073 nan
2.5963128 -0.25556836 2.1691504 nan
2.5963018 -0.2601569 2.1691504 nan
2.5962908 -0.26474547 2.1691504 nan
2.5962801 -0.26933402 2.1691504 nan
2.5962691 -0.27392259 2.1691504 nan
2.5962584 -0.27851117 2.1691504 nan
2.5792511 -0.28158611 2.1625931 nan
2.5792401 -0.28614229 2.1625931 nan
2.5792294 -0.29069847 2.1625931 nan
2.5792186 -0.29525465 2.1625931 nan
2.5792079 -0.29981083 2.1625931 nan
2.5791969 -0.30436701 2.1625931 nan
2.5791862 -0.30892318 2.1625931 nan
2.5961714 -0.31521961 2.1691504 nan
2.5961604 -0.31980819 2.1691504 nan
2.5961497 -0.32439673 2.1691504 nan
2.6131341 -0.33082271 2.1757073 nan
2.6301188 -0.33731341 2.1822646 nan
2.6471035 -0.34386891 2.1888218 nan
2.6474364 -0.20329785 2.1841359 nan
2.6474252 -0.20798355 2.1841359 nan
2.6304164 -0.21167377 2.1776114 nan
2.6304054 -0.21632707 2.1776114 nan
2.6303945 -0.22098041 2.1776114 -2.5827136e+38
2.6133859 -0.2245411 2.1710863 -3.0087959e+38
2.6133749 -0.22916204 2.1710863 nan
2.613364 -0.23378298 2.1710863 nan
2.613353 -0.23840389 2.1710863 nan
2.6133423 -0.24302483 2.1710863 nan
2.6133313 -0.24764577 2.1710863 -3.3285971e+38
2.6133204 -0.25226673 2.1710863 -3.3685271e+38
2.6133094 -0.25688767 2.1710863 nan
2.6132984 -0.26150861 2.1710863 nan
2.5962908 -0.26474547 2.1645617 nan
2.5962801 -0.26933402 2.1645617 -3.3950066e+38
2.5962691 -0.27392259 2.1645617 -3.3556498e+38
2.5962584 -0.27851117 2.1645617 nan
2.5962474 -0.28309971 2.1645617 nan
2.5792401 -0.28614229 2.1580369 nan
2.5792294 -0.29069847 2.1580369 nan
2.5792186 -0.29525465 2.1580369 nan
2.5792079 -0.29981083 2.1580369 nan
2.5791969 -0.30436701 2.1580369 nan
2.5791862 -0.30892318 2.1580369 nan
2.5961714 -0.31521961 2.1645617 nan
2.6131561 -0.32158083 2.1710863 nan
2.6131451 -0.32620177 2.1710863 nan
2.6301301 -0.33266011 2.1776114 nan
2.6301188 -0.33731341 2.1776114 nan
2.6301079 -0.34196675 2.1776114 nan
2.6300969 -0.34662005 2.1776114 nan
2.6474364 -0.20329785 2.1794503 nan
2.6304276 -0.20702043 2.1729579 nan
2.6304164 -0.21167377 2.1729579 nan
2.6304054 -0.21632707 2.1729579 nan
2.6133969 -0.21992016 2.1664655 nan
2.6133859 -0.2245411 2.1664655 nan
2.6133749 -0.22916204 2.1664655 nan
2.613364 -0.23378298 2.1664655 nan
2.613353 -0.23840389 2.1664655 nan
2.6133423 -0.24302483 2.1664655 nan
2.6133313 -0.24764577 2.1664655 nan
2.6133204 -0.25226673 2.1664655 nan
2.6133094 -0.25688767 2.1664655 nan
2.6132984 -0.26150861 2.1664655 -3.3946878e+38
2.6132874 -0.26612955 2.1664655 -3.3682091e+38
2.6132765 -0.27075049 2.1664655 -3.3148341e+38
2.5962691 -0.27392259 2.1599731 -3.2748542e+38
2.5962584 -0.27851117 2.1599731 -3.2088608e+38
2.5962474 -0.28309971 2.1599731 -3.1565772e+38
2.5792401 -0.28614229 2.1534808 -3.1693531e+38
2.5792294 -0.29069847 2.1534808 -3.1831124e+38
2.5792186 -0.29525465 2.1534808 -3.1697159e+38
2.5792079 -0.29981083 2.1534808 -3.1699755e+38
2.5791969 -0.30436701 2.1534808 -3.2762618e+38
2.5961823 -0.31063107 2.1599731 -3.3830686e+38
2.630163 -0.31870013 2.1729579 -3.3694139e+38
2.6131561 -0.32158083 2.1664655 -3.3697236e+38
2.630141 -0.32800677 2.1729579 nan
2.6301301 -0.33266011 2.1729579 nan
2.6301188 -0.33731341 2.1729579 nan
2.6301079 -0.34196675 2.1729579 nan
2.6300969 -0.34662005 2.1729579 nan
2.6130905 -0.34930646 2.1664655 nan
2.6304386 -0.20236713 2.1683044 nan
2.6304276 -0.20702043 2.1683044 nan
2.6304164 -0.21167377 2.1683044 nan
2.6134079 -0.21529922 2.1618445 nan
2.6133969 -0.21992016 2.1618445 nan
2.6133859 -0.2245411 2.1618445 nan
2.6133749 -0.22916204 2.1618445 nan
2.5963669 -0.23262554 2.1553845 nan
2.613353 -0.23840389 2.1618445 nan
2.6133423 -0.24302483 2.1618445 nan
2.6133313 -0.24764577 2.1618445 nan
2.6133204 -0.25226673 2.1618445 nan
2.6133094 -0.25688767 2.1618445 nan
2.6132984 -0.26150861 2.1618445 -3.3545497e+38
2.6132874 -0.26612955 2.1618445 -3.3012792e+38
2.5962801 -0.26933402 2.1553845 -3.2478529e+38
2.5962691 -0.27392259 2.1553845 -3.18134e+38
2.5962584 -0.27851117 2.1553845 -2.9948331e+38
2.5962474 -0.28309971 2.1553845 -2.8092608e+38
2.5962365 -0.28768826 2.1553845 -2.7687615e+38
2.5792294 -0.29069847 2.1489246 -2.7164231e+38
2.5792186 -0.29525465 2.1489246 -2.7828847e+38
2.5792079 -0.29981083 2.1489246 -2.8364694e+38
2.5961931 -0.30604249 2.1553845 -2.956204e+38
2.5961823 -0.31063107 2.1553845 -3.0624907e+38
2.630163 -0.31870013 2.1683044 -2.9955624e+38
2.630152 -0.32335344 2.1683044 -2.9163276e+38
2.630141 -0.32800677 2.1683044 -3.0356461e+38
2.6301301 -0.33266011 2.1683044 -3.1561093e+38
2.6301188 -0.33731341 2.1683044 -3.2892935e+38
2.6301079 -0.34196675 2.1683044 nan
2.6300969 -0.34662005 2.1683044 nan
2.5960953 -0.34733954 2.1553845 nan
2.6304495 -0.19771382 2.1636512 nan
2.6304386 -0.20236713 2.1636512 nan
2.6134298 -0.20605731 2.1572237 nan
2.6134188 -0.21067825 2.1572237 nan
2.6134079 -0.21529922 2.1572237 nan
2.5963995 -0.21885988 2.1507959 nan
2.5963888 -0.22344846 2.1507959 nan
2.5963778 -0.228037 2.1507959 nan
2.5963669 -0.23262554 2.1507959 nan
2.5963562 -0.23721412 2.1507959 nan
2.5963452 -0.24180269 2.1507959 nan
2.5963345 -0.24639124 2.1507959 nan
2.5963235 -0.25097981 2.1507959 nan
2.5963128 -0.25556836 2.1507959 nan
2.5963018 -0.2601569 2.1507959 -3.3544962e+38
2.6132874 -0.26612955 2.1572237 -3.181284e+38
2.5962801 -0.26933402 2.1507959 -3.1680465e+38
2.6132655 -0.27537143 2.1572237 -3.1413063e+38
2.5962584 -0.27851117 2.1507959 -3.0214681e+38
2.5962474 -0.28309971 2.1507959 -2.9017839e+38
2.5962365 -0.28768826 2.1507959 -2.8751975e+38
2.5962257 -0.29227683 2.1507959 -2.8487174e+38
2.5962148 -0.29686537 2.1507959 -2.8887506e+38
2.596204 -0.30145395 2.1507959 -2.9286798e+38
2.5961931 -0.30604249 2.1507959 -2.9552647e+38
2.5961823 -0.31063107 2.1507959 -2.9948296e+38
2.613167 -0.31695986 2.1572237 -2.955212e+38
2.630152 -0.32335344 2.1636512 -2.915596e+38
2.630141 -0.32800677 2.1636512 -3.008591e+38
2.6301301 -0.33266011 2.1636512 -3.1021586e+38
2.6301188 -0.33731341 2.1636512 nan
2.6131124 -0.34006459 2.1572237 nan
2.6131015 -0.34468552 2.1572237 nan
2.5960953 -0.34733954 2.1507959 -3.2352881e+38
2.5960844 -0.35192811 2.1507959 -3.0884473e+38
2.6474476 -0.19861215 2.1653931 nan
2.6304386 -0.20236713 2.158998 nan
2.6134298 -0.20605731 2.1526027 nan
2.6134188 -0.21067825 2.1526027 nan
2.6134079 -0.21529922 2.1526027 nan
2.5963995 -0.21885988 2.1462073 nan
2.5963888 -0.22344846 2.1462073 nan
2.5963778 -0.228037 2.1462073 nan
2.5963669 -0.23262554 2.1462073 nan
2.5963562 -0.23721412 2.1462073 nan
2.5963452 -0.24180269 2.1462073 nan
2.5963345 -0.24639124 2.1462073 nan
2.5963235 -0.25097981 2.1462073 nan
2.6133094 -0.25688767 2.1526027 nan
2.6132984 -0.26150861 2.1526027 -3.3548097e+38
2.6132874 -0.26612955 2.1526027 -3.062069e+38
2.6132765 -0.27075049 2.1526027 -3.088395e+38
2.5962691 -0.27392259 2.1462073 -3.1013755e+38
2.5962584 -0.27851117 2.1462073 -3.0479466e+38
2.5962474 -0.28309971 2.1462073 -2.9948284e+38
2.5962365 -0.28768826 2.1462073 -2.9814834e+38
2.5962257 -0.29227683 2.1462073 -2.9682438e+38
2.5962148 -0.29686537 2.1462073 -2.9947775e+38
2.596204 -0.30145395 2.1462073 -3.0081213e+38
2.5961931 -0.30604249 2.1462073 -2.9679327e+38
2.613178 -0.31233895 2.1526027 -2.914867e+38
2.613167 -0.31695986 2.1526027 -2.9147628e+38
2.630152 -0.32335344 2.158998 -2.9015758e+38
2.630141 -0.32800677 2.158998 -2.9808638e+38
2.6301301 -0.33266011 2.158998 -3.0488344e+38
2.6301188 -0.33731341 2.158998 nan
2.6131124 -0.34006459 2.1526027 nan
2.6131015 -0.34468552 2.1526027 nan
2.5960953 -0.34733954 2.1462073 -2.9960263e+38
2.5960844 -0.35192811 2.1462073 -2.754736e+38
2.6474476 -0.19861215 2.1607075 nan
2.6304386 -0.20236713 2.1543446 nan
2.6304276 -0.20702043 2.1543446 nan
2.6304164 -0.21167377 2.1543446 nan
2.6134079 -0.21529922 2.1479816 nan
2.5963995 -0.21885988 2.1416187 -2.8757784e+38
2.5963888 -0.22344846 2.1416187 -3.3419387e+38
2.5963778 -0.228037 2.1416187 nan
2.5963669 -0.23262554 2.1416187 nan
2.5963562 -0.23721412 2.1416187 nan
2.5963452 -0.24180269 2.1416187 nan
2.5963345 -0.24639124 2.1416187 nan
2.5963235 -0.25097981 2.1416187 nan
2.6133094 -0.25688767 2.1479816 nan
2.5963018 -0.2601569 2.1416187 nan
2.6132874 -0.26612955 2.1479816 -3.3415185e+38
2.5962801 -0.26933402 2.1416187 -3.3146735e+38
2.5962691 -0.27392259 2.1416187 -3.3006539e+38
2.5962584 -0.27851117 2.1416187 -3.2744841e+38
2.5962474 -0.28309971 2.1416187 -3.2474841e+38
2.5962365 -0.28768826 2.1416187 -3.2210034e+38
2.5962257 -0.29227683 2.1416187 -3.1808682e+38
2.5962148 -0.29686537 2.1416187 -3.194629e+38
2.6131999 -0.30309707 2.1479816 -3.2075049e+38
2.613189 -0.30771801 2.1479816 -3.1279579e+38
2.613178 -0.31233895 2.1479816 -3.0477886e+38
2.630163 -0.31870013 2.1543446 -3.1145092e+38
2.630152 -0.32335344 2.1543446 -3.1673167e+38
2.630141 -0.32800677 2.1543446 -3.2612472e+38
2.6301301 -0.33266011 2.1543446 -3.3545572e+38
2.6301188 -0.33731341 2.1543446 nan
2.6131124 -0.34006459 2.1479816 nan
2.6131015 -0.34468552 2.1479816 nan
2.6130905 -0.34930646 2.1479816 -3.1694482e+38
2.5960844 -0.35192811 2.1416187 -2.9288832e+38
2.6654453 -0.19956335 2.1627245 nan
2.6474364 -0.20329785 2.1560216 nan
2.6304276 -0.20702043 2.1496911 nan
2.6304164 -0.21167377 2.1496911 nan
2.6134079 -0.21529922 2.1433606 -3.3277686e+38
2.6133969 -0.21992016 2.1433606 -2.2642797e+38
2.5963888 -0.22344846 2.1370301 -2.9694429e+38
2.5963778 -0.228037 2.1370301 nan
2.5963669 -0.23262554 2.1370301 nan
2.5963562 -0.23721412 2.1370301 nan
2.5963452 -0.24180269 2.1370301 nan
2.5963345 -0.24639124 2.1370301 nan
2.5963235 -0.25097981 2.1370301 nan
2.5963128 -0.25556836 2.1370301 nan
2.5963018 -0.2601569 2.1370301 nan
2.5962908 -0.26474547 2.1370301 nan
2.5962801 -0.26933402 2.1370301 nan
2.5962691 -0.27392259 2.1370301 nan
2.5962584 -0.27851117 2.1370301 nan
2.5962474 -0.28309971 2.1370301 nan
2.5962365 -0.28768826 2.1370301 nan
2.6132219 -0.29385519 2.1433606 -3.3948444e+38
2.5962148 -0.29686537 2.1370301 nan
2.6131999 -0.30309707 2.1433606 nan
2.613189 -0.30771801 2.1433606 -3.3019552e+38
2.613178 -0.31233895 2.1433606 -3.1820636e+38
2.613167 -0.31695986 2.1433606 -3.3148812e+38
2.630152 -0.32335344 2.1496911 nan
2.630141 -0.32800677 2.1496911 nan
2.6131341 -0.33082271 2.1433606 nan
2.6131232 -0.33544365 2.1433606 nan
2.6131124 -0.34006459 2.1433606 nan
2.6131015 -0.34468552 2.1433606 nan
2.6130905 -0.34930646 2.1433606 -3.341572e+38
2.6130795 -0.3539274 2.1433606 -3.1013715e+38
2.5960736 -0.35651663 2.1370301 -2.8622672e+38
2.6130576 -0.36316928 2.1433606 -2.8626838e+38
2.6834657 -0.191006 2.1646731 nan
2.6834545 -0.19576028 2.1646731 nan
2.6834431 -0.20051455 2.1646731 nan
2.6474364 -0.20329785 2.151336 nan
2.6474252 -0.20798355 2.151336 nan
2.6304164 -0.21167377 2.1450379 nan
2.6304054 -0.21632707 2.1450379 -3.3553367e+38
2.6133969 -0.21992016 2.1387398 -2.489468e+38
2.6133859 -0.2245411 2.1387398 -3.0226636e+38
2.5963778 -0.228037 2.1324418 nan
2.5963669 -0.23262554 2.1324418 nan
2.5963562 -0.23721412 2.1324418 nan
2.5963452 -0.24180269 2.1324418 nan
2.5963345 -0.24639124 2.1324418 nan
2.5963235 -0.25097981 2.1324418 nan
2.5963128 -0.25556836 2.1324418 nan
2.5963018 -0.2601569 2.1324418 nan
2.5962908 -0.26474547 2.1324418 nan
2.5962801 -0.26933402 2.1324418 nan
2.5962691 -0.27392259 2.1324418 nan
2.5962584 -0.27851117 2.1324418 nan
2.5962474 -0.28309971 2.1324418 nan
2.5962365 -0.28768826 2.1324418 nan
2.6132219 -0.29385519 2.1387398 nan
2.6132109 -0.29847613 2.1387398 nan
2.6131999 -0.30309707 2.1387398 nan
2.613189 -0.30771801 2.1387398 nan
2.613178 -0.31233895 2.1387398 nan
2.613167 -0.31695986 2.1387398 nan
2.6131561 -0.32158083 2.1387398 nan
2.6131451 -0.32620177 2.1387398 nan
2.6131341 -0.33082271 2.1387398 nan
2.6131232 -0.33544365 2.1387398 nan
2.6131124 -0.34006459 2.1387398 nan
2.6131015 -0.34468552 2.1387398 nan
2.6130905 -0.34930646 2.1387398 -2.7949781e+38
2.6130795 -0.3539274 2.1387398 -2.8350069e+38
2.6300638 -0.36058003 2.1450379 -2.8881249e+38
2.6300528 -0.36523336 2.1450379 -2.9153331e+38
2.7014976 -0.17752296 2.166553 nan
2.6834881 -0.18149747 2.1599188 nan
2.7014749 -0.18710008 2.166553 nan
2.7014637 -0.19188865 2.166553 nan
2.6834545 -0.19576028 2.1599188 nan
2.6834431 -0.20051455 2.1599188 nan
2.6474364 -0.20329785 2.1466503 nan
2.6474252 -0.20798355 2.1466503 nan
2.6304164 -0.21167377 2.1403847 nan
2.6304054 -0.21632707 2.1403847 -3.3808813e+38
2.6133969 -0.21992016 2.1341188 -2.7161116e+38
2.6133859 -0.2245411 2.1341188 -3.0757818e+38
2.6133749 -0.22916204 2.1341188 nan
2.613364 -0.23378298 2.1341188 nan
2.613353 -0.23840389 2.1341188 nan
2.6133423 -0.24302483 2.1341188 nan
2.6133313 -0.24764577 2.1341188 nan
2.6133204 -0.25226673 2.1341188 nan
2.5963128 -0.25556836 2.1278532 nan
2.5963018 -0.2601569 2.1278532 nan
2.5962908 -0.26474547 2.1278532 nan
2.5962801 -0.26933402 2.1278532 nan
2.5962691 -0.27392259 2.1278532 nan
2.5962584 -0.27851117 2.1278532 nan
2.5962474 -0.28309971 2.1278532 nan
2.5962365 -0.28768826 2.1278532 nan
2.6132219 -0.29385519 2.1341188 nan
2.6132109 -0.29847613 2.1341188 nan
2.6131999 -0.30309707 2.1341188 nan
2.613189 -0.30771801 2.1341188 nan
2.613178 -0.31233895 2.1341188 nan
2.613167 -0.31695986 2.1341188 nan
2.6131561 -0.32158083 2.1341188 nan
2.6131451 -0.32620177 2.1341188 nan
2.6131341 -0.33082271 2.1341188 nan
2.6131232 -0.33544365 2.1341188 nan
2.596117 -0.33816242 2.1278532 nan
2.6131015 -0.34468552 2.1341188 -3.3018021e+38
2.6130905 -0.34930646 2.1341188 -2.2368064e+38
2.6130795 -0.3539274 2.1341188 -2.5820907e+38
2.6300638 -0.36058003 2.1403847 -2.9149703e+38
2.647048 -0.36729741 2.1466503 -2.9685564e+38
2.683522 -0.16723466 2.1551645 nan
2.6835108 -0.17198892 2.1551645 nan
2.7014976 -0.17752296 2.1617646 nan
2.6834881 -0.18149747 2.1551645 nan
2.7014749 -0.18710008 2.1617646 nan
2.7014637 -0.19188865 2.1617646 nan
2.6834545 -0.19576028 2.1551645 nan
2.6654453 -0.19956335 2.1485646 nan
2.6474364 -0.20329785 2.1419644 nan
2.6474252 -0.20798355 2.1419644 nan
2.6474142 -0.21266925 2.1419644 nan
2.6304054 -0.21632707 2.1357312 nan
2.6303945 -0.22098041 2.1357312 -2.8221381e+38
2.6303835 -0.22563374 2.1357312 -3.0622309e+38
2.6133749 -0.22916204 2.129498 -3.3021177e+38
2.613364 -0.23378298 2.129498 nan
2.613353 -0.23840389 2.129498 nan
2.6133423 -0.24302483 2.129498 nan
2.6133313 -0.24764577 2.129498 nan
2.6133204 -0.25226673 2.129498 nan
2.6133094 -0.25688767 2.129498 nan
2.6132984 -0.26150861 2.129498 nan
2.6132874 -0.26612955 2.129498 nan
2.6132765 -0.27075049 2.129498 nan
2.6132655 -0.27537143 2.129498 nan
2.5962584 -0.27851117 2.1232646 nan
2.5962474 -0.28309971 2.1232646 nan
2.6132326 -0.28923425 2.129498 nan
2.6132219 -0.29385519 2.129498 nan
2.6132109 -0.29847613 2.129498 nan
2.6131999 -0.30309707 2.129498 nan
2.6301851 -0.3093935 2.1357312 nan
2.6301739 -0.31404683 2.1357312 nan
2.630163 -0.31870013 2.1357312 nan
2.630152 -0.32335344 2.1357312 nan
2.630141 -0.32800677 2.1357312 nan
2.6301301 -0.33266011 2.1357312 nan
2.6301188 -0.33731341 2.1357312 nan
2.6131124 -0.34006459 2.129498 nan
2.6300969 -0.34662005 2.1357312 -3.0089046e+38
2.6300859 -0.35127339 2.1357312 -2.0362803e+38
2.6300747 -0.35592672 2.1357312 -2.3827588e+38
2.647059 -0.36261171 2.1419644 -2.7425874e+38
2.6650431 -0.36948287 2.1485646 -2.95537e+38
2.6650319 -0.37420288 2.1485646 -3.1682527e+38
2.70101 -0.38343096 2.1617646 -3.1413033e+38
2.6830041 -0.38593122 2.1551645 -3.1148763e+38
2.6655908 -0.13820353 2.1438446 nan
2.6475806 -0.14238375 2.1372788 nan
2.6655684 -0.14764351 2.1438446 nan
2.6475585 -0.15175515 2.1372788 nan
2.6475472 -0.15644085 2.1372788 nan
2.665535 -0.16180345 2.1438446 nan
2.6655238 -0.16652344 2.1438446 nan
2.6835108 -0.17198892 2.1504102 nan
2.6834996 -0.17674321 2.1504102 nan
2.6834881 -0.18149747 2.1504102 nan
2.6834769 -0.18625174 2.1504102 nan
2.6834657 -0.191006 2.1504102 nan
2.6834545 -0.19576028 2.1504102 nan
2.6654453 -0.19956335 2.1438446 nan
2.6474364 -0.20329785 2.1372788 nan
2.6474252 -0.20798355 2.1372788 nan
2.6474142 -0.21266925 2.1372788 nan
2.647403 -0.21735495 2.1372788 nan
2.6303945 -0.22098041 2.1310778 -2.915859e+38
2.6303835 -0.22563374 2.1310778 -3.0487812e+38
2.6303723 -0.23028705 2.1310778 -3.1693504e+38
2.6303613 -0.23494038 2.1310778 nan
2.6303504 -0.23959368 2.1310778 nan
2.6133423 -0.24302483 2.124877 nan
2.6303284 -0.24890032 2.1310778 nan
2.6133204 -0.25226673 2.124877 nan
2.6133094 -0.25688767 2.124877 nan
2.6132984 -0.26150861 2.124877 nan
2.6132874 -0.26612955 2.124877 nan
2.6132765 -0.27075049 2.124877 nan
2.6132655 -0.27537143 2.124877 nan
2.5962584 -0.27851117 2.1186759 nan
2.5962474 -0.28309971 2.1186759 nan
2.6132326 -0.28923425 2.124877 nan
2.6132219 -0.29385519 2.124877 nan
2.6132109 -0.29847613 2.124877 nan
2.6301961 -0.30474019 2.1310778 nan
2.6301851 -0.3093935 2.1310778 nan
2.6301739 -0.31404683 2.1310778 nan
2.630163 -0.31870013 2.1310778 nan
2.630152 -0.32335344 2.1310778 nan
2.630141 -0.32800677 2.1310778 nan
2.6301301 -0.33266011 2.1310778 nan
2.6301188 -0.33731341 2.1310778 nan
2.6131124 -0.34006459 2.124877 nan
2.6300969 -0.34662005 2.1310778 -2.7278429e+38
2.6300859 -0.35127339 2.1310778 -1.8239147e+38
2.6470702 -0.35792601 2.1372788 -2.1965647e+38
2.6650541 -0.3647629 2.1438446 -2.5560286e+38
2.6830378 -0.37166837 2.1504102 -2.9421292e+38
2.6650319 -0.37420288 2.1438446 -3.3145717e+38
2.6830153 -0.38117692 2.1504102 -3.2068824e+38
2.6830041 -0.38593122 2.1504102 -3.1020516e+38
2.6829927 -0.39068547 2.1504102 -3.3553334e+38
2.7009759 -0.39779666 2.156976 nan
2.6829703 -0.40019402 2.1504102 nan
2.7009532 -0.40737376 2.156976 nan
2.7189248 -0.41944492 2.1635418 nan
2.7379072 -0.42693657 2.1704721 nan
2.701611 -0.12963739 2.1521873 nan
2.6476028 -0.13301234 2.1325932 nan
2.6475918 -0.13769805 2.1325932 nan
2.6475806 -0.14238375 2.1325932 nan
2.6475697 -0.14706945 2.1325932 nan
2.6475585 -0.15175515 2.1325932 nan
2.6475472 -0.15644085 2.1325932 nan
2.6475363 -0.16112655 2.1325932 nan
2.6655238 -0.16652344 2.1391246 nan
2.6655126 -0.17124343 2.1391246 nan
2.6655014 -0.17596343 2.1391246 nan
2.6654902 -0.1806834 2.1391246 nan
2.6654789 -0.18540339 2.1391246 nan
2.6654677 -0.19012338 2.1391246 nan
2.6654565 -0.19484338 2.1391246 nan
2.6474476 -0.19861215 2.1325932 nan
2.6474364 -0.20329785 2.1325932 nan
2.6474252 -0.20798355 2.1325932 nan
2.6474142 -0.21266925 2.1325932 nan
2.647403 -0.21735495 2.1325932 -3.3022201e+38
2.6303945 -0.22098041 2.1264246 -2.7966958e+38
2.6303835 -0.22563374 2.1264246 -2.8491875e+38
2.6303723 -0.23028705 2.1264246 -2.9028294e+38
2.6303613 -0.23494038 2.1264246 -3.2900245e+38
2.6303504 -0.23959368 2.1264246 nan
2.6303394 -0.24424702 2.1264246 nan
2.6303284 -0.24890032 2.1264246 nan
2.6303172 -0.25355363 2.1264246 nan
2.6303062 -0.25820696 2.1264246 nan
2.6302953 -0.2628603 2.1264246 nan
2.6302843 -0.2675136 2.1264246 nan
2.6302731 -0.27216694 2.1264246 nan
2.6132655 -0.27537143 2.1202559 nan
2.6132545 -0.27999234 2.1202559 nan
2.5962474 -0.28309971 2.1140873 nan
2.6132326 -0.28923425 2.1202559 nan
2.6132219 -0.29385519 2.1202559 nan
2.6132109 -0.29847613 2.1202559 nan
2.6131999 -0.30309707 2.1202559 nan
2.6301851 -0.3093935 2.1264246 nan
2.6301739 -0.31404683 2.1264246 nan
2.630163 -0.31870013 2.1264246 nan
2.630152 -0.32335344 2.1264246 nan
2.630141 -0.32800677 2.1264246 nan
2.6301301 -0.33266011 2.1264246 nan
2.6301188 -0.33731341 2.1264246 nan
2.6301079 -0.34196675 2.1264246 nan
2.6300969 -0.34662005 2.1264246 -2.6757613e+38
2.6470811 -0.35324031 2.1325932 -1.890064e+38
2.6470702 -0.35792601 2.1325932 -2.222891e+38
2.647059 -0.36261171 2.1325932 -2.5554061e+38
2.6650431 -0.36948287 2.1391246 -3.1822725e+38
2.6650319 -0.37420288 2.1391246 nan
2.6650207 -0.37892285 2.1391246 nan
2.6650095 -0.38364285 2.1391246 nan
2.6829927 -0.39068547 2.1456561 nan
2.7009759 -0.39779666 2.1521873 nan
2.6829703 -0.40019402 2.1456561 nan
2.6829591 -0.40494829 2.1456561 nan
2.718936 -0.41462207 2.1587188 nan
2.7189248 -0.41944492 2.1587188 nan
2.7189133 -0.42426777 2.1587188 nan
2.7189019 -0.42909062 2.1587188 nan
2.647625 -0.12364094 2.1279073 nan
2.647614 -0.12832664 2.1279073 nan
2.6476028 -0.13301234 2.1279073 nan
2.6475918 -0.13769805 2.1279073 nan
2.6475806 -0.14238375 2.1279073 nan
2.6475697 -0.14706945 2.1279073 nan
2.6475585 -0.15175515 2.1279073 nan
2.6475472 -0.15644085 2.1279073 nan
2.6475363 -0.16112655 2.1279073 nan
2.6655238 -0.16652344 2.1344047 nan
2.6655126 -0.17124343 2.1344047 nan
2.6655014 -0.17596343 2.1344047 nan
2.6654902 -0.1806834 2.1344047 nan
2.6654789 -0.18540339 2.1344047 nan
2.6654677 -0.19012338 2.1344047 nan
2.6474586 -0.19392645 2.1279073 nan
2.6474476 -0.19861215 2.1279073 nan
2.6304386 -0.20236713 2.1217713 nan
2.6474252 -0.20798355 2.1279073 nan
2.6304164 -0.21167377 2.1217713 nan
2.6304054 -0.21632707 2.1217713 -3.1012236e+38
2.6303945 -0.22098041 2.1217713 -2.6756614e+38
2.6303835 -0.22563374 2.1217713 -2.6616407e+38
2.6303723 -0.23028705 2.1217713 -2.6366195e+38
2.6303613 -0.23494038 2.1217713 -2.9573534e+38
2.6303504 -0.23959368 2.1217713 -3.2773575e+38
2.6303394 -0.24424702 2.1217713 nan
2.6303284 -0.24890032 2.1217713 nan
2.6303172 -0.25355363 2.1217713 nan
2.6303062 -0.25820696 2.1217713 nan
2.6302953 -0.2628603 2.1217713 nan
2.6302843 -0.2675136 2.1217713 nan
2.6302731 -0.27216694 2.1217713 nan
2.6132655 -0.27537143 2.1156349 nan
2.6132545 -0.27999234 2.1156349 nan
2.6132436 -0.28461328 2.1156349 nan
2.6132326 -0.28923425 2.1156349 nan
2.6132219 -0.29385519 2.1156349 nan
2.6132109 -0.29847613 2.1156349 nan
2.6301961 -0.30474019 2.1217713 nan
2.6301851 -0.3093935 2.1217713 nan
2.6301739 -0.31404683 2.1217713 nan
2.630163 -0.31870013 2.1217713 nan
2.630152 -0.32335344 2.1217713 nan
2.630141 -0.32800677 2.1217713 nan
2.6301301 -0.33266011 2.1217713 nan
2.6301188 -0.33731341 2.1217713 nan
2.6301079 -0.34196675 2.1217713 -3.3157714e+38
2.6470923 -0.34855461 2.1279073 -2.635157e+38
2.6470811 -0.35324031 2.1279073 -1.9436471e+38
2.6470702 -0.35792601 2.1279073 -2.2494736e+38
2.647059 -0.36261171 2.1279073 -2.5562894e+38
2.647048 -0.36729741 2.1279073 nan
2.6650319 -0.37420288 2.1344047 nan
2.6650207 -0.37892285 2.1344047 nan
2.6650095 -0.38364285 2.1344047 nan
2.6829927 -0.39068547 2.1409016 nan
2.6829815 -0.39543974 2.1409016 nan
2.6829703 -0.40019402 2.1409016 nan
2.6829591 -0.40494829 2.1409016 nan
2.7009418 -0.4121623 2.1473989 nan
2.7189248 -0.41944492 2.1538959 nan
2.7379072 -0.42693657 2.1607542 nan
2.7189019 -0.42909062 2.1538959 nan
2.6476693 -0.10489813 2.1232216 nan
2.6476583 -0.10958384 2.1232216 nan
2.6476471 -0.11426953 2.1232216 nan
2.6476362 -0.11895524 2.1232216 nan
2.647625 -0.12364094 2.1232216 nan
2.647614 -0.12832664 2.1232216 nan
2.6476028 -0.13301234 2.1232216 nan
2.6475918 -0.13769805 2.1232216 nan
2.6475806 -0.14238375 2.1232216 nan
2.6475697 -0.14706945 2.1232216 nan
2.6475585 -0.15175515 2.1232216 nan
2.6475472 -0.15644085 2.1232216 nan
2.6475363 -0.16112655 2.1232216 nan
2.6475251 -0.16581225 2.1232216 nan
2.6475141 -0.17049795 2.1232216 nan
2.6475029 -0.17518365 2.1232216 nan
2.6474919 -0.17986935 2.1232216 nan
2.6474807 -0.18455505 2.1232216 nan
2.6474698 -0.18924075 2.1232216 nan
2.6474586 -0.19392645 2.1232216 nan
2.6474476 -0.19861215 2.1232216 nan
2.6304386 -0.20236713 2.1171179 nan
2.6304276 -0.20702043 2.1171179 nan
2.6304164 -0.21167377 2.1171179 -3.1169595e+38
2.6304054 -0.21632707 2.1171179 -2.9019404e+38
2.6303945 -0.22098041 2.1171179 -2.6880691e+38
2.6303835 -0.22563374 2.1171179 -2.6353148e+38
2.6303723 -0.23028705 2.1171179 -2.5828785e+38
2.6303613 -0.23494038 2.1171179 -2.5972668e+38
2.6303504 -0.23959368 2.1171179 -2.6119125e+38
2.6303394 -0.24424702 2.1171179 -3.2242435e+38
2.6303284 -0.24890032 2.1171179 nan
2.6303172 -0.25355363 2.1171179 nan
2.6303062 -0.25820696 2.1171179 nan
2.6302953 -0.2628603 2.1171179 nan
2.6302843 -0.2675136 2.1171179 nan
2.6302731 -0.27216694 2.1171179 nan
2.6132655 -0.27537143 2.1110141 nan
2.6132545 -0.27999234 2.1110141 nan
2.6132436 -0.28461328 2.1110141 nan
2.6132326 -0.28923425 2.1110141 nan
2.6132219 -0.29385519 2.1110141 nan
2.6302071 -0.30008686 2.1171179 nan
2.6301961 -0.30474019 2.1171179 nan
2.6301851 -0.3093935 2.1171179 nan
2.6301739 -0.31404683 2.1171179 nan
2.630163 -0.31870013 2.1171179 nan
2.630152 -0.32335344 2.1171179 nan
2.630141 -0.32800677 2.1171179 nan
2.6301301 -0.33266011 2.1171179 nan
2.6471145 -0.33918321 2.1232216 nan
2.6301079 -0.34196675 2.1171179 -3.0769768e+38
2.6470923 -0.34855461 2.1232216 -2.6892599e+38
2.6470811 -0.35324031 2.1232216 -2.3158814e+38
2.6470702 -0.35792601 2.1232216 -2.2628677e+38
2.6650541 -0.3647629 2.1296844 -2.2094965e+38
2.6650431 -0.36948287 2.1296844 -3.2633306e+38
2.6650319 -0.37420288 2.1296844 nan
2.6650207 -0.37892285 2.1296844 nan
2.6650095 -0.38364285 2.1296844 nan
2.6649983 -0.38836282 2.1296844 nan
2.6649871 -0.39308283 2.1296844 nan
2.6649759 -0.39780283 2.1296844 nan
2.6649647 -0.4025228 2.1296844 nan
2.6829476 -0.40970254 2.1361475 nan
2.7009306 -0.41695088 2.1426103 nan
2.7189133 -0.42426777 2.1490731 nan
2.7189019 -0.42909062 2.1490731 nan
2.6476805 -0.10021242 2.118536 nan
2.6476693 -0.10489813 2.118536 nan
2.6476583 -0.10958384 2.118536 nan
2.6476471 -0.11426953 2.118536 nan
2.6476362 -0.11895524 2.118536 nan
2.647625 -0.12364094 2.118536 nan
2.647614 -0.12832664 2.118536 nan
2.6476028 -0.13301234 2.118536 nan
2.6475918 -0.13769805 2.118536 nan
2.6475806 -0.14238375 2.118536 nan
2.6475697 -0.14706945 2.118536 nan
2.6475585 -0.15175515 2.118536 nan
2.6475472 -0.15644085 2.118536 nan
2.6475363 -0.16112655 2.118536 nan
2.6475251 -0.16581225 2.118536 nan
2.6475141 -0.17049795 2.118536 nan
2.6475029 -0.17518365 2.118536 nan
2.6474919 -0.17986935 2.118536 nan
2.6304827 -0.18375385 2.1124644 nan
2.6474698 -0.18924075 2.118536 nan
2.6304605 -0.19306049 2.1124644 nan
2.6304495 -0.19771382 2.1124644 nan
2.6304386 -0.20236713 2.1124644 -3.1434433e+38
2.6304276 -0.20702043 2.1124644 -2.928844e+38
2.6304164 -0.21167377 2.1124644 -2.7028159e+38
2.6304054 -0.21632707 2.1124644 -2.7015105e+38
2.6303945 -0.22098041 2.1124644 -2.6883249e+38
2.6303835 -0.22563374 2.1124644 -2.6086779e+38
2.6303723 -0.23028705 2.1124644 -2.5158938e+38
2.6303613 -0.23494038 2.1124644 -2.2368622e+38
2.6303504 -0.23959368 2.1124644 -1.9456305e+38
2.6303394 -0.24424702 2.1124644 -2.7045411e+38
2.6303284 -0.24890032 2.1124644 nan
2.6303172 -0.25355363 2.1124644 nan
2.6303062 -0.25820696 2.1124644 nan
2.6302953 -0.2628603 2.1124644 nan
2.6302843 -0.2675136 2.1124644 nan
2.6302731 -0.27216694 2.1124644 nan
2.6132655 -0.27537143 2.1063931 nan
2.6132545 -0.27999234 2.1063931 nan
2.6132436 -0.28461328 2.1063931 nan
2.6132326 -0.28923425 2.1063931 nan
2.6132219 -0.29385519 2.1063931 nan
2.6302071 -0.30008686 2.1124644 nan
2.6301961 -0.30474019 2.1124644 nan
2.6301851 -0.3093935 2.1124644 nan
2.6301739 -0.31404683 2.1124644 nan
2.630163 -0.31870013 2.1124644 nan
2.630152 -0.32335344 2.1124644 nan
2.630141 -0.32800677 2.1124644 nan
2.6301301 -0.33266011 2.1124644 nan
2.6301188 -0.33731341 2.1124644 -3.2889298e+38
2.6301079 -0.34196675 2.1124644 -2.8231228e+38
2.6470923 -0.34855461 2.118536 -2.7556688e+38
2.6470811 -0.35324031 2.118536 -2.675604e+38
2.6470702 -0.35792601 2.118536 -2.2765763e+38
2.647059 -0.36261171 2.118536 -1.8653519e+38
2.6650431 -0.36948287 2.1249645 -3.1048623e+38
2.6650319 -0.37420288 2.1249645 nan
2.6650207 -0.37892285 2.1249645 nan
2.6650095 -0.38364285 2.1249645 nan
2.6649983 -0.38836282 2.1249645 nan
2.6649871 -0.39308283 2.1249645 nan
2.6469815 -0.39541164 2.118536 nan
2.6649647 -0.4025228 2.1249645 nan
2.6649535 -0.4072428 2.1249645 nan
2.6829364 -0.41445684 2.1313932 nan
2.7009192 -0.42173943 2.1378217 nan
2.7189019 -0.42909062 2.1442504 nan
2.6657026 -0.091003656 2.1202445 nan
2.6476917 -0.095526725 2.1138501 nan
2.6476805 -0.10021242 2.1138501 nan
2.6476693 -0.10489813 2.1138501 nan
2.6476583 -0.10958384 2.1138501 nan
2.6476471 -0.11426953 2.1138501 nan
2.6476362 -0.11895524 2.1138501 nan
2.647625 -0.12364094 2.1138501 nan
2.647614 -0.12832664 2.1138501 nan
2.6476028 -0.13301234 2.1138501 nan
2.6475918 -0.13769805 2.1138501 nan
2.6475806 -0.14238375 2.1138501 nan
2.6475697 -0.14706945 2.1138501 nan
2.6475585 -0.15175515 2.1138501 nan
2.6475472 -0.15644085 2.1138501 nan
2.6475363 -0.16112655 2.1138501 nan
2.6305268 -0.16514057 2.1078112 nan
2.6305156 -0.16979387 2.1078112 nan
2.6305046 -0.17444721 2.1078112 nan
2.6474919 -0.17986935 2.1138501 nan
2.6304827 -0.18375385 2.1078112 nan
2.6304715 -0.18840717 2.1078112 nan
2.6304605 -0.19306049 2.1078112 nan
2.6304495 -0.19771382 2.1078112 -3.3028957e+38
2.6304386 -0.20236713 2.1078112 -2.9693928e+38
2.6304276 -0.20702043 2.1078112 -2.8225531e+38
2.6304164 -0.21167377 2.1078112 -2.6887388e+38
2.6304054 -0.21632707 2.1078112 -2.6884703e+38
2.6303945 -0.22098041 2.1078112 -2.6884768e+38
2.6303835 -0.22563374 2.1078112 -2.635262e+38
2.6303723 -0.23028705 2.1078112 -2.581884e+38
2.6303613 -0.23494038 2.1078112 -2.3427775e+38
2.6303504 -0.23959368 2.1078112 -2.1034698e+38
2.6303394 -0.24424702 2.1078112 -2.3972553e+38
2.6303284 -0.24890032 2.1078112 -2.7045946e+38
2.6303172 -0.25355363 2.1078112 -3.3708253e+38
2.6303062 -0.25820696 2.1078112 nan
2.6302953 -0.2628603 2.1078112 nan
2.6302843 -0.2675136 2.1078112 nan
2.6302731 -0.27216694 2.1078112 nan
2.6132655 -0.27537143 2.1017723 nan
2.6132545 -0.27999234 2.1017723 nan
2.6132436 -0.28461328 2.1017723 nan
2.6132326 -0.28923425 2.1017723 nan
2.6132219 -0.29385519 2.1017723 nan
2.6132109 -0.29847613 2.1017723 nan
2.6131999 -0.30309707 2.1017723 nan
2.6301851 -0.3093935 2.1078112 nan
2.6301739 -0.31404683 2.1078112 nan
2.630163 -0.31870013 2.1078112 nan
2.630152 -0.32335344 2.1078112 nan
2.630141 -0.32800677 2.1078112 nan
2.6301301 -0.33266011 2.1078112 -3.2768851e+38
2.6301188 -0.33731341 2.1078112 -2.9292548e+38
2.6301079 -0.34196675 2.1078112 -2.5963206e+38
2.6470923 -0.34855461 2.1138501 -2.5560761e+38
2.6470811 -0.35324031 2.1138501 -2.5300641e+38
2.6470702 -0.35792601 2.1138501 -2.5160461e+38
2.647059 -0.36261171 2.1138501 -2.5023956e+38
2.647048 -0.36729741 2.1138501 nan
2.6470368 -0.37198311 2.1138501 nan
2.6470258 -0.37666884 2.1138501 nan
2.6470146 -0.38135451 2.1138501 nan
2.6470037 -0.38604024 2.1138501 nan
2.6649871 -0.39308283 2.1202445 nan
2.6469815 -0.39541164 2.1138501 nan
2.6649647 -0.4025228 2.1202445 nan
2.6649535 -0.4072428 2.1202445 nan
2.6649425 -0.41196275 2.1202445 nan
2.6829252 -0.41921112 2.1266389 nan
2.682914 -0.42396536 2.1266389 nan
2.6829028 -0.42871967 2.1266389 nan
2.7008853 -0.4361051 2.133033 nan
2.7008739 -0.44089368 2.133033 nan
2.6477249 -0.081469625 2.1091645 nan
2.6477139 -0.086155325 2.1091645 nan
2.6477027 -0.090841025 2.1091645 nan
2.6476917 -0.095526725 2.1091645 nan
2.6476805 -0.10021242 2.1091645 nan
2.6476693 -0.10489813 2.1091645 nan
2.6476583 -0.10958384 2.1091645 nan
2.6476471 -0.11426953 2.1091645 nan
2.6476362 -0.11895524 2.1091645 nan
2.647625 -0.12364094 2.1091645 nan
2.647614 -0.12832664 2.1091645 nan
2.6476028 -0.13301234 2.1091645 nan
2.6475918 -0.13769805 2.1091645 nan
2.6305819 -0.14187396 2.103158 nan
2.6475697 -0.14706945 2.1091645 nan
2.6305597 -0.1511806 2.103158 nan
2.6305487 -0.15583393 2.103158 nan
2.6305377 -0.16048725 2.103158 nan
2.6305268 -0.16514057 2.103158 nan
2.6305156 -0.16979387 2.103158 nan
2.6305046 -0.17444721 2.103158 nan
2.6304936 -0.17910053 2.103158 nan
2.6304827 -0.18375385 2.103158 nan
2.6304715 -0.18840717 2.103158 nan
2.6304605 -0.19306049 2.103158 -3.2629687e+38
2.6304495 -0.19771382 2.103158 -3.0224583e+38
2.6304386 -0.20236713 2.103158 -2.7831443e+38
2.6304276 -0.20702043 2.103158 -2.7298704e+38
2.6304164 -0.21167377 2.103158 -2.6759684e+38
2.6304054 -0.21632707 2.103158 -2.6884241e+38
2.6303945 -0.22098041 2.103158 -2.6885312e+38
2.6303835 -0.22563374 2.103158 -2.6752421e+38
2.6303723 -0.23028705 2.103158 -2.6484491e+38
2.6303613 -0.23494038 2.103158 -2.4622008e+38
2.6303504 -0.23959368 2.103158 -2.2627669e+38
2.6303394 -0.24424702 2.103158 -2.1029502e+38
2.6303284 -0.24890032 2.103158 -1.9453709e+38
2.6303172 -0.25355363 2.103158 -2.8647778e+38
2.6303062 -0.25820696 2.103158 nan
2.6302953 -0.2628603 2.103158 nan
2.6302843 -0.2675136 2.103158 nan
2.6302731 -0.27216694 2.103158 nan
2.6132655 -0.27537143 2.0971513 nan
2.6132545 -0.27999234 2.0971513 nan
2.6132436 -0.28461328 2.0971513 nan
2.5962365 -0.28768826 2.0911446 nan
2.6132219 -0.29385519 2.0971513 nan
2.6132109 -0.29847613 2.0971513 nan
2.6131999 -0.30309707 2.0971513 nan
2.613189 -0.30771801 2.0971513 nan
2.613178 -0.31233895 2.0971513 nan
2.630163 -0.31870013 2.103158 nan
2.630152 -0.32335344 2.103158 nan
2.630141 -0.32800677 2.103158 -3.3019122e+38
2.6301301 -0.33266011 2.103158 -2.8094707e+38
2.6301188 -0.33731341 2.103158 -2.5815248e+38
2.6301079 -0.34196675 2.103158 -2.3559694e+38
2.6470923 -0.34855461 2.1091645 -2.3687404e+38
2.6470811 -0.35324031 2.1091645 -2.3696229e+38
2.6470702 -0.35792601 2.1091645 -2.755099e+38
2.647059 -0.36261171 2.1091645 -3.1421927e+38
2.647048 -0.36729741 2.1091645 nan
2.6470368 -0.37198311 2.1091645 nan
2.6470258 -0.37666884 2.1091645 nan
2.6470146 -0.38135451 2.1091645 nan
2.6470037 -0.38604024 2.1091645 nan
2.6469924 -0.39072591 2.1091645 nan
2.6469815 -0.39541164 2.1091645 nan
2.6649647 -0.4025228 2.1155245 nan
2.6649535 -0.4072428 2.1155245 nan
2.6649425 -0.41196275 2.1155245 nan
2.6829252 -0.41921112 2.1218846 nan
2.682914 -0.42396536 2.1218846 nan
2.6829028 -0.42871967 2.1218846 nan
2.7008853 -0.4361051 2.1282444 nan
2.7008739 -0.44089368 2.1282444 nan
2.6477361 -0.076783925 2.1044788 nan
2.6477249 -0.081469625 2.1044788 nan
2.6477139 -0.086155325 2.1044788 nan
2.6657026 -0.091003656 2.1108046 nan
2.6476917 -0.095526725 2.1044788 nan
2.6476805 -0.10021242 2.1044788 nan
2.6476693 -0.10489813 2.1044788 nan
2.6476583 -0.10958384 2.1044788 nan
2.6476471 -0.11426953 2.1044788 nan
2.6476362 -0.11895524 2.1044788 nan
2.630626 -0.12326068 2.0985045 nan
2.647614 -0.12832664 2.1044788 nan
2.6476028 -0.13301234 2.1044788 nan
2.6475918 -0.13769805 2.1044788 nan
2.6305819 -0.14187396 2.0985045 nan
2.6475697 -0.14706945 2.1044788 nan
2.6305597 -0.1511806 2.0985045 nan
2.6305487 -0.15583393 2.0985045 nan
2.6305377 -0.16048725 2.0985045 nan
2.6305268 -0.16514057 2.0985045 nan
2.6305156 -0.16979387 2.0985045 nan
2.6305046 -0.17444721 2.0985045 nan
2.6304936 -0.17910053 2.0985045 nan
2.6134844 -0.18295264 2.0925303 nan
2.6304715 -0.18840717 2.0985045 -3.3823405e+38
2.6134624 -0.19219452 2.0925303 -3.2222591e+38
2.6304495 -0.19771382 2.0985045 -2.9825798e+38
2.6304386 -0.20236713 2.0985045 -2.7298704e+38
2.6304276 -0.20702043 2.0985045 -2.7430584e+38
2.6304164 -0.21167377 2.0985045 -2.7431075e+38
2.6304054 -0.21632707 2.0985045 -2.7288258e+38
2.6303945 -0.22098041 2.0985045 -2.7019816e+38
2.6303835 -0.22563374 2.0985045 -2.661949e+38
2.6303723 -0.23028705 2.0985045 -2.6352085e+38
2.6303613 -0.23494038 2.0985045 -2.5021297e+38
2.6303504 -0.23959368 2.0985045 -2.3823945e+38
2.6303394 -0.24424702 2.0985045 -2.2228345e+38
2.6303284 -0.24890032 2.0985045 -2.0764703e+38
2.6303172 -0.25355363 2.0985045 -2.5837123e+38
2.6303062 -0.25820696 2.0985045 -3.0775569e+38
2.6302953 -0.2628603 2.0985045 nan
2.6302843 -0.2675136 2.0985045 nan
2.6302731 -0.27216694 2.0985045 nan
2.6132655 -0.27537143 2.0925303 nan
2.6132545 -0.27999234 2.0925303 nan
2.5962474 -0.28309971 2.086556 nan
2.5962365 -0.28768826 2.086556 nan
2.6132219 -0.29385519 2.0925303 nan
2.6132109 -0.29847613 2.0925303 nan
2.6131999 -0.30309707 2.0925303 nan
2.613189 -0.30771801 2.0925303 nan
2.613178 -0.31233895 2.0925303 nan
2.613167 -0.31695986 2.0925303 nan
2.630152 -0.32335344 2.0985045 -3.1970282e+38
2.630141 -0.32800677 2.0985045 -2.8360536e+38
2.6301301 -0.33266011 2.0985045 -2.4895177e+38
2.6301188 -0.33731341 2.0985045 -2.462204e+38
2.6301079 -0.34196675 2.0985045 -2.4487562e+38
2.6300969 -0.34662005 2.0985045 -2.4622042e+38
2.6300859 -0.35127339 2.0985045 -2.4890987e+38
2.6470702 -0.35792601 2.1044788 -2.6090391e+38
2.647059 -0.36261171 2.1044788 -2.7295631e+38
2.647048 -0.36729741 2.1044788 -3.1709189e+38
2.6470368 -0.37198311 2.1044788 nan
2.6470258 -0.37666884 2.1044788 nan
2.6470146 -0.38135451 2.1044788 nan
2.6470037 -0.38604024 2.1044788 nan
2.6469924 -0.39072591 2.1044788 nan
2.6469815 -0.39541164 2.1044788 nan
2.6469703 -0.40009731 2.1044788 nan
2.6649535 -0.4072428 2.1108046 nan
2.6649425 -0.41196275 2.1108046 nan
2.6649313 -0.41668275 2.1108046 nan
2.682914 -0.42396536 2.1171303 nan
2.6829028 -0.42871967 2.1171303 nan
2.7008853 -0.4361051 2.123456 nan
2.7008739 -0.44089368 2.123456 nan
2.7008624 -0.44568223 2.123456 nan
2.7008512 -0.45047081 2.123456 nan
2.7008398 -0.45525932 2.123456 nan
2.6657472 -0.072123706 2.1060846 nan
2.6477361 -0.076783925 2.0997932 nan
2.6477249 -0.081469625 2.0997932 nan
2.6477139 -0.086155325 2.0997932 nan
2.6477027 -0.090841025 2.0997932 nan
2.6476917 -0.095526725 2.0997932 nan
2.6476805 -0.10021242 2.0997932 nan
2.6476693 -0.10489813 2.0997932 nan
2.6476583 -0.10958384 2.0997932 nan
2.6476471 -0.11426953 2.0997932 nan
2.6476362 -0.11895524 2.0997932 nan
2.647625 -0.12364094 2.0997932 nan
2.647614 -0.12832664 2.0997932 nan
2.6306038 -0.13256732 2.0938511 nan
2.6475918 -0.13769805 2.0997932 nan
2.6305819 -0.14187396 2.0938511 nan
2.6305709 -0.14652729 2.0938511 nan
2.6305597 -0.1511806 2.0938511 nan
2.6305487 -0.15583393 2.0938511 nan
2.6305377 -0.16048725 2.0938511 nan
2.6305268 -0.16514057 2.0938511 nan
2.6305156 -0.16979387 2.0938511 -3.2890349e+38
2.6305046 -0.17444721 2.0938511 -3.1168076e+38
2.6304936 -0.17910053 2.0938511 -3.1689914e+38
2.6134844 -0.18295264 2.0879092 -3.2227818e+38
2.6304715 -0.18840717 2.0938511 -3.2085533e+38
2.6134624 -0.19219452 2.0879092 -3.182174e+38
2.6304495 -0.19771382 2.0938511 -2.929099e+38
2.6304386 -0.20236713 2.0938511 -2.6765968e+38
2.6134298 -0.20605731 2.0879092 -2.742746e+38
2.6304164 -0.21167377 2.0938511 -2.8088941e+38
2.6304054 -0.21632707 2.0938511 -2.7684443e+38
2.6303945 -0.22098041 2.0938511 -2.7152226e+38
2.6303835 -0.22563374 2.0938511 -2.6619492e+38
2.6303723 -0.23028705 2.0938511 -2.6086237e+38
2.6303613 -0.23494038 2.0938511 -2.5552982e+38
2.6303504 -0.23959368 2.0938511 -2.4889407e+38
2.6303394 -0.24424702 2.0938511 -2.35607e+38
2.6303284 -0.24890032 2.0938511 -2.2095984e+38
2.6303172 -0.25355363 2.0938511 -2.2893553e+38
2.6303062 -0.25820696 2.0938511 -2.3715045e+38
2.6302953 -0.2628603 2.0938511 -3.1851967e+38
2.6302843 -0.2675136 2.0938511 nan
2.6132765 -0.27075049 2.0879092 nan
2.6132655 -0.27537143 2.0879092 nan
2.6132545 -0.27999234 2.0879092 nan
2.5962474 -0.28309971 2.0819674 nan
2.5962365 -0.28768826 2.0819674 nan
2.5962257 -0.29227683 2.0819674 nan
2.5962148 -0.29686537 2.0819674 nan
2.596204 -0.30145395 2.0819674 nan
2.5961931 -0.30604249 2.0819674 nan
2.5961823 -0.31063107 2.0819674 nan
2.613167 -0.31695986 2.0879092 -3.1956804e+38
2.6131561 -0.32158083 2.0879092 -2.5965344e+38
2.630141 -0.32800677 2.0938511 -2.3822414e+38
2.6301301 -0.33266011 2.0938511 -2.1565846e+38
2.6301188 -0.33731341 2.0938511 -2.3556057e+38
2.6301079 -0.34196675 2.0938511 -2.5420094e+38
2.6300969 -0.34662005 2.0938511 -2.5688019e+38
2.6300859 -0.35127339 2.0938511 -2.5954379e+38
2.6300747 -0.35592672 2.0938511 -2.462463e+38
2.647059 -0.36261171 2.0997932 -2.3171363e+38
2.6300528 -0.36523336 2.0938511 -2.5575972e+38
2.6470368 -0.37198311 2.0997932 -2.7986247e+38
2.6470258 -0.37666884 2.0997932 nan
2.6470146 -0.38135451 2.0997932 nan
2.6470037 -0.38604024 2.0997932 nan
2.6469924 -0.39072591 2.0997932 nan
2.6469815 -0.39541164 2.0997932 nan
2.6469703 -0.40009731 2.0997932 nan
2.6469591 -0.40478304 2.0997932 nan
2.6469481 -0.40946874 2.0997932 nan
2.6649313 -0.41668275 2.1060846 nan
2.6649201 -0.42140272 2.1060846 nan
2.6829028 -0.42871967 2.112376 nan
2.6828914 -0.43347391 2.112376 nan
2.6828802 -0.43822822 2.112376 nan
2.7008624 -0.44568223 2.1186674 nan
2.7008512 -0.45047081 2.1186674 nan
2.7008398 -0.45525932 2.1186674 nan
2.6657472 -0.072123706 2.1013646 nan
2.6477361 -0.076783925 2.0951073 nan
2.6477249 -0.081469625 2.0951073 nan
2.6477139 -0.086155325 2.0951073 nan
2.6477027 -0.090841025 2.0951073 nan
2.6476917 -0.095526725 2.0951073 nan
2.6476805 -0.10021242 2.0951073 nan
2.6476693 -0.10489813 2.0951073 nan
2.6306589 -0.10930072 2.0891979 nan
2.6476471 -0.11426953 2.0951073 nan
2.6306369 -0.11860736 2.0891979 nan
2.630626 -0.12326068 2.0891979 nan
2.6306148 -0.127914 2.0891979 nan
2.6306038 -0.13256732 2.0891979 nan
2.6305928 -0.13722064 2.0891979 nan
2.6305819 -0.14187396 2.0891979 nan
2.6305709 -0.14652729 2.0891979 nan
2.6305597 -0.1511806 2.0891979 nan
2.6305487 -0.15583393 2.0891979 nan
2.6305377 -0.16048725 2.0891979 nan
2.6305268 -0.16514057 2.0891979 -3.2367992e+38
2.6305156 -0.16979387 2.0891979 -3.1962453e+38
2.6305046 -0.17444721 2.0891979 -3.1560581e+38
2.6304936 -0.17910053 2.0891979 -3.1827997e+38
2.6304827 -0.18375385 2.0891979 -3.1964548e+38
2.6304715 -0.18840717 2.0891979 -3.1692983e+38
2.6304605 -0.19306049 2.0891979 -3.1560559e+38
2.6304495 -0.19771382 2.0891979 -2.9827869e+38
2.6304386 -0.20236713 2.0891979 -2.8230189e+38
2.6304276 -0.20702043 2.0891979 -2.8223429e+38
2.6304164 -0.21167377 2.0891979 -2.8350632e+38
2.6304054 -0.21632707 2.0891979 -2.7684972e+38
2.6303945 -0.22098041 2.0891979 -2.7151194e+38
2.6303835 -0.22563374 2.0891979 -2.6618973e+38
2.6303723 -0.23028705 2.0891979 -2.6086233e+38
2.6303613 -0.23494038 2.0891979 -2.5555051e+38
2.6303504 -0.23959368 2.0891979 -2.5156814e+38
2.6303394 -0.24424702 2.0891979 -2.4225326e+38
2.6303284 -0.24890032 2.0891979 -2.3292266e+38
2.6303172 -0.25355363 2.0891979 -2.2229399e+38
2.6303062 -0.25820696 2.0891979 -2.130111e+38
2.6132984 -0.26150861 2.0832884 -2.7844014e+38
2.6132874 -0.26612955 2.0832884 nan
2.6132765 -0.27075049 2.0832884 nan
2.6132655 -0.27537143 2.0832884 nan
2.6132545 -0.27999234 2.0832884 nan
2.5962474 -0.28309971 2.0773787 nan
2.5962365 -0.28768826 2.0773787 nan
2.5962257 -0.29227683 2.0773787 nan
2.5962148 -0.29686537 2.0773787 nan
2.596204 -0.30145395 2.0773787 nan
2.5961931 -0.30604249 2.0773787 nan
2.5961823 -0.31063107 2.0773787 -3.2381029e+38
2.613167 -0.31695986 2.0832884 -2.8229216e+38
2.6131561 -0.32158083 2.0832884 -2.4087763e+38
2.6131451 -0.32620177 2.0832884 -2.3689437e+38
2.6301301 -0.33266011 2.0891979 -2.3293293e+38
2.6301188 -0.33731341 2.0891979 -2.42243e+38
2.6301079 -0.34196675 2.0891979 -2.5290283e+38
2.6300969 -0.34662005 2.0891979 -2.5689574e+38
2.6300859 -0.35127339 2.0891979 -2.6088872e+38
2.6300747 -0.35592672 2.0891979 -2.5290824e+38
2.6300638 -0.36058003 2.0891979 -2.4626218e+38
2.6300528 -0.36523336 2.0891979 -2.543259e+38
2.6300418 -0.36988667 2.0891979 -2.6232747e+38
2.6470258 -0.37666884 2.0951073 -2.9170054e+38
2.6470146 -0.38135451 2.0951073 -3.2243934e+38
2.6470037 -0.38604024 2.0951073 nan
2.6469924 -0.39072591 2.0951073 nan
2.6469815 -0.39541164 2.0951073 nan
2.6469703 -0.40009731 2.0951073 nan
2.6469591 -0.40478304 2.0951073 nan
2.6469481 -0.40946874 2.0951073 nan
2.6649313 -0.41668275 2.1013646 nan
2.6649201 -0.42140272 2.1013646 nan
2.6829028 -0.42871967 2.1076217 nan
2.6828914 -0.43347391 2.1076217 nan
2.6828802 -0.43822822 2.1076217 nan
2.7008624 -0.44568223 2.1138787 nan
2.7008512 -0.45047081 2.1138787 nan
2.7008398 -0.45525932 2.1138787 nan
2.7008286 -0.4600479 2.1138787 nan
2.6657584 -0.067403719 2.0966444 nan
2.6657472 -0.072123706 2.0966444 nan
2.6477361 -0.076783925 2.0904217 nan
2.6477249 -0.081469625 2.0904217 nan
2.6477139 -0.086155325 2.0904217 nan
2.6477027 -0.090841025 2.0904217 nan
2.630692 -0.095340751 2.0845447 nan
2.630681 -0.099994078 2.0845447 nan
2.6306701 -0.1046474 2.0845447 nan
2.6306589 -0.10930072 2.0845447 nan
2.6306479 -0.11395404 2.0845447 nan
2.6306369 -0.11860736 2.0845447 nan
2.630626 -0.12326068 2.0845447 nan
2.6306148 -0.127914 2.0845447 nan
2.6306038 -0.13256732 2.0845447 nan
2.6305928 -0.13722064 2.0845447 nan
2.6305819 -0.14187396 2.0845447 nan
2.6305709 -0.14652729 2.0845447 -3.3969862e+38
2.6305597 -0.1511806 2.0845447 -3.3158282e+38
2.6305487 -0.15583393 2.0845447 -3.2366973e+38
2.6305377 -0.16048725 2.0845447 -3.1307224e+38
2.6305268 -0.16514057 2.0845447 -3.0238637e+38
2.6305156 -0.16979387 2.0845447 -3.1162853e+38
2.6305046 -0.17444721 2.0845447 -3.1962473e+38
2.6304936 -0.17910053 2.0845447 -3.1831633e+38
2.6134844 -0.18295264 2.0786674 -3.1696628e+38
2.6304715 -0.18840717 2.0845447 -3.1427141e+38
2.6304605 -0.19306049 2.0845447 -3.1161276e+38
