# .PCD v0.7 - Point Cloud Data file format
VERSION 0.7
FIELDS x y z rgb
SIZE 4 4 4 4
TYPE F F F F
COUNT 1 1 1 1
WIDTH 1025
HEIGHT 1
VIEWPOINT 0 0 0 1 0 0 0
POINTS 1025
DATA ascii
0.51717144 -0.17538859 1.5740001 -2.3026476e+38
0.52016956 -0.17538859 1.5740001 -2.3158364e+38
0.520841 -0.17460859 1.567 -2.3293887e+38
0.52382576 -0.17460859 1.567 -2.3427333e+38
0.52681053 -0.17460859 1.567 -2.3294414e+38
0.52979529 -0.17460859 1.567 -2.3162013e+38
0.53040004 -0.17382859 1.5600001 -2.2897727e+38
0.53337145 -0.17382859 1.5600001 -2.2765321e+38
0.53874958 -0.17460859 1.567 -2.2764279e+38
0.53931433 -0.17382859 1.5600001 -2.2896682e+38
0.54228574 -0.17382859 1.5600001 -2.3029603e+38
0.54525715 -0.17382859 1.5600001 -2.3161479e+38
0.54576862 -0.17304859 1.5530001 -2.3426798e+38
0.54872668 -0.17304859 1.5530001 -2.3690564e+38
0.5516848 -0.17304859 1.5530001 -2.3559195e+38
0.55214292 -0.17226858 1.5460001 -2.3425753e+38
0.55508763 -0.17226858 1.5460001 -2.3159388e+38
0.55803239 -0.17226858 1.5460001 -2.2894064e+38
0.56097716 -0.17226858 1.5460001 -2.2627699e+38
0.56392193 -0.17226858 1.5460001 -2.2360817e+38
0.35500002 -0.19166668 1.7500001 nan
0.35833335 -0.19166668 1.7500001 -2.7840889e+38
0.35980669 -0.19068097 1.7410001 -2.6363601e+38
0.36312288 -0.19068097 1.7410001 -2.4772185e+38
0.36643907 -0.19068097 1.7410001 -2.5573378e+38
0.36975527 -0.19068097 1.7410001 -2.6366755e+38
0.37114289 -0.18969525 1.7320001 -2.5965385e+38
0.37444192 -0.18969525 1.7320001 -2.5431608e+38
0.37577811 -0.18870954 1.723 -2.5031793e+38
0.37906003 -0.18870954 1.723 -2.4631461e+38
0.38234192 -0.18870954 1.723 -2.436405e+38
0.38383335 -0.18783334 1.715 -2.3963202e+38
0.38710001 -0.18783334 1.715 -2.3696314e+38
0.3903667 -0.18783334 1.715 -2.3296503e+38
0.39156765 -0.18684763 1.7060001 -2.2763768e+38
0.39481717 -0.18684763 1.7060001 -2.2232068e+38
0.39620003 -0.18597144 1.6980001 -2.2363945e+38
0.3994343 -0.18597144 1.6980001 -2.2362894e+38
0.4026686 -0.18597144 1.6980001 -2.2494768e+38
0.40399051 -0.18509525 1.6900001 -2.2493726e+38
0.40720955 -0.18509525 1.6900001 -2.2492166e+38
0.41042858 -0.18509525 1.6900001 -2.2491125e+38
0.41364765 -0.18509525 1.6900001 -2.2358201e+38
0.41686669 -0.18509525 1.6900001 -2.2223718e+38
0.42008573 -0.18509525 1.6900001 -2.1956832e+38
0.4233048 -0.18509525 1.6900001 -2.1557536e+38
0.42652383 -0.18509525 1.6900001 -2.1291685e+38
0.42745432 -0.18410954 1.6810001 -2.1024792e+38
0.43065622 -0.18410954 1.6810001 -2.036017e+38
0.43385813 -0.18410954 1.6810001 -1.9695554e+38
0.43706003 -0.18410954 1.6810001 -1.9562629e+38
0.44026193 -0.18410954 1.6810001 -1.9296265e+38
0.44346383 -0.18410954 1.6810001 -1.8898015e+38
0.44454002 -0.18323335 1.6730001 -1.8365809e+38
0.4477267 -0.18323335 1.6730001 -1.8896983e+38
0.45091337 -0.18323335 1.6730001 -1.9428159e+38
0.45410004 -0.18323335 1.6730001 -1.9294721e+38
0.45510003 -0.18235716 1.6650001 -1.9029912e+38
0.45827144 -0.18235716 1.6650001 -1.8897508e+38
0.46144289 -0.18235716 1.6650001 -1.8765103e+38
0.4646143 -0.18235716 1.6650001 -1.8898026e+38
0.46553811 -0.18148096 1.6570001 -1.9031466e+38
0.46869433 -0.18148096 1.6570001 -1.9030946e+38
0.47185051 -0.18148096 1.6570001 -1.9029389e+38
0.47271335 -0.18060477 1.649 -1.8628545e+38
0.47585431 -0.18060477 1.649 -1.8097371e+38
0.47899526 -0.18060477 1.649 -1.8098927e+38
0.48213622 -0.18060477 1.649 -1.7964964e+38
0.48527718 -0.18060477 1.649 -1.8230809e+38
0.48841813 -0.18060477 1.649 -1.8363213e+38
0.48917431 -0.17972858 1.641 -1.8627503e+38
0.49230003 -0.17972858 1.641 -1.8760945e+38
0.49542576 -0.17972858 1.641 -1.8495101e+38
0.49642479 -0.17896192 1.6340001 -1.8096335e+38
0.49709147 -0.17808573 1.626 -1.8228741e+38
0.49772766 -0.17720954 1.618 -1.8364783e+38
0.49864289 -0.17644286 1.6110001 -1.9295766e+38
0.50171149 -0.17644286 1.6110001 -2.0227789e+38
0.50227338 -0.17556667 1.603 -2.1291176e+38
0.50312001 -0.17480001 1.5960001 -2.2224237e+38
0.50616002 -0.17480001 1.5960001 -2.276061e+38
0.50920004 -0.17480001 1.5960001 -2.329282e+38
0.50999337 -0.17403334 1.5890001 -2.3027496e+38
0.51302004 -0.17403334 1.5890001 -2.2763214e+38
0.5134486 -0.17315716 1.5810001 -2.2899256e+38
0.51417339 -0.17239049 1.5740001 -2.2897703e+38
0.51717144 -0.17239049 1.5740001 -2.3297516e+38
0.51785624 -0.17162383 1.567 -2.3561803e+38
0.520841 -0.17162383 1.567 -2.382869e+38
0.52382576 -0.17162383 1.567 -2.3960576e+38
0.52681053 -0.17162383 1.567 -2.3825578e+38
0.52742863 -0.17085716 1.5600001 -2.3693696e+38
0.53040004 -0.17085716 1.5600001 -2.3427335e+38
0.53337145 -0.17085716 1.5600001 -2.3028567e+38
0.53634292 -0.17085716 1.5600001 -2.2893569e+38
0.53931433 -0.17085716 1.5600001 -2.2762721e+38
0.54228574 -0.17085716 1.5600001 -2.2895642e+38
0.54525715 -0.17085716 1.5600001 -2.3028557e+38
0.54822862 -0.17085716 1.5600001 -2.3294396e+38
0.54872668 -0.17009048 1.5530001 -2.355972e+38
0.5516848 -0.17009048 1.5530001 -2.3426796e+38
0.55214292 -0.16932382 1.5460001 -2.3293873e+38
0.55508763 -0.16932382 1.5460001 -2.3293873e+38
0.55803239 -0.16932382 1.5460001 -2.3293354e+38
0.56097716 -0.16932382 1.5460001 -2.302751e+38
0.56392193 -0.16932382 1.5460001 -2.2627703e+38
0.5668667 -0.16932382 1.5460001 -2.2627703e+38
0.3531743 -0.18736477 1.7410001 nan
0.35649049 -0.18736477 1.7410001 -2.3297112e+38
0.35980669 -0.18736477 1.7410001 -2.3966348e+38
0.36312288 -0.18736477 1.7410001 -2.4640836e+38
0.36643907 -0.18736477 1.7410001 -2.5304419e+38
0.36975527 -0.18736477 1.7410001 -2.610091e+38
0.37114289 -0.1863962 1.7320001 -2.5699016e+38
0.37444192 -0.1863962 1.7320001 -2.5298684e+38
0.37577811 -0.18542764 1.723 -2.5029197e+38
0.37906003 -0.18542764 1.723 -2.4628344e+38
0.38234192 -0.18542764 1.723 -2.4361969e+38
0.38383335 -0.18456668 1.715 -2.4094562e+38
0.38710001 -0.18456668 1.715 -2.3695268e+38
0.3903667 -0.18456668 1.715 -2.3294942e+38
0.39156765 -0.1835981 1.7060001 -2.3029613e+38
0.39481717 -0.1835981 1.7060001 -2.2630841e+38
0.39620003 -0.18273716 1.6980001 -2.2762721e+38
0.3994343 -0.18273716 1.6980001 -2.2894593e+38
0.4026686 -0.18273716 1.6980001 -2.2893543e+38
0.40590289 -0.18273716 1.6980001 -2.2893017e+38
0.40720955 -0.1818762 1.6900001 -2.2625089e+38
0.41237146 -0.18273716 1.6980001 -2.2490606e+38
0.41364765 -0.1818762 1.6900001 -2.2224757e+38
0.41686669 -0.1818762 1.6900001 -2.195839e+38
0.42008573 -0.1818762 1.6900001 -2.1691504e+38
0.4233048 -0.1818762 1.6900001 -2.1424614e+38
0.42425242 -0.18090764 1.6810001 -2.102532e+38
0.42745432 -0.18090764 1.6810001 -2.0625505e+38
0.43065622 -0.18090764 1.6810001 -2.0094844e+38
0.43385813 -0.18090764 1.6810001 -1.9695556e+38
0.43706003 -0.18090764 1.6810001 -1.9430228e+38
0.44026193 -0.18090764 1.6810001 -1.9297303e+38
0.44346383 -0.18090764 1.6810001 -1.9030936e+38
0.44666573 -0.18090764 1.6810001 -1.8898537e+38
0.4477267 -0.18004668 1.6730001 -1.9162827e+38
0.45091337 -0.18004668 1.6730001 -1.9426599e+38
0.45410004 -0.18004668 1.6730001 -1.9028872e+38
0.45510003 -0.17918573 1.6650001 -1.8763545e+38
0.45827144 -0.17918573 1.6650001 -1.8764584e+38
0.46144289 -0.17918573 1.6650001 -1.8765622e+38
0.4646143 -0.17918573 1.6650001 -1.9165429e+38
0.46553811 -0.17832477 1.6570001 -1.9697118e+38
0.46869433 -0.17832477 1.6570001 -1.9430749e+38
0.47185051 -0.17832477 1.6570001 -1.9163348e+38
0.4750067 -0.17832477 1.6570001 -1.8763543e+38
0.47816288 -0.17832477 1.6570001 -1.8365294e+38
0.47899526 -0.17746381 1.649 -1.8363215e+38
0.48213622 -0.17746381 1.649 -1.8361655e+38
0.48527718 -0.17746381 1.649 -1.8495093e+38
0.48841813 -0.17746381 1.649 -1.8626978e+38
0.49155909 -0.17746381 1.649 -1.87599e+38
0.49230003 -0.17660287 1.641 -1.8892308e+38
0.49542576 -0.17660287 1.641 -1.8760426e+38
0.49642479 -0.17584954 1.6340001 -1.8494063e+38
0.49709147 -0.17498858 1.626 -1.8895427e+38
0.49772766 -0.17412762 1.618 -1.92968e+38
0.49864289 -0.1733743 1.6110001 -2.0095381e+38
0.50171149 -0.1733743 1.6110001 -2.0894484e+38
0.50227338 -0.17251335 1.603 -2.1559623e+38
0.50532669 -0.17251335 1.603 -2.2359243e+38
0.50616002 -0.17176001 1.5960001 -2.2760095e+38
0.50920004 -0.17176001 1.5960001 -2.3292826e+38
0.50999337 -0.17100668 1.5890001 -2.3028538e+38
0.51302004 -0.17100668 1.5890001 -2.2899256e+38
0.5134486 -0.17014572 1.5810001 -2.3165106e+38
0.51417339 -0.16939239 1.5740001 -2.3432513e+38
0.51487148 -0.16863906 1.567 -2.3830245e+38
0.51785624 -0.16863906 1.567 -2.4229012e+38
0.520841 -0.16863906 1.567 -2.4230048e+38
0.52148575 -0.16788572 1.5600001 -2.409505e+38
0.52445716 -0.16788572 1.5600001 -2.3962128e+38
0.52742863 -0.16788572 1.5600001 -2.3827651e+38
0.53040004 -0.16788572 1.5600001 -2.3560769e+38
0.53337145 -0.16788572 1.5600001 -2.3292853e+38
0.53634292 -0.16788572 1.5600001 -2.302753e+38
0.53931433 -0.16788572 1.5600001 -2.2762721e+38
0.54228574 -0.16788572 1.5600001 -2.289564e+38
0.54525715 -0.16788572 1.5600001 -2.3029078e+38
0.54576862 -0.16713239 1.5530001 -2.3161995e+38
0.54872668 -0.16713239 1.5530001 -2.3294398e+38
0.5516848 -0.16713239 1.5530001 -2.3161473e+38
0.55214292 -0.16637906 1.5460001 -2.3028551e+38
0.55508763 -0.16637906 1.5460001 -2.3028031e+38
0.55803239 -0.16637906 1.5460001 -2.3160435e+38
0.56097716 -0.16637906 1.5460001 -2.2894589e+38
0.56392193 -0.16637906 1.5460001 -2.2628224e+38
0.5668667 -0.16637906 1.5460001 -2.2628742e+38
0.56981146 -0.16637906 1.5460001 -2.2629257e+38
0.59336954 -0.16637906 1.5460001 -2.2358203e+38
0.35833335 -0.18500002 1.7500001 -1.865312e+38
0.36166668 -0.18500002 1.7500001 -2.1563345e+38
0.36312288 -0.18404858 1.7410001 -2.4367715e+38
0.36643907 -0.18404858 1.7410001 -2.5035452e+38
0.36975527 -0.18404858 1.7410001 -2.5699539e+38
0.37307146 -0.18404858 1.7410001 -2.5431606e+38
0.37638766 -0.18404858 1.7410001 -2.5162635e+38
0.37774098 -0.18309715 1.7320001 -2.4892624e+38
0.37906003 -0.18214573 1.723 -2.4626772e+38
0.38234192 -0.18214573 1.723 -2.4360401e+38
0.38562384 -0.18214573 1.723 -2.4094034e+38
0.38710001 -0.18130001 1.715 -2.3694225e+38
0.3903667 -0.18130001 1.715 -2.3294934e+38
0.39363337 -0.18130001 1.715 -2.3162007e+38
0.39481717 -0.18034859 1.7060001 -2.3028561e+38
0.3980667 -0.18034859 1.7060001 -2.3160962e+38
0.40131623 -0.18034859 1.7060001 -2.3292834e+38
0.4026686 -0.17950287 1.6980001 -2.3291786e+38
0.40590289 -0.17950287 1.6980001 -2.315782e+38
0.40913716 -0.17950287 1.6980001 -2.2889894e+38
0.41237146 -0.17950287 1.6980001 -2.2491121e+38
0.41364765 -0.17865716 1.6900001 -2.2091832e+38
0.41884002 -0.17950287 1.6980001 -2.1692023e+38
0.42008573 -0.17865716 1.6900001 -2.1558577e+38
0.4233048 -0.17865716 1.6900001 -2.1291689e+38
0.42652383 -0.17865716 1.6900001 -2.0758955e+38
0.42745432 -0.17770572 1.6810001 -2.0094854e+38
0.43065622 -0.17770572 1.6810001 -1.9830562e+38
0.43385813 -0.17770572 1.6810001 -1.9562638e+38
0.43706003 -0.17770572 1.6810001 -1.9430232e+38
0.44026193 -0.17770572 1.6810001 -1.929679e+38
0.44346383 -0.17770572 1.6810001 -1.9296269e+38
0.44666573 -0.17770572 1.6810001 -1.9296269e+38
0.44986764 -0.17770572 1.6810001 -1.9295749e+38
0.45306957 -0.17770572 1.6810001 -1.9294713e+38
0.45627147 -0.17770572 1.6810001 -1.8896466e+38
0.45728669 -0.17686 1.6730001 -1.8364777e+38
0.46047336 -0.17686 1.6730001 -1.8631144e+38
0.46366003 -0.17686 1.6730001 -1.8766141e+38
0.4668467 -0.17686 1.6730001 -1.9566274e+38
0.46778575 -0.1760143 1.6650001 -2.0229846e+38
0.47095716 -0.1760143 1.6650001 -1.9830556e+38
0.4741286 -0.1760143 1.6650001 -1.9297309e+38
0.47730002 -0.1760143 1.6650001 -1.8896985e+38
0.48047146 -0.1760143 1.6650001 -1.8496138e+38
0.48131907 -0.17516859 1.6570001 -1.8625945e+38
0.48447528 -0.17516859 1.6570001 -1.8626982e+38
0.48763147 -0.17516859 1.6570001 -1.8759904e+38
0.49078766 -0.17516859 1.6570001 -1.8759908e+38
0.49155909 -0.17432287 1.649 -1.8891797e+38
0.49470004 -0.17432287 1.649 -1.9026281e+38
0.49784097 -0.17432287 1.649 -1.9027326e+38
0.49855146 -0.17347716 1.641 -1.8895442e+38
0.49953717 -0.17273715 1.6340001 -1.9561094e+38
0.49772766 -0.17104572 1.618 -2.0096428e+38
0.50080955 -0.17104572 1.618 -2.0762087e+38
0.50171149 -0.17030573 1.6110001 -2.1428264e+38
0.50227338 -0.16946001 1.603 -2.1959964e+38
0.50532669 -0.16946001 1.603 -2.2359775e+38
0.50616002 -0.16872001 1.5960001 -2.289251e+38
0.50920004 -0.16872001 1.5960001 -2.3292319e+38
0.51224005 -0.16872001 1.5960001 -2.3160437e+38
0.51302004 -0.16798002 1.5890001 -2.289667e+38
0.5134486 -0.1671343 1.5810001 -2.3428883e+38
0.51417339 -0.16639429 1.5740001 -2.3829732e+38
0.51487148 -0.1656543 1.567 -2.4362466e+38
0.51785624 -0.1656543 1.567 -2.4896755e+38
0.520841 -0.1656543 1.567 -2.4634546e+38
0.52148575 -0.1649143 1.5600001 -2.4232139e+38
0.52445716 -0.1649143 1.5600001 -2.4099214e+38
0.52742863 -0.1649143 1.5600001 -2.3964215e+38
0.53040004 -0.1649143 1.5600001 -2.3695773e+38
0.53337145 -0.1649143 1.5600001 -2.3428889e+38
0.53634292 -0.1649143 1.5600001 -2.3028565e+38
0.53931433 -0.1649143 1.5600001 -2.2629273e+38
0.54228574 -0.1649143 1.5600001 -2.2894595e+38
0.54525715 -0.1649143 1.5600001 -2.3028553e+38
0.54576862 -0.1641743 1.5530001 -2.3029068e+38
0.54872668 -0.1641743 1.5530001 -2.3029068e+38
0.5516848 -0.1641743 1.5530001 -2.2896664e+38
0.55214292 -0.1634343 1.5460001 -2.2762703e+38
0.55508763 -0.1634343 1.5460001 -2.2895106e+38
0.55803239 -0.1634343 1.5460001 -2.2894589e+38
0.56097716 -0.1634343 1.5460001 -2.2761149e+38
0.56392193 -0.1634343 1.5460001 -2.2628224e+38
0.5668667 -0.1634343 1.5460001 -2.2628744e+38
0.56981146 -0.1634343 1.5460001 -2.2495298e+38
0.57275623 -0.1634343 1.5460001 -2.2494255e+38
0.575701 -0.1634343 1.5460001 -2.2494253e+38
0.35682574 -0.18260096 1.7590001 nan
0.35833335 -0.18166667 1.7500001 -1.9174945e+38
0.36166668 -0.18166667 1.7500001 -2.2503662e+38
0.36312288 -0.1807324 1.7410001 -2.5831415e+38
0.36643907 -0.1807324 1.7410001 -2.5832983e+38
0.36975527 -0.1807324 1.7410001 -2.5963821e+38
0.37307146 -0.1807324 1.7410001 -2.5431081e+38
0.37638766 -0.1807324 1.7410001 -2.5028143e+38
0.37774098 -0.17979811 1.7320001 -2.4761242e+38
0.37906003 -0.17886382 1.723 -2.4493316e+38
0.38234192 -0.17886382 1.723 -2.4360389e+38
0.38562384 -0.17886382 1.723 -2.4093507e+38
0.38890573 -0.17886382 1.723 -2.3694219e+38
0.3903667 -0.17803335 1.715 -2.3427848e+38
0.39363337 -0.17803335 1.715 -2.3294398e+38
0.39690003 -0.17803335 1.715 -2.3160437e+38
0.40016669 -0.17803335 1.715 -2.3160435e+38
0.40131623 -0.17709906 1.7060001 -2.3292309e+38
0.40456575 -0.17709906 1.7060001 -2.3158855e+38
0.40590289 -0.17626858 1.6980001 -2.3024372e+38
0.40913716 -0.17626858 1.6980001 -2.2757486e+38
0.41237146 -0.17626858 1.6980001 -2.2491119e+38
0.41560575 -0.17626858 1.6980001 -2.2090791e+38
0.41884002 -0.17626858 1.6980001 -2.1690461e+38
0.42207432 -0.17626858 1.6980001 -2.1158766e+38
0.4233048 -0.17543811 1.6900001 -2.0759476e+38
0.42652383 -0.17543811 1.6900001 -2.0094341e+38
0.42974287 -0.17543811 1.6900001 -1.9563167e+38
0.43065622 -0.17450382 1.6810001 -1.929576e+38
0.43385813 -0.17450382 1.6810001 -1.9161796e+38
0.43706003 -0.17450382 1.6810001 -1.9030429e+38
0.44026193 -0.17450382 1.6810001 -1.8898026e+38
0.44346383 -0.17450382 1.6810001 -1.8764584e+38
0.44666573 -0.17450382 1.6810001 -1.8764062e+38
0.44986764 -0.17450382 1.6810001 -1.9029385e+38
0.45306957 -0.17450382 1.6810001 -1.9161269e+38
0.45627147 -0.17450382 1.6810001 -1.876302e+38
0.45728669 -0.17367335 1.6730001 -1.8364255e+38
0.46047336 -0.17367335 1.6730001 -1.8498221e+38
0.46366003 -0.17367335 1.6730001 -1.8633218e+38
0.4668467 -0.17367335 1.6730001 -1.9165946e+38
0.46778575 -0.17284288 1.6650001 -1.9832116e+38
0.47322002 -0.17367335 1.6730001 -1.9297824e+38
0.47640669 -0.17367335 1.6730001 -1.8765616e+38
0.47959337 -0.17367335 1.6730001 -1.8630618e+38
0.48047146 -0.17284288 1.6650001 -1.8495619e+38
0.48364288 -0.17284288 1.6650001 -1.8760943e+38
0.48681432 -0.17284288 1.6650001 -1.8893868e+38
0.48998573 -0.17284288 1.6650001 -1.9026273e+38
0.49078766 -0.17201239 1.6570001 -1.9292646e+38
0.49394384 -0.17201239 1.6570001 -1.9425575e+38
0.49470004 -0.17118192 1.649 -1.9560064e+38
0.49784097 -0.17118192 1.649 -1.9294745e+38
0.49855146 -0.17035145 1.641 -1.916338e+38
0.49953717 -0.16962478 1.6340001 -1.9700262e+38
0.50018859 -0.1687943 1.626 -2.0234557e+38
0.50080955 -0.16796382 1.618 -2.1165542e+38
0.50171149 -0.16723715 1.6110001 -2.2095489e+38
0.50227338 -0.16640668 1.603 -2.236134e+38
0.50532669 -0.16640668 1.603 -2.2626152e+38
0.50616002 -0.16568001 1.5960001 -2.289304e+38
0.50920004 -0.16568001 1.5960001 -2.315837e+38
0.51224005 -0.16568001 1.5960001 -2.3027526e+38
0.51302004 -0.16495335 1.5890001 -2.3029084e+38
0.5134486 -0.16412286 1.5810001 -2.3295966e+38
0.51417339 -0.16339619 1.5740001 -2.369526e+38
0.51487148 -0.16266954 1.567 -2.4229032e+38
0.51785624 -0.16266954 1.567 -2.4764885e+38
0.520841 -0.16266954 1.567 -2.4365603e+38
0.52382576 -0.16266954 1.567 -2.4100269e+38
0.52681053 -0.16266954 1.567 -2.3966819e+38
0.52979529 -0.16266954 1.567 -2.3967336e+38
0.53040004 -0.16194287 1.5600001 -2.3832332e+38
0.53337145 -0.16194287 1.5600001 -2.3830773e+38
0.53634292 -0.16194287 1.5600001 -2.3429925e+38
0.53931433 -0.16194287 1.5600001 -2.3160441e+38
0.54228574 -0.16194287 1.5600001 -2.3294915e+38
0.54525715 -0.16194287 1.5600001 -2.3427834e+38
0.54576862 -0.1612162 1.5530001 -2.3428349e+38
0.54872668 -0.1612162 1.5530001 -2.3427832e+38
0.5516848 -0.1612162 1.5530001 -2.3294911e+38
0.55214292 -0.16048953 1.5460001 -2.316095e+38
0.55508763 -0.16048953 1.5460001 -2.316095e+38
0.55803239 -0.16048953 1.5460001 -2.3159916e+38
0.56351715 -0.1612162 1.5530001 -2.3026995e+38
0.56392193 -0.16048953 1.5460001 -2.2894072e+38
0.5668667 -0.16048953 1.5460001 -2.2761149e+38
0.56981146 -0.16048953 1.5460001 -2.2627703e+38
0.57275623 -0.16048953 1.5460001 -2.2627699e+38
0.575701 -0.16048953 1.5460001 -2.2626659e+38
0.57864577 -0.16048953 1.5460001 -2.2626137e+38
0.5845353 -0.16048953 1.5460001 -2.2625089e+38
0.35682574 -0.17925049 1.7590001 -3.3280355e+38
0.35833335 -0.17833334 1.7500001 -1.9586688e+38
0.36166668 -0.17833334 1.7500001 -2.3444545e+38
0.36500001 -0.17833334 1.7500001 -2.7164819e+38
0.36833337 -0.17833334 1.7500001 -2.6633124e+38
0.36975527 -0.17741621 1.7410001 -2.6098825e+38
0.37307146 -0.17741621 1.7410001 -2.5565566e+38
0.37638766 -0.17741621 1.7410001 -2.489782e+38
0.37774098 -0.17649905 1.7320001 -2.4629883e+38
0.37906003 -0.17558192 1.723 -2.4362476e+38
0.38234192 -0.17558192 1.723 -2.4228513e+38
0.38562384 -0.17558192 1.723 -2.4094547e+38
0.38710001 -0.17476667 1.715 -2.382714e+38
0.3903667 -0.17476667 1.715 -2.3428365e+38
0.39363337 -0.17476667 1.715 -2.3294917e+38
0.39690003 -0.17476667 1.715 -2.3160433e+38
0.40016669 -0.17476667 1.715 -2.315991e+38
0.40131623 -0.17384954 1.7060001 -2.315938e+38
0.40456575 -0.17384954 1.7060001 -2.3026449e+38
0.40781528 -0.17384954 1.7060001 -2.2759042e+38
0.40913716 -0.1730343 1.6980001 -2.2625079e+38
0.41237146 -0.1730343 1.6980001 -2.2357152e+38
0.41560575 -0.1730343 1.6980001 -2.1956305e+38
0.41884002 -0.1730343 1.6980001 -2.1558051e+38
0.42207432 -0.1730343 1.6980001 -2.0892914e+38
0.4233048 -0.17221905 1.6900001 -2.0094339e+38
0.42652383 -0.17221905 1.6900001 -1.9562131e+38
0.42974287 -0.17221905 1.6900001 -1.9028882e+38
0.43065622 -0.17130192 1.6810001 -1.8893882e+38
0.43385813 -0.17130192 1.6810001 -1.8630109e+38
0.43706003 -0.17130192 1.6810001 -1.8497702e+38
0.44026193 -0.17130192 1.6810001 -1.8365294e+38
0.44346383 -0.17130192 1.6810001 -1.8365292e+38
0.44666573 -0.17130192 1.6810001 -1.8231848e+38
0.44986764 -0.17130192 1.6810001 -1.8630097e+38
0.45306957 -0.17130192 1.6810001 -1.9028344e+38
0.45627147 -0.17130192 1.6810001 -1.8762499e+38
0.45947337 -0.17130192 1.6810001 -1.8364251e+38
0.46267527 -0.17130192 1.6810001 -1.8364253e+38
0.46366003 -0.17048667 1.6730001 -1.8365811e+38
0.4668467 -0.17048667 1.6730001 -1.88975e+38
0.47003338 -0.17048667 1.6730001 -1.9296786e+38
0.47322002 -0.17048667 1.6730001 -1.8763014e+38
0.47640669 -0.17048667 1.6730001 -1.8231844e+38
0.47959337 -0.17048667 1.6730001 -1.8363732e+38
0.48278004 -0.17048667 1.6730001 -1.8495617e+38
0.48596671 -0.17048667 1.6730001 -1.8894385e+38
0.48681432 -0.16967145 1.6650001 -1.9159196e+38
0.49234003 -0.17048667 1.6730001 -1.9424525e+38
0.49315718 -0.16967145 1.6650001 -1.9691415e+38
0.49394384 -0.1688562 1.6570001 -1.9957786e+38
0.49710003 -0.1688562 1.6570001 -2.0092276e+38
0.49784097 -0.16804096 1.649 -1.9694558e+38
0.50098193 -0.16804096 1.649 -1.9301508e+38
0.50167716 -0.16722572 1.641 -1.9840995e+38
0.50018859 -0.16569716 1.626 -2.0238727e+38
0.50080955 -0.16488191 1.618 -2.1570034e+38
0.50171149 -0.16416858 1.6110001 -2.2764786e+38
0.50227338 -0.16335334 1.603 -2.2897194e+38
0.50532669 -0.16335334 1.603 -2.2896157e+38
0.50616002 -0.16264001 1.5960001 -2.289564e+38
0.50920004 -0.16264001 1.5960001 -2.2895123e+38
0.51224005 -0.16264001 1.5960001 -2.3028569e+38
0.51302004 -0.16192667 1.5890001 -2.3162007e+38
0.51117527 -0.16039811 1.5740001 -2.3295445e+38
0.51417339 -0.16039811 1.5740001 -2.3428889e+38
0.51487148 -0.15968478 1.567 -2.4093507e+38
0.51785624 -0.15968478 1.567 -2.4627804e+38
0.520841 -0.15968478 1.567 -2.4228527e+38
0.52382576 -0.15968478 1.567 -2.383287e+38
0.52445716 -0.15897144 1.5600001 -2.3966827e+38
0.52979529 -0.15968478 1.567 -2.3967342e+38
0.53040004 -0.15897144 1.5600001 -2.4101821e+38
0.53337145 -0.15897144 1.5600001 -2.409922e+38
0.53634292 -0.15897144 1.5600001 -2.3965776e+38
0.53931433 -0.15897144 1.5600001 -2.3697846e+38
0.54228574 -0.15897144 1.5600001 -2.3829724e+38
0.54525715 -0.15897144 1.5600001 -2.3829201e+38
0.54576862 -0.15825811 1.5530001 -2.3828679e+38
0.54872668 -0.15825811 1.5530001 -2.3694714e+38
0.5516848 -0.15825811 1.5530001 -2.3694193e+38
0.55214292 -0.15754478 1.5460001 -2.3560751e+38
0.55508763 -0.15754478 1.5460001 -2.342783e+38
0.55803239 -0.15754478 1.5460001 -2.3293871e+38
0.56097716 -0.15754478 1.5460001 -2.3292317e+38
0.56392193 -0.15754478 1.5460001 -2.3159914e+38
0.5668667 -0.15754478 1.5460001 -2.2893032e+38
0.56981146 -0.15754478 1.5460001 -2.2628222e+38
0.57275623 -0.15754478 1.5460001 -2.262822e+38
0.575701 -0.15754478 1.5460001 -2.262718e+38
0.57864577 -0.15754478 1.5460001 -2.2758543e+38
0.5845353 -0.15754478 1.5460001 -2.2758014e+38
0.35682574 -0.17590001 1.7590001 -3.1967175e+38
0.35833335 -0.17500001 1.7500001 -1.9461031e+38
0.36166668 -0.17500001 1.7500001 -2.3180295e+38
0.36500001 -0.17500001 1.7500001 -2.6768671e+38
0.36833337 -0.17500001 1.7500001 -2.6234362e+38
0.3716667 -0.17500001 1.7500001 -2.5700582e+38
0.37307146 -0.17410001 1.7410001 -2.5167838e+38
0.37638766 -0.17410001 1.7410001 -2.4766459e+38
0.37774098 -0.17320001 1.7320001 -2.4366119e+38
0.37906003 -0.17230001 1.723 -2.4098713e+38
0.38234192 -0.17230001 1.723 -2.3830789e+38
0.38562384 -0.17230001 1.723 -2.36963e+38
0.38710001 -0.17150001 1.715 -2.3429406e+38
0.3903667 -0.17150001 1.715 -2.3162518e+38
0.39363337 -0.17150001 1.715 -2.3028551e+38
0.39690003 -0.17150001 1.715 -2.2894064e+38
0.3980667 -0.17060001 1.7060001 -2.3026981e+38
0.40131623 -0.17060001 1.7060001 -2.3026453e+38
0.40456575 -0.17060001 1.7060001 -2.2893003e+38
0.40590289 -0.16980001 1.6980001 -2.2758519e+38
0.40913716 -0.16980001 1.6980001 -2.2491111e+38
0.41237146 -0.16980001 1.6980001 -2.2356627e+38
0.41364765 -0.16900001 1.6900001 -2.1559086e+38
0.41686669 -0.16900001 1.6900001 -2.0895506e+38
0.42008573 -0.16900001 1.6900001 -2.0494657e+38
0.4233048 -0.16900001 1.6900001 -2.022674e+38
0.42652383 -0.16900001 1.6900001 -1.9827976e+38
0.42745432 -0.16810001 1.6810001 -1.9425058e+38
0.43065622 -0.16810001 1.6810001 -1.9161811e+38
0.43385813 -0.16810001 1.6810001 -1.8896478e+38
0.43706003 -0.16810001 1.6810001 -1.8631663e+38
0.44026193 -0.16810001 1.6810001 -1.8497698e+38
0.44346383 -0.16810001 1.6810001 -1.8365288e+38
0.44666573 -0.16810001 1.6810001 -1.8231846e+38
0.44986764 -0.16810001 1.6810001 -1.8364249e+38
0.45306957 -0.16810001 1.6810001 -1.8629574e+38
0.45627147 -0.16810001 1.6810001 -1.8363726e+38
0.45947337 -0.16810001 1.6810001 -1.8230805e+38
0.46267527 -0.16810001 1.6810001 -1.8231325e+38
0.46587718 -0.16810001 1.6810001 -1.8231844e+38
0.4668467 -0.16730002 1.6730001 -1.8630612e+38
0.47003338 -0.16730002 1.6730001 -1.9029379e+38
0.47322002 -0.16730002 1.6730001 -1.8895413e+38
0.47868478 -0.16810001 1.6810001 -1.8761975e+38
0.48188668 -0.16810001 1.6810001 -1.9027304e+38
0.48278004 -0.16730002 1.6730001 -1.9292113e+38
0.48596671 -0.16730002 1.6730001 -1.9424518e+38
0.48915336 -0.16730002 1.6730001 -1.9556926e+38
0.49234003 -0.16730002 1.6730001 -1.9557969e+38
0.49315718 -0.16650002 1.6650001 -1.9691934e+38
0.49632859 -0.16650002 1.6650001 -1.9692457e+38
0.49710003 -0.1657 1.6570001 -1.9826435e+38
0.49784097 -0.1649 1.649 -1.9564238e+38
0.50098193 -0.1649 1.649 -1.9303599e+38
0.50167716 -0.16410001 1.641 -1.9706016e+38
0.50018859 -0.16260001 1.626 -2.0107378e+38
0.50080955 -0.16180001 1.618 -2.1304199e+38
0.50389147 -0.16180001 1.618 -2.2502064e+38
0.50478005 -0.16110002 1.6110001 -2.2632912e+38
0.50532669 -0.16030002 1.603 -2.2766356e+38
0.50616002 -0.1596 1.5960001 -2.2897202e+38
0.50920004 -0.1596 1.5960001 -2.316253e+38
0.51224005 -0.1596 1.5960001 -2.3162013e+38
0.51302004 -0.15890001 1.5890001 -2.3161488e+38
0.5134486 -0.15810001 1.5810001 -2.3162518e+38
0.51417339 -0.15740001 1.5740001 -2.3296481e+38
0.51487148 -0.15670002 1.567 -2.3828172e+38
0.51785624 -0.15670002 1.567 -2.449332e+38
0.520841 -0.15670002 1.567 -2.4361967e+38
0.52382576 -0.15670002 1.567 -2.4231121e+38
0.52681053 -0.15670002 1.567 -2.423164e+38
0.52979529 -0.15670002 1.567 -2.4232157e+38
0.53278005 -0.15670002 1.567 -2.4233194e+38
0.53337145 -0.156 1.5600001 -2.4366113e+38
0.53634292 -0.156 1.5600001 -2.4366106e+38
0.53931433 -0.156 1.5600001 -2.4366618e+38
0.54228574 -0.156 1.5600001 -2.423161e+38
0.54525715 -0.156 1.5600001 -2.4231088e+38
0.54576862 -0.15530001 1.5530001 -2.4096604e+38
0.54872668 -0.15530001 1.5530001 -2.3961598e+38
0.5516848 -0.15530001 1.5530001 -2.3828148e+38
0.55214292 -0.15460001 1.5460001 -2.369367e+38
0.55508763 -0.15460001 1.5460001 -2.3694708e+38
0.55803239 -0.15460001 1.5460001 -2.3693674e+38
0.56097716 -0.15460001 1.5460001 -2.3560234e+38
0.56392193 -0.15460001 1.5460001 -2.3559718e+38
0.56981146 -0.15460001 1.5460001 -2.3160952e+38
0.57275623 -0.15460001 1.5460001 -2.3027508e+38
0.575701 -0.15460001 1.5460001 -2.2894064e+38
0.57864577 -0.15460001 1.5460001 -2.3025946e+38
0.5845353 -0.15460001 1.5460001 -2.3025419e+38
0.60514861 -0.15460001 1.5460001 -2.2893028e+38
0.35833335 -0.17166668 1.7500001 -1.932134e+38
0.36166668 -0.17166668 1.7500001 -2.2913914e+38
0.36500001 -0.17166668 1.7500001 -2.6367816e+38
0.36833337 -0.17166668 1.7500001 -2.5834555e+38
0.3716667 -0.17166668 1.7500001 -2.5170452e+38
0.37307146 -0.17078382 1.7410001 -2.4904598e+38
0.37638766 -0.17078382 1.7410001 -2.4502181e+38
0.37774098 -0.16990097 1.7320001 -2.4101322e+38
0.37906003 -0.1690181 1.723 -2.3699951e+38
0.38234192 -0.1690181 1.723 -2.3564945e+38
0.38562384 -0.1690181 1.723 -2.3298053e+38
0.38710001 -0.16823335 1.715 -2.3163566e+38
0.3903667 -0.16823335 1.715 -2.2897196e+38
0.39363337 -0.16823335 1.715 -2.2763228e+38
0.39690003 -0.16823335 1.715 -2.262978e+38
0.3980667 -0.16735049 1.7060001 -2.2761658e+38
0.40131623 -0.16735049 1.7060001 -2.2894052e+38
0.40456575 -0.16735049 1.7060001 -2.276008e+38
0.40590289 -0.16656573 1.6980001 -2.2625592e+38
0.40913716 -0.16656573 1.6980001 -2.2490584e+38
0.41237146 -0.16656573 1.6980001 -2.2225256e+38
0.41560575 -0.16656573 1.6980001 -2.1161352e+38
0.41884002 -0.16656573 1.6980001 -2.009901e+38
0.42008573 -0.16578096 1.6900001 -2.022986e+38
0.4233048 -0.16578096 1.6900001 -2.0362787e+38
0.42652383 -0.16578096 1.6900001 -2.0096947e+38
0.42745432 -0.16489811 1.6810001 -1.9696619e+38
0.43065622 -0.16489811 1.6810001 -1.9431293e+38
0.43385813 -0.16489811 1.6810001 -1.9165439e+38
0.43706003 -0.16489811 1.6810001 -1.8900107e+38
0.44026193 -0.16489811 1.6810001 -1.8499776e+38
0.44346383 -0.16489811 1.6810001 -1.8365811e+38
0.44666573 -0.16489811 1.6810001 -1.8098925e+38
0.44986764 -0.16489811 1.6810001 -1.8231327e+38
0.45306957 -0.16489811 1.6810001 -1.8230805e+38
0.45627147 -0.16489811 1.6810001 -1.8097881e+38
0.45947337 -0.16489811 1.6810001 -1.7964438e+38
0.46267527 -0.16489811 1.6810001 -1.8097361e+38
0.46587718 -0.16489811 1.6810001 -1.8097881e+38
0.46907908 -0.16489811 1.6810001 -1.8363726e+38
0.47228098 -0.16489811 1.6810001 -1.8629568e+38
0.47548288 -0.16489811 1.6810001 -1.8894371e+38
0.47868478 -0.16489811 1.6810001 -1.9160216e+38
0.48188668 -0.16489811 1.6810001 -1.9691388e+38
0.48508862 -0.16489811 1.6810001 -2.0088084e+38
0.48596671 -0.16411334 1.6730001 -1.9954648e+38
0.49149242 -0.16489811 1.6810001 -1.982277e+38
0.49469432 -0.16489811 1.6810001 -1.9823816e+38
0.4955267 -0.16411334 1.6730001 -1.9691938e+38
0.49871337 -0.16411334 1.6730001 -1.956006e+38
0.49950004 -0.16332859 1.6650001 -1.9429226e+38
0.50025624 -0.16254382 1.6570001 -1.9298392e+38
0.50098193 -0.16175906 1.649 -1.9169638e+38
0.50167716 -0.16097429 1.641 -1.9571535e+38
0.50018859 -0.15950286 1.626 -1.9839458e+38
0.50080955 -0.15871811 1.618 -2.1036282e+38
0.50171149 -0.15803143 1.6110001 -2.2100703e+38
0.50227338 -0.15724668 1.603 -2.2365512e+38
0.50532669 -0.15724668 1.603 -2.2498952e+38
0.50616002 -0.15656 1.5960001 -2.28972e+38
0.50920004 -0.15656 1.5960001 -2.3295451e+38
0.51224005 -0.15656 1.5960001 -2.3294416e+38
0.51302004 -0.15587334 1.5890001 -2.316253e+38
0.5134486 -0.15508859 1.5810001 -2.316149e+38
0.51417339 -0.15440191 1.5740001 -2.3030124e+38
0.51487148 -0.15371525 1.567 -2.3694219e+38
0.51785624 -0.15371525 1.567 -2.4228517e+38
0.520841 -0.15371525 1.567 -2.4495411e+38
0.52382576 -0.15371525 1.567 -2.4629891e+38
0.52681053 -0.15371525 1.567 -2.4496971e+38
0.52979529 -0.15371525 1.567 -2.4364567e+38
0.53278005 -0.15371525 1.567 -2.4498526e+38
0.53576481 -0.15371525 1.567 -2.4630924e+38
0.53634292 -0.15302858 1.5600001 -2.4897802e+38
0.53931433 -0.15302858 1.5600001 -2.5030201e+38
0.54228574 -0.15302858 1.5600001 -2.4764873e+38
0.54525715 -0.15302858 1.5600001 -2.4497987e+38
0.54576862 -0.15234192 1.5530001 -2.4365064e+38
0.54872668 -0.15234192 1.5530001 -2.4097131e+38
0.5516848 -0.15234192 1.5530001 -2.3963162e+38
0.55214292 -0.15165524 1.5460001 -2.3829199e+38
0.55508763 -0.15165524 1.5460001 -2.3962639e+38
0.55803239 -0.15165524 1.5460001 -2.3960562e+38
0.56097716 -0.15165524 1.5460001 -2.3960042e+38
0.56392193 -0.15165524 1.5460001 -2.3826602e+38
0.56981146 -0.15165524 1.5460001 -2.369368e+38
0.57275623 -0.15165524 1.5460001 -2.3427313e+38
0.575701 -0.15165524 1.5460001 -2.3160944e+38
0.57864577 -0.15165524 1.5460001 -2.3292826e+38
0.5845353 -0.15165524 1.5460001 -2.3426262e+38
0.58748007 -0.15165524 1.5460001 -2.3292818e+38
0.63451147 -0.15234192 1.5530001 -2.3426822e+38
0.35682574 -0.16919906 1.7590001 -2.7965431e+38
0.35833335 -0.16833335 1.7500001 -2.3307448e+38
0.36166668 -0.16833335 1.7500001 -2.4905661e+38
0.36500001 -0.16833335 1.7500001 -2.6498654e+38
0.36833337 -0.16833335 1.7500001 -2.5702149e+38
0.3716667 -0.16833335 1.7500001 -2.5038572e+38
0.37307146 -0.16746762 1.7410001 -2.4637203e+38
0.37444192 -0.16660191 1.7320001 -2.4368747e+38
0.37774098 -0.16660191 1.7320001 -2.3967368e+38
0.37906003 -0.1657362 1.723 -2.3566513e+38
0.38234192 -0.1657362 1.723 -2.32991e+38
0.38562384 -0.1657362 1.723 -2.3032211e+38
0.38890573 -0.1657362 1.723 -2.2765321e+38
0.39218765 -0.1657362 1.723 -2.2631873e+38
0.39363337 -0.16496667 1.715 -2.2631346e+38
0.39690003 -0.16496667 1.715 -2.24979e+38
0.3980667 -0.16410096 1.7060001 -2.2629778e+38
0.40131623 -0.16410096 1.7060001 -2.276165e+38
0.40456575 -0.16410096 1.7060001 -2.276008e+38
0.40590289 -0.16333143 1.6980001 -2.2891433e+38
0.40913716 -0.16333143 1.6980001 -2.2758498e+38
0.41237146 -0.16333143 1.6980001 -2.2625576e+38
0.41560575 -0.16333143 1.6980001 -2.1829077e+38
0.41884002 -0.16333143 1.6980001 -2.1165512e+38
0.42207432 -0.16333143 1.6980001 -2.1163443e+38
0.4233048 -0.16256191 1.6900001 -2.1163968e+38
0.42652383 -0.16256191 1.6900001 -2.0896052e+38
0.42974287 -0.16256191 1.6900001 -2.0629681e+38
0.43296194 -0.16256191 1.6900001 -2.0230906e+38
0.43618098 -0.16256191 1.6900001 -1.983317e+38
0.43706003 -0.1616962 1.6810001 -1.9564721e+38
0.44026193 -0.1616962 1.6810001 -1.9297835e+38
0.44346383 -0.1616962 1.6810001 -1.8764582e+38
0.44666573 -0.1616962 1.6810001 -1.8364773e+38
0.44986764 -0.1616962 1.6810001 -1.8231327e+38
0.45549527 -0.16256191 1.6900001 -1.8230805e+38
0.45627147 -0.1616962 1.6810001 -1.8097361e+38
0.45947337 -0.1616962 1.6810001 -1.8096842e+38
0.46267527 -0.1616962 1.6810001 -1.8230282e+38
0.46587718 -0.1616962 1.6810001 -1.8363205e+38
0.46907908 -0.1616962 1.6810001 -1.862905e+38
0.47228098 -0.1616962 1.6810001 -1.8894371e+38
0.47548288 -0.1616962 1.6810001 -1.916021e+38
0.47868478 -0.1616962 1.6810001 -1.9425535e+38
0.48188668 -0.1616962 1.6810001 -1.9556896e+38
0.48508862 -0.1616962 1.6810001 -1.9818596e+38
0.48596671 -0.16092667 1.6730001 -1.9555354e+38
0.48915336 -0.16092667 1.6730001 -1.9422961e+38
0.49469432 -0.1616962 1.6810001 -1.9425048e+38
0.4955267 -0.16092667 1.6730001 -1.9559017e+38
0.49871337 -0.16092667 1.6730001 -1.9560583e+38
0.49950004 -0.16015716 1.6650001 -1.956267e+38
0.50025624 -0.15938763 1.6570001 -1.9564757e+38
0.50098193 -0.15861811 1.649 -1.9568406e+38
0.50167716 -0.15784858 1.641 -1.9969263e+38
0.50018859 -0.15640572 1.626 -2.0502516e+38
0.50080955 -0.15563621 1.618 -2.1301094e+38
0.50171149 -0.15496287 1.6110001 -2.2099152e+38
0.50227338 -0.15419334 1.603 -2.2365517e+38
0.50532669 -0.15419334 1.603 -2.2631358e+38
0.50616002 -0.15352 1.5960001 -2.2897717e+38
0.50920004 -0.15352 1.5960001 -2.3163566e+38
0.51224005 -0.15352 1.5960001 -2.3298049e+38
0.51302004 -0.15284668 1.5890001 -2.3430976e+38
0.5134486 -0.15207715 1.5810001 -2.3298574e+38
0.51417339 -0.15140381 1.5740001 -2.3164613e+38
0.51487148 -0.15073049 1.567 -2.369786e+38
0.51785624 -0.15073049 1.567 -2.4231636e+38
0.520841 -0.15073049 1.567 -2.4364565e+38
0.52382576 -0.15073049 1.567 -2.4630415e+38
0.52681053 -0.15073049 1.567 -2.4364052e+38
0.52979529 -0.15073049 1.567 -2.4229571e+38
0.53278005 -0.15073049 1.567 -2.423061e+38
0.53576481 -0.15073049 1.567 -2.4229563e+38
0.53634292 -0.15005715 1.5600001 -2.4496958e+38
0.53931433 -0.15005715 1.5600001 -2.4762806e+38
0.54228574 -0.15005715 1.5600001 -2.4497482e+38
0.54525715 -0.15005715 1.5600001 -2.436508e+38
0.54576862 -0.14938381 1.5530001 -2.4231638e+38
0.54872668 -0.14938381 1.5530001 -2.423059e+38
0.5516848 -0.14938381 1.5530001 -2.4096616e+38
0.55214292 -0.14871049 1.5460001 -2.396317e+38
0.55508763 -0.14871049 1.5460001 -2.4094529e+38
0.55803239 -0.14871049 1.5460001 -2.4225373e+38
0.56097716 -0.14871049 1.5460001 -2.4093485e+38
0.56981146 -0.14871049 1.5460001 -2.382712e+38
0.57275623 -0.14871049 1.5460001 -2.3560753e+38
0.575701 -0.14871049 1.5460001 -2.3427307e+38
0.57864577 -0.14871049 1.5460001 -2.3426781e+38
0.58159053 -0.14871049 1.5460001 -2.3427301e+38
0.5845353 -0.14871049 1.5460001 -2.3293857e+38
0.58748007 -0.14871049 1.5460001 -2.3160934e+38
0.59042478 -0.14871049 1.5460001 -2.3026973e+38
0.62281716 -0.14871049 1.5460001 -2.2495823e+38
0.62576193 -0.14871049 1.5460001 -2.2761153e+38
0.62870669 -0.14871049 1.5460001 -2.2895123e+38
0.63451147 -0.14938381 1.5530001 -2.3293378e+38
0.63459623 -0.14871049 1.5460001 -2.3560272e+38
0.64042765 -0.14938381 1.5530001 -2.3962683e+38
0.65217054 -0.15073049 1.567 -2.3431528e+38
0.35682574 -0.16584858 1.7590001 -2.5179269e+38
0.36017621 -0.16584858 1.7590001 -2.7301369e+38
0.3635267 -0.16584858 1.7590001 -2.7034495e+38
0.36500001 -0.16500001 1.7500001 -2.6634165e+38
0.36833337 -0.16500001 1.7500001 -2.570318e+38
0.3716667 -0.16500001 1.7500001 -2.4770641e+38
0.37307146 -0.16415145 1.7410001 -2.4503236e+38
0.37638766 -0.16415145 1.7410001 -2.4101857e+38
0.37774098 -0.16330287 1.7320001 -2.3700478e+38
0.37906003 -0.16245429 1.723 -2.3299625e+38
0.38234192 -0.16245429 1.723 -2.3032731e+38
0.38562384 -0.16245429 1.723 -2.2632401e+38
0.38890573 -0.16245429 1.723 -2.2498952e+38
0.39218765 -0.16245429 1.723 -2.2365504e+38
0.39363337 -0.16170001 1.715 -2.2366017e+38
0.39875147 -0.16245429 1.723 -2.2364977e+38
0.40016669 -0.16170001 1.715 -2.2497379e+38
0.40531525 -0.16245429 1.723 -2.2495811e+38
0.40456575 -0.16085143 1.7060001 -2.276061e+38
0.40781528 -0.16085143 1.7060001 -2.3025926e+38
0.40913716 -0.16009715 1.6980001 -2.3025397e+38
0.41237146 -0.16009715 1.6980001 -2.3026952e+38
0.41560575 -0.16009715 1.6980001 -2.2630261e+38
0.41884002 -0.16009715 1.6980001 -2.2095975e+38
0.42207432 -0.16009715 1.6980001 -2.1962018e+38
0.42530859 -0.16009715 1.6980001 -2.1828061e+38
0.42652383 -0.15934287 1.6900001 -2.1693587e+38
0.42974287 -0.15934287 1.6900001 -2.1560139e+38
0.43296194 -0.15934287 1.6900001 -2.1028441e+38
0.43618098 -0.15934287 1.6900001 -2.0362787e+38
0.43706003 -0.15849429 1.6810001 -2.0228302e+38
0.44026193 -0.15849429 1.6810001 -1.9961414e+38
0.44346383 -0.15849429 1.6810001 -1.9294719e+38
0.44666573 -0.15849429 1.6810001 -1.8630101e+38
0.44986764 -0.15849429 1.6810001 -1.8363732e+38
0.45549527 -0.15934287 1.6900001 -1.8097363e+38
0.45871431 -0.15934287 1.6900001 -1.8096842e+38
0.45947337 -0.15849429 1.6810001 -1.8097359e+38
0.46267527 -0.15849429 1.6810001 -1.8364243e+38
0.46587718 -0.15849429 1.6810001 -1.8496126e+38
0.46907908 -0.15849429 1.6810001 -1.8894375e+38
0.47228098 -0.15849429 1.6810001 -1.9159695e+38
0.47548288 -0.15849429 1.6810001 -1.9425537e+38
0.47868478 -0.15849429 1.6810001 -1.969138e+38
0.48188668 -0.15849429 1.6810001 -1.9557415e+38
0.48508862 -0.15849429 1.6810001 -1.9423462e+38
0.48829052 -0.15849429 1.6810001 -1.9158141e+38
0.49149242 -0.15849429 1.6810001 -1.8892306e+38
0.49469432 -0.15849429 1.6810001 -1.9159198e+38
0.49789622 -0.15849429 1.6810001 -1.9426094e+38
0.50109816 -0.15849429 1.6810001 -1.9560068e+38
0.50190002 -0.15774001 1.6730001 -1.9695078e+38
0.50267148 -0.15698573 1.6650001 -1.9829568e+38
0.50341243 -0.15623143 1.6570001 -1.9833732e+38
0.50167716 -0.15472287 1.641 -2.0500431e+38
0.50018859 -0.15330859 1.626 -2.1167126e+38
0.50080955 -0.15255429 1.618 -2.1566418e+38
0.50171149 -0.1518943 1.6110001 -2.196571e+38
0.50227338 -0.15114 1.603 -2.2365001e+38
0.50532669 -0.15114 1.603 -2.2631366e+38
0.50616002 -0.15048002 1.5960001 -2.2897731e+38
0.50920004 -0.15048002 1.5960001 -2.3033256e+38
0.51224005 -0.15048002 1.5960001 -2.3435146e+38
0.51302004 -0.14982001 1.5890001 -2.3701509e+38
0.5134486 -0.14906572 1.5810001 -2.3569624e+38
0.51417339 -0.14840573 1.5740001 -2.3302736e+38
0.51487148 -0.14774573 1.567 -2.3701503e+38
0.51785624 -0.14774573 1.567 -2.4099754e+38
0.520841 -0.14774573 1.567 -2.4365601e+38
0.52382576 -0.14774573 1.567 -2.4630411e+38
0.52681053 -0.14774573 1.567 -2.4364046e+38
0.52979529 -0.14774573 1.567 -2.396372e+38
0.53278005 -0.14774573 1.567 -2.396372e+38
0.53337145 -0.14708573 1.5600001 -2.3831314e+38
0.53634292 -0.14708573 1.5600001 -2.42306e+38
0.53931433 -0.14708573 1.5600001 -2.4496962e+38
0.54228574 -0.14708573 1.5600001 -2.436352e+38
0.54525715 -0.14708573 1.5600001 -2.4098196e+38
0.54576862 -0.14642572 1.5530001 -2.4231121e+38
0.54872668 -0.14642572 1.5530001 -2.4230594e+38
0.5516848 -0.14642572 1.5530001 -2.4229545e+38
0.55214292 -0.14576572 1.5460001 -2.409558e+38
0.55508763 -0.14576572 1.5460001 -2.422746e+38
0.55803239 -0.14576572 1.5460001 -2.4360379e+38
0.56981146 -0.14576572 1.5460001 -2.3827639e+38
0.57275623 -0.14576572 1.5460001 -2.3693678e+38
0.575701 -0.14576572 1.5460001 -2.3560232e+38
0.57864577 -0.14576572 1.5460001 -2.3427305e+38
0.58159053 -0.14576572 1.5460001 -2.3293339e+38
0.5845353 -0.14576572 1.5460001 -2.3159895e+38
0.58748007 -0.14576572 1.5460001 -2.3026973e+38
0.59042478 -0.14576572 1.5460001 -2.2893531e+38
0.61398292 -0.14576572 1.5460001 -2.2359777e+38
0.61692768 -0.14576572 1.5460001 -2.2094969e+38
0.61987245 -0.14576572 1.5460001 -2.2096008e+38
0.62281716 -0.14576572 1.5460001 -2.209601e+38
0.62576193 -0.14576572 1.5460001 -2.2361338e+38
0.62870669 -0.14576572 1.5460001 -2.2494784e+38
0.63451147 -0.14642572 1.5530001 -2.3025962e+38
0.63746959 -0.14642572 1.5530001 -2.3558179e+38
0.64042765 -0.14642572 1.5530001 -2.3958513e+38
0.64628577 -0.14708573 1.5600001 -2.435989e+38
0.65217054 -0.14774573 1.567 -2.2493789e+38
0.65808195 -0.14840573 1.5740001 -2.0644313e+38
0.66108006 -0.14840573 1.5740001 -2.9975931e+38
0.66703147 -0.14906572 1.5810001 nan
0.67343336 -0.14982001 1.5890001 nan
0.67646003 -0.14982001 1.5890001 nan
0.35682574 -0.1624981 1.7590001 -2.6372481e+38
0.36017621 -0.1624981 1.7590001 -2.7302934e+38
0.3635267 -0.1624981 1.7590001 -2.6770199e+38
0.36500001 -0.16166668 1.7500001 -2.636883e+38
0.36833337 -0.16166668 1.7500001 -2.5568691e+38
0.3716667 -0.16166668 1.7500001 -2.4768556e+38
0.37500003 -0.16166668 1.7500001 -2.4368228e+38
0.37638766 -0.16083525 1.7410001 -2.3966851e+38
0.37774098 -0.16000383 1.7320001 -2.3698915e+38
0.37906003 -0.15917239 1.723 -2.3298061e+38
0.38234192 -0.15917239 1.723 -2.2898246e+38
0.38562384 -0.15917239 1.723 -2.2497916e+38
0.38890573 -0.15917239 1.723 -2.2496871e+38
0.39218765 -0.15917239 1.723 -2.2497387e+38
0.39546955 -0.15917239 1.723 -2.2496861e+38
0.39875147 -0.15917239 1.723 -2.2496861e+38
0.40203336 -0.15917239 1.723 -2.2496342e+38
0.40531525 -0.15917239 1.723 -2.2495819e+38
0.40456575 -0.15760191 1.7060001 -2.2628216e+38
0.40590289 -0.15686287 1.6980001 -2.2761131e+38
0.4110648 -0.15760191 1.7060001 -2.2761123e+38
0.41237146 -0.15686287 1.6980001 -2.2762679e+38
0.41560575 -0.15686287 1.6980001 -2.236131e+38
0.41884002 -0.15686287 1.6980001 -2.1960982e+38
0.42207432 -0.15686287 1.6980001 -2.1960978e+38
0.42530859 -0.15686287 1.6980001 -2.182754e+38
0.42652383 -0.15612382 1.6900001 -2.1693063e+38
0.42974287 -0.15612382 1.6900001 -2.1427214e+38
0.43296194 -0.15612382 1.6900001 -2.1026882e+38
0.43618098 -0.15612382 1.6900001 -2.0760519e+38
0.43706003 -0.15529239 1.6810001 -2.0226751e+38
0.44026193 -0.15529239 1.6810001 -1.9694534e+38
0.44346383 -0.15529239 1.6810001 -1.9161798e+38
0.44666573 -0.15529239 1.6810001 -1.8629065e+38
0.44986764 -0.15529239 1.6810001 -1.8496138e+38
0.45549527 -0.15612382 1.6900001 -1.8495615e+38
0.45871431 -0.15612382 1.6900001 -1.8362686e+38
0.45947337 -0.15529239 1.6810001 -1.8230801e+38
0.46267527 -0.15529239 1.6810001 -1.8495606e+38
0.46587718 -0.15529239 1.6810001 -1.8627489e+38
0.46907908 -0.15529239 1.6810001 -1.8893332e+38
0.47228098 -0.15529239 1.6810001 -1.9159176e+38
0.47548288 -0.15529239 1.6810001 -1.9425537e+38
0.47868478 -0.15529239 1.6810001 -1.9559496e+38
0.48188668 -0.15529239 1.6810001 -1.9690857e+38
0.48508862 -0.15529239 1.6810001 -1.9691382e+38
0.48829052 -0.15529239 1.6810001 -1.9424504e+38
0.49149242 -0.15529239 1.6810001 -1.929107e+38
0.49469432 -0.15529239 1.6810001 -1.9690366e+38
0.49789622 -0.15529239 1.6810001 -2.0222593e+38
0.50109816 -0.15529239 1.6810001 -2.0357607e+38
0.50190002 -0.15455334 1.6730001 -2.0492099e+38
0.50267148 -0.1538143 1.6650001 -2.0229898e+38
0.50341243 -0.15307525 1.6570001 -2.0100616e+38
0.50167716 -0.15159716 1.641 -2.0634389e+38
0.50018859 -0.15021144 1.626 -2.1168163e+38
0.50080955 -0.14947239 1.618 -2.1699339e+38
0.50171149 -0.14882572 1.6110001 -2.236344e+38
0.50478005 -0.14882572 1.6110001 -2.2496888e+38
0.50532669 -0.14808668 1.603 -2.2764297e+38
0.50616002 -0.14744002 1.5960001 -2.2899303e+38
0.50920004 -0.14744002 1.5960001 -2.3168272e+38
0.51224005 -0.14744002 1.5960001 -2.330328e+38
0.51302004 -0.14679334 1.5890001 -2.3572237e+38
0.5134486 -0.1460543 1.5810001 -2.3704115e+38
0.51646006 -0.1460543 1.5810001 -2.3970995e+38
0.51717144 -0.14540763 1.5740001 -2.423424e+38
0.52016956 -0.14540763 1.5740001 -2.4632488e+38
0.520841 -0.14476097 1.567 -2.4763849e+38
0.52382576 -0.14476097 1.567 -2.4895214e+38
0.52681053 -0.14476097 1.567 -2.4628328e+38
0.52979529 -0.14476097 1.567 -2.4360924e+38
0.53278005 -0.14476097 1.567 -2.4096636e+38
0.53576481 -0.14476097 1.567 -2.3964237e+38
0.53874958 -0.14476097 1.567 -2.4231123e+38
0.53931433 -0.1441143 1.5600001 -2.4629887e+38
0.54228574 -0.1441143 1.5600001 -2.4496441e+38
0.54525715 -0.1441143 1.5600001 -2.4363522e+38
0.54822862 -0.1441143 1.5600001 -2.4363527e+38
0.55120003 -0.1441143 1.5600001 -2.4495924e+38
0.5516848 -0.14346763 1.5530001 -2.4362474e+38
0.55214292 -0.14282095 1.5460001 -2.4361433e+38
0.55508763 -0.14282095 1.5460001 -2.4228507e+38
0.55803239 -0.14282095 1.5460001 -2.422902e+38
0.56981146 -0.14282095 1.5460001 -2.3694718e+38
0.57275623 -0.14282095 1.5460001 -2.3560757e+38
0.575701 -0.14282095 1.5460001 -2.3560234e+38
0.57864577 -0.14282095 1.5460001 -2.3426268e+38
0.58159053 -0.14282095 1.5460001 -2.315938e+38
0.5845353 -0.14282095 1.5460001 -2.3026453e+38
0.58748007 -0.14282095 1.5460001 -2.2760088e+38
0.59042478 -0.14282095 1.5460001 -2.2759567e+38
0.60514861 -0.14282095 1.5460001 -2.2756969e+38
0.60809338 -0.14282095 1.5460001 -2.2625083e+38
0.61103815 -0.14282095 1.5460001 -2.2492685e+38
0.61398292 -0.14282095 1.5460001 -2.2360288e+38
0.61692768 -0.14282095 1.5460001 -2.236029e+38
0.61987245 -0.14282095 1.5460001 -2.2361328e+38
0.62563717 -0.14346763 1.5530001 -2.2228407e+38
0.62859529 -0.14346763 1.5530001 -2.2494772e+38
0.63155335 -0.14346763 1.5530001 -2.2627697e+38
0.63451147 -0.14346763 1.5530001 -2.302491e+38
0.63746959 -0.14346763 1.5530001 -2.3289723e+38
0.64042765 -0.14346763 1.5530001 -2.3690055e+38
0.64628577 -0.1441143 1.5600001 -2.3957473e+38
0.65217054 -0.14476097 1.567 -2.3292354e+38
0.6551553 -0.14476097 1.567 -2.2498466e+38
0.66108006 -0.14540763 1.5740001 -2.7971161e+38
0.66703147 -0.1460543 1.5810001 -3.3305767e+38
0.67004287 -0.1460543 1.5810001 nan
0.67305434 -0.1460543 1.5810001 nan
0.67606574 -0.1460543 1.5810001 nan
0.35682574 -0.15914764 1.7590001 -2.7712639e+38
0.36017621 -0.15914764 1.7590001 -2.7174701e+38
0.3635267 -0.15914764 1.7590001 -2.6639359e+38
0.36500001 -0.15833335 1.7500001 -2.5969545e+38
0.36833337 -0.15833335 1.7500001 -2.5433691e+38
0.3716667 -0.15833335 1.7500001 -2.4766994e+38
0.37500003 -0.15833335 1.7500001 -2.4366141e+38
0.37638766 -0.15751906 1.7410001 -2.3832363e+38
0.37774098 -0.15670477 1.7320001 -2.356443e+38
0.37906003 -0.15589048 1.723 -2.3296497e+38
0.38234192 -0.15589048 1.723 -2.2896159e+38
0.38562384 -0.15589048 1.723 -2.2362902e+38
0.38890573 -0.15589048 1.723 -2.249374e+38
0.39218765 -0.15589048 1.723 -2.2494776e+38
0.39546955 -0.15589048 1.723 -2.2626661e+38
0.39875147 -0.15589048 1.723 -2.262822e+38
0.40203336 -0.15589048 1.723 -2.2627703e+38
0.40531525 -0.15589048 1.723 -2.2494776e+38
0.40456575 -0.1543524 1.7060001 -2.2494772e+38
0.40590289 -0.15362859 1.6980001 -2.2361324e+38
0.40913716 -0.15362859 1.6980001 -2.2494243e+38
0.41237146 -0.15362859 1.6980001 -2.24932e+38
0.41560575 -0.15362859 1.6980001 -2.2224753e+38
0.41884002 -0.15362859 1.6980001 -2.1826499e+38
0.42207432 -0.15362859 1.6980001 -2.1826495e+38
0.42530859 -0.15362859 1.6980001 -2.1825459e+38
0.42652383 -0.15290478 1.6900001 -2.1558575e+38
0.42974287 -0.15290478 1.6900001 -2.1292208e+38
0.43296194 -0.15290478 1.6900001 -2.1157206e+38
0.43618098 -0.15290478 1.6900001 -2.1022726e+38
0.43706003 -0.15209049 1.6810001 -2.0223112e+38
0.44026193 -0.15209049 1.6810001 -1.9426608e+38
0.44346383 -0.15209049 1.6810001 -1.9027835e+38
0.44666573 -0.15209049 1.6810001 -1.8629063e+38
0.45227623 -0.15290478 1.6900001 -1.8761462e+38
0.45549527 -0.15290478 1.6900001 -1.876146e+38
0.45871431 -0.15290478 1.6900001 -1.8628016e+38
0.46193337 -0.15290478 1.6900001 -1.8361649e+38
0.46515241 -0.15290478 1.6900001 -1.8626974e+38
0.46837145 -0.15290478 1.6900001 -1.8759375e+38
0.46907908 -0.15209049 1.6810001 -1.9024699e+38
0.47228098 -0.15209049 1.6810001 -1.9158137e+38
0.47548288 -0.15209049 1.6810001 -1.9291575e+38
0.47868478 -0.15209049 1.6810001 -1.9423977e+38
0.48188668 -0.15209049 1.6810001 -1.9688261e+38
0.48508862 -0.15209049 1.6810001 -1.9955149e+38
0.48829052 -0.15209049 1.6810001 -1.9822232e+38
0.49149242 -0.15209049 1.6810001 -1.9556393e+38
0.49469432 -0.15209049 1.6810001 -2.0354976e+38
0.50056195 -0.15290478 1.6900001 -2.1020121e+38
0.50109816 -0.15209049 1.6810001 -2.1154616e+38
0.50430006 -0.15209049 1.6810001 -2.1157226e+38
