# .PCD v0.7 - Point Cloud Data file format
VERSION 0.7
FIELDS x y z rgb
SIZE 4 4 4 4
TYPE F F F F
COUNT 1 1 1 1
WIDTH 1074
HEIGHT 1
VIEWPOINT 0 0 0 1 0 0 0
POINTS 1074
DATA ascii
2.7409129 -0.11637846 2.0635731 -2.2221615e+38
2.7409017 -0.1212375 2.0635731 -2.182336e+38
2.7218914 -0.12567297 2.0574389 -2.1956798e+38
2.7218804 -0.13049582 2.0574389 -2.2089722e+38
2.7218692 -0.13531867 2.0574389 -2.2489012e+38
2.7218583 -0.14014152 2.0574389 -2.2887267e+38
2.7218473 -0.14496435 2.0574389 -2.3152081e+38
2.7218361 -0.1497872 2.0574389 -2.3287604e+38
2.7038264 -0.15400307 2.0516274 -2.3686378e+38
2.685817 -0.15815037 2.0458159 -2.3955868e+38
2.685806 -0.16290464 2.0458159 -2.4356203e+38
2.6677969 -0.16694906 2.0400045 -2.4757058e+38
2.6677861 -0.17166907 2.0400045 -2.4889989e+38
2.6677752 -0.17638904 2.0400045 -2.4893632e+38
2.6677644 -0.18110904 2.0400045 -2.4762794e+38
2.6677535 -0.18582901 2.0400045 -2.4633516e+38
2.6677427 -0.19054902 2.0400045 -2.5300217e+38
2.667732 -0.19526902 2.0400045 -2.5964839e+38
2.667721 -0.19998899 2.0400045 -2.6231212e+38
2.6497123 -0.20372486 2.034193 -2.6498617e+38
2.6497016 -0.20841056 2.034193 -2.6633619e+38
2.6496909 -0.21309626 2.034193 -2.676499e+38
2.6326823 -0.21675536 2.0287046 -2.6764477e+38
2.6326718 -0.22140869 2.0287046 -2.6627394e+38
2.6326611 -0.226062 2.0287046 -2.3976204e+38
2.6326504 -0.23071533 2.0287046 -2.1319358e+38
2.6326396 -0.23536867 2.0287046 -2.1588893e+38
2.6326292 -0.24002197 2.0287046 -2.186044e+38
2.6326184 -0.24467531 2.0287046 -2.1174527e+38
2.6326077 -0.24932861 2.0287046 -2.0537463e+38
2.632597 -0.25398192 2.0287046 -2.5065695e+38
2.6325865 -0.25863525 2.0287046 -2.9476598e+38
2.6495726 -0.26463899 2.034193 nan
2.6495619 -0.26932469 2.034193 nan
2.6495512 -0.27401039 2.034193 nan
2.6495404 -0.27869609 2.034193 nan
2.6495297 -0.28338179 2.034193 nan
2.649519 -0.28806749 2.034193 nan
2.6495082 -0.29275322 2.034193 nan
2.8801656 -0.0062240735 2.1033263 nan
2.8801539 -0.011347886 2.1033263 nan
2.8801422 -0.016471673 2.1033263 nan
2.8801303 -0.021595474 2.1033263 nan
2.859118 -0.027051121 2.0965865 nan
2.8391056 -0.032412875 2.0901675 nan
2.8190935 -0.03769844 2.0837483 nan
2.7990816 -0.042907815 2.0773292 nan
2.7990701 -0.047877327 2.0773292 nan
2.7990587 -0.052846834 2.0773292 nan
2.7990472 -0.057816349 2.0773292 -2.6469301e+38
2.779036 -0.062835246 2.0709102 -1.7414021e+38
2.7600245 -0.067777388 2.0648122 -2.4754973e+38
2.7600133 -0.072672613 2.0648122 -3.2223644e+38
2.7600019 -0.077567838 2.0648122 nan
2.7599907 -0.082463063 2.0648122 nan
2.7599795 -0.087358288 2.0648122 nan
2.7599683 -0.092253514 2.0648122 nan
2.7409575 -0.09694232 2.0587142 -2.7552041e+38
2.7409463 -0.10180136 2.0587142 -1.8364787e+38
2.7409351 -0.1066604 2.0587142 -2.0492067e+38
2.7409241 -0.11151943 2.0587142 -2.27559e+38
2.7219136 -0.11602729 2.0526159 -2.2488489e+38
2.7219024 -0.12085013 2.0526159 -2.2355045e+38
2.7218914 -0.12567297 2.0526159 -2.2355041e+38
2.7218804 -0.13049582 2.0526159 -2.2488491e+38
2.7218692 -0.13531867 2.0526159 -2.2754862e+38
2.7218583 -0.14014152 2.0526159 -2.3153117e+38
2.7218473 -0.14496435 2.0526159 -2.3288123e+38
2.7038374 -0.14921451 2.0468388 -2.3554494e+38
2.685828 -0.15339608 2.0410616 -2.3823461e+38
2.6678185 -0.15750909 2.0352845 -2.4091391e+38
2.6678076 -0.16222909 2.0352845 -2.4492764e+38
2.6677969 -0.16694906 2.0352845 -2.4893619e+38
2.6677861 -0.17166907 2.0352845 -2.4895185e+38
2.6677752 -0.17638904 2.0352845 -2.489727e+38
2.6677644 -0.18110904 2.0352845 -2.4765913e+38
2.6677535 -0.18582901 2.0352845 -2.4769037e+38
2.6497445 -0.18966776 2.0295074 -2.5166773e+38
2.6497338 -0.19435346 2.0295074 -2.5566067e+38
2.6497231 -0.19903916 2.0295074 -2.5832437e+38
2.6497123 -0.20372486 2.0295074 -2.6099849e+38
2.6497016 -0.20841056 2.0295074 -2.6231741e+38
2.6496909 -0.21309626 2.0295074 -2.6497597e+38
2.6326823 -0.21675536 2.0240512 -2.6497605e+38
2.6326718 -0.22140869 2.0240512 -2.6500727e+38
2.6326611 -0.226062 2.0240512 -2.4903063e+38
2.6326504 -0.23071533 2.0240512 -2.330745e+38
2.6326396 -0.23536867 2.0240512 -2.3439831e+38
2.6326292 -0.24002197 2.0240512 -2.3566509e+38
2.6326184 -0.24467531 2.0240512 -2.3302724e+38
2.6326077 -0.24932861 2.0240512 -2.316725e+38
2.632597 -0.25398192 2.0240512 -2.3850601e+38
2.6325865 -0.25863525 2.0240512 -2.4661211e+38
2.6495726 -0.26463899 2.0295074 -3.0000544e+38
2.6495619 -0.26932469 2.0295074 nan
2.6495512 -0.27401039 2.0295074 nan
2.6495404 -0.27869609 2.0295074 nan
2.6495297 -0.28338179 2.0295074 nan
2.649519 -0.28806749 2.0295074 nan
2.6495082 -0.29275322 2.0295074 nan
2.9012024 0.0097591653 2.1049027 nan
2.9011908 0.0045953691 2.1049027 nan
2.8801773 -0.0011002794 2.0982027 nan
2.8801656 -0.0062240735 2.0982027 nan
2.8801539 -0.011347886 2.0982027 nan
2.8591413 -0.01688353 2.0915027 nan
2.8591297 -0.021967325 2.0915027 nan
2.8391173 -0.027367175 2.0851216 nan
2.8391056 -0.032412875 2.0851216 nan
2.8190935 -0.03769844 2.0787406 nan
2.7990816 -0.042907815 2.0723598 nan
2.7990701 -0.047877327 2.0723598 nan
2.7990587 -0.052846834 2.0723598 nan
2.7790473 -0.057903826 2.0659788 -3.1904143e+38
2.779036 -0.062835246 2.0659788 -1.7286825e+38
2.7600245 -0.067777388 2.059917 -2.30176e+38
2.7410131 -0.072647147 2.0538549 -2.8626402e+38
2.7600019 -0.077567838 2.059917 nan
2.7599907 -0.082463063 2.059917 nan
2.7409797 -0.087224253 2.0538549 nan
2.7409685 -0.09208329 2.0538549 -3.3947953e+38
2.7409575 -0.09694232 2.0538549 -2.5929414e+38
2.7409463 -0.10180136 2.0538549 -1.7830477e+38
2.7409351 -0.1066604 2.0538549 -2.0361732e+38
2.7409241 -0.11151943 2.0538549 -2.2755377e+38
2.7219136 -0.11602729 2.0477931 -2.2754854e+38
2.7219024 -0.12085013 2.0477931 -2.2753817e+38
2.7218914 -0.12567297 2.0477931 -2.2753298e+38
2.7218804 -0.13049582 2.0477931 -2.2754866e+38
2.7218692 -0.13531867 2.0477931 -2.302176e+38
2.7218583 -0.14014152 2.0477931 -2.3289691e+38
2.7038484 -0.14442596 2.0420504 -2.355814e+38
2.7038374 -0.14921451 2.0420504 -2.3825029e+38
2.685828 -0.15339608 2.0363073 -2.3960552e+38
2.6678185 -0.15750909 2.0305645 -2.4094517e+38
2.6678076 -0.16222909 2.0305645 -2.4629847e+38
2.6677969 -0.16694906 2.0305645 -2.5029145e+38
2.6677861 -0.17166907 2.0305645 -2.489883e+38
2.6677752 -0.17638904 2.0305645 -2.4764873e+38
2.649766 -0.18029635 2.0248218 -2.4766956e+38
2.6497552 -0.18498205 2.0248218 -2.4766439e+38
2.6497445 -0.18966776 2.0248218 -2.5032286e+38
2.6497338 -0.19435346 2.0248218 -2.5166252e+38
2.6497231 -0.19903916 2.0248218 -2.543262e+38
2.6497123 -0.20372486 2.0248218 -2.5564513e+38
2.6497016 -0.20841056 2.0248218 -2.5961213e+38
2.6496909 -0.21309626 2.0248218 -2.6228103e+38
2.6326823 -0.21675536 2.0193977 -2.6360512e+38
2.6326718 -0.22140869 2.0193977 -2.6361553e+38
2.6326611 -0.226062 2.0193977 -2.5828306e+38
2.6326504 -0.23071533 2.0193977 -2.5296582e+38
2.6326396 -0.23536867 2.0193977 -2.5297067e+38
2.6326292 -0.24002197 2.0193977 -2.5165722e+38
2.6326184 -0.24467531 2.0193977 -2.5567626e+38
2.6326077 -0.24932861 2.0193977 -2.5829342e+38
2.632597 -0.25398192 2.0193977 -2.2773181e+38
2.6325865 -0.25863525 2.0193977 -1.9722733e+38
2.6495726 -0.26463899 2.0248218 -2.0652701e+38
2.6495619 -0.26932469 2.0248218 -2.1615406e+38
2.6495512 -0.27401039 2.0248218 -3.1609592e+38
2.6495404 -0.27869609 2.0248218 nan
2.6495297 -0.28338179 2.0248218 nan
2.649519 -0.28806749 2.0248218 nan
2.6495082 -0.29275322 2.0248218 nan
2.6494975 -0.29743892 2.0248218 nan
2.9442296 0.021503411 2.1133759 nan
2.9012024 0.0097591653 2.0997388 nan
2.9011908 0.0045953691 2.0997388 nan
2.8801773 -0.0011002794 2.0930789 nan
2.8801656 -0.0062240735 2.0930789 nan
2.8801539 -0.011347886 2.0930789 nan
2.8591413 -0.01688353 2.0864189 nan
2.8591297 -0.021967325 2.0864189 nan
2.8391173 -0.027367175 2.080076 nan
2.8191049 -0.032690834 2.0737331 nan
2.8190935 -0.03769844 2.0737331 nan
2.7990816 -0.042907815 2.0673902 nan
2.7990701 -0.047877327 2.0673902 nan
2.7990587 -0.052846834 2.0673902 nan
2.7790473 -0.057903826 2.0610473 -2.9413461e+38
2.7600358 -0.062882163 2.0550218 -1.7546976e+38
2.7410243 -0.067788117 2.048996 -2.1686265e+38
2.7410131 -0.072647147 2.048996 -2.5821505e+38
2.7600019 -0.077567838 2.0550218 -3.289818e+38
2.7599907 -0.082463063 2.0550218 nan
2.7409797 -0.087224253 2.048996 -3.3025308e+38
2.7409685 -0.09208329 2.048996 -2.6106506e+38
2.7409575 -0.09694232 2.048996 -2.3020655e+38
2.7409463 -0.10180136 2.048996 -2.0090664e+38
2.7409351 -0.1066604 2.048996 -2.1557508e+38
2.7219245 -0.11120445 2.0429702 -2.3021218e+38
2.7219136 -0.11602729 2.0429702 -2.3020699e+38
2.7219024 -0.12085013 2.0429702 -2.3019667e+38
2.7218914 -0.12567297 2.0429702 -2.3154151e+38
2.7218804 -0.13049582 2.0429702 -2.3154685e+38
2.7218692 -0.13531867 2.0429702 -2.3156255e+38
2.7218583 -0.14014152 2.0429702 -2.3158861e+38
2.7038484 -0.14442596 2.0372617 -2.3426274e+38
2.7038374 -0.14921451 2.0372617 -2.3694718e+38
2.685828 -0.15339608 2.031553 -2.3694199e+38
2.6678185 -0.15750909 2.0258446 -2.3829199e+38
2.6678076 -0.16222909 2.0258446 -2.4228486e+38
2.6677969 -0.16694906 2.0258446 -2.4496942e+38
2.6677861 -0.17166907 2.0258446 -2.4496435e+38
2.6677752 -0.17638904 2.0258446 -2.4496437e+38
2.649766 -0.18029635 2.0201359 -2.46304e+38
2.6497552 -0.18498205 2.0201359 -2.4763321e+38
2.6497445 -0.18966776 2.0201359 -2.4764358e+38
2.6497338 -0.19435346 2.0201359 -2.489884e+38
2.6497231 -0.19903916 2.0201359 -2.5030725e+38
2.6497123 -0.20372486 2.0201359 -2.529554e+38
2.6497016 -0.20841056 2.0201359 -2.5561393e+38
2.6496909 -0.21309626 2.0201359 -2.5826205e+38
2.6326823 -0.21675536 2.0147445 -2.5826726e+38
2.6326718 -0.22140869 2.0147445 -2.5959649e+38
2.6326611 -0.226062 2.0147445 -2.5692243e+38
2.6326504 -0.23071533 2.0147445 -2.5557199e+38
2.6156423 -0.23421255 2.0093532 -2.5562345e+38
2.6156318 -0.23883349 2.0093532 -2.5700517e+38
2.6156211 -0.24345443 2.0093532 -2.6096744e+38
2.6326077 -0.24932861 2.0147445 -2.6625843e+38
2.632597 -0.25398192 2.0147445 -2.5164215e+38
2.6325865 -0.25863525 2.0147445 -2.3830276e+38
2.6495726 -0.26463899 2.0201359 -2.3439255e+38
2.6495619 -0.26932469 2.0201359 -2.3174547e+38
2.6495512 -0.27401039 2.0201359 -2.732485e+38
2.6495404 -0.27869609 2.0201359 -3.1470438e+38
2.6495297 -0.28338179 2.0201359 nan
2.649519 -0.28806749 2.0201359 nan
2.6495082 -0.29275322 2.0201359 nan
2.6494975 -0.29743892 2.0201359 nan
2.9442418 0.026749112 2.1081302 nan
2.9232278 0.02081155 2.1015103 nan
2.9012144 0.014922954 2.0945749 nan
2.9012024 0.0097591653 2.0945749 nan
2.8801892 0.0040235147 2.087955 nan
2.8801773 -0.0011002794 2.087955 nan
2.8591647 -0.0067159384 2.0813351 nan
2.859153 -0.011799727 2.0813351 nan
2.8591413 -0.01688353 2.0813351 nan
2.8591297 -0.021967325 2.0813351 nan
2.8391173 -0.027367175 2.0750303 nan
2.8191049 -0.032690834 2.0687256 nan
2.7990928 -0.037938301 2.0624208 nan
2.7990816 -0.042907815 2.0624208 nan
2.7990701 -0.047877327 2.0624208 nan
2.7790585 -0.052972414 2.0561161 nan
2.760047 -0.057986937 2.0501266 -2.7008397e+38
2.7600358 -0.062882163 2.0501266 -1.7697558e+38
2.7410243 -0.067788117 2.044137 -2.0358079e+38
2.7410131 -0.072647147 2.044137 -2.3034256e+38
2.7410021 -0.077506185 2.044137 -3.0243825e+38
2.7409909 -0.082365222 2.044137 nan
2.7409797 -0.087224253 2.044137 -2.781687e+38
2.7409685 -0.09208329 2.044137 -1.810516e+38
2.7409575 -0.09694232 2.044137 -2.0220984e+38
2.7409463 -0.10180136 2.044137 -2.2352434e+38
2.7409351 -0.1066604 2.044137 -2.2755371e+38
2.7219245 -0.11120445 2.0381474 -2.3155182e+38
2.7219136 -0.11602729 2.0381474 -2.3287589e+38
2.7219024 -0.12085013 2.0381474 -2.3288632e+38
2.7218914 -0.12567297 2.0381474 -2.3423118e+38
2.7218804 -0.13049582 2.0381474 -2.355553e+38
2.7218692 -0.13531867 2.0381474 -2.3289695e+38
2.7038593 -0.13963738 2.0324731 -2.3025415e+38
2.7038484 -0.14442596 2.0324731 -2.3292826e+38
2.6858387 -0.14864182 2.0267987 -2.3426264e+38
2.685828 -0.15339608 2.0267987 -2.3558147e+38
2.6678185 -0.15750909 2.0211246 -2.3560228e+38
2.6678076 -0.16222909 2.0211246 -2.3825558e+38
2.6677969 -0.16694906 2.0211246 -2.3960572e+38
2.6677861 -0.17166907 2.0211246 -2.409247e+38
2.6677752 -0.17638904 2.0211246 -2.4227989e+38
2.649766 -0.18029635 2.0154502 -2.4493835e+38
2.6497552 -0.18498205 2.0154502 -2.4628315e+38
2.6497445 -0.18966776 2.0154502 -2.4628835e+38
2.6497338 -0.19435346 2.0154502 -2.4629871e+38
2.6497231 -0.19903916 2.0154502 -2.4761234e+38
2.6497123 -0.20372486 2.0154502 -2.4895199e+38
2.6497016 -0.20841056 2.0154502 -2.5161568e+38
2.6496909 -0.21309626 2.0154502 -2.5293976e+38
2.6326823 -0.21675536 2.0100913 -2.5426903e+38
2.6326718 -0.22140869 2.0100913 -2.5425864e+38
2.6326611 -0.226062 2.0100913 -2.555723e+38
2.6326504 -0.23071533 2.0100913 -2.5691168e+38
2.6326396 -0.23536867 2.0100913 -2.5959588e+38
2.6156318 -0.23883349 2.0047321 -2.6094101e+38
2.6156211 -0.24345443 2.0047321 -2.6758749e+38
2.6326077 -0.24932861 2.0100913 -2.7291487e+38
2.632597 -0.25398192 2.0100913 -2.7692341e+38
2.6325865 -0.25863525 2.0100913 -2.7957127e+38
2.6495726 -0.26463899 2.0154502 -2.636463e+38
2.632565 -0.26794189 2.0100913 -2.4638244e+38
2.6495512 -0.27401039 2.0154502 -2.3043742e+38
2.6495404 -0.27869609 2.0154502 -2.1345417e+38
2.6495297 -0.28338179 2.0154502 -3.3740024e+38
2.649519 -0.28806749 2.0154502 nan
2.6495082 -0.29275322 2.0154502 nan
2.6494975 -0.29743892 2.0154502 nan
2.6494868 -0.30212462 2.0154502 nan
2.9442418 0.026749112 2.1028845 nan
2.9232278 0.02081155 2.0963044 nan
2.9012144 0.014922954 2.0894113 nan
2.9012024 0.0097591653 2.0894113 nan
2.8801892 0.0040235147 2.0828311 nan
2.8801773 -0.0011002794 2.0828311 nan
2.8591647 -0.0067159384 2.0762513 nan
2.859153 -0.011799727 2.0762513 nan
2.8591413 -0.01688353 2.0762513 nan
2.8591297 -0.021967325 2.0762513 nan
2.8191164 -0.027683225 2.0637178 nan
2.7991042 -0.032968793 2.0574512 nan
2.7990928 -0.037938301 2.0574512 nan
2.7990816 -0.042907815 2.0574512 nan
2.7790699 -0.048040997 2.0511847 nan
2.7790585 -0.052972414 2.0511847 -3.3039903e+38
2.760047 -0.057986937 2.0452313 -2.7427943e+38
2.7600358 -0.062882163 2.0452313 -2.1826479e+38
2.7410243 -0.067788117 2.0392778 -2.3021212e+38
2.7410131 -0.072647147 2.0392778 -2.4354113e+38
2.7410021 -0.077506185 2.0392778 -2.7567663e+38
2.7409909 -0.082365222 2.0392778 -3.0775431e+38
2.7409797 -0.087224253 2.0392778 -2.5687984e+38
2.7409685 -0.09208329 2.0392778 -2.0607314e+38
2.7409575 -0.09694232 2.0392778 -2.1684707e+38
2.7409463 -0.10180136 2.0392778 -2.288673e+38
2.7219357 -0.1063816 2.0333245 -2.3023291e+38
2.7219245 -0.11120445 2.0333245 -2.3289664e+38
2.7219136 -0.11602729 2.0333245 -2.3290192e+38
2.7219024 -0.12085013 2.0333245 -2.3291234e+38
2.7218914 -0.12567297 2.0333245 -2.3423122e+38
2.7218804 -0.13049582 2.0333245 -2.3556051e+38
2.7038703 -0.13484883 2.0276845 -2.3289691e+38
2.7038593 -0.13963738 2.0276845 -2.3156776e+38
2.6858497 -0.14388755 2.0220447 -2.3291262e+38
2.6858387 -0.14864182 2.0220447 -2.3557619e+38
2.6678293 -0.15278912 2.0164046 -2.355813e+38
2.6678185 -0.15750909 2.0164046 -2.3692102e+38
2.6678076 -0.16222909 2.0164046 -2.3693148e+38
2.6677969 -0.16694906 2.0164046 -2.3826605e+38
2.6677861 -0.17166907 2.0164046 -2.3960061e+38
2.6677752 -0.17638904 2.0164046 -2.4094539e+38
2.649766 -0.18029635 2.0107646 -2.4360902e+38
2.6497552 -0.18498205 2.0107646 -2.4494865e+38
2.6497445 -0.18966776 2.0107646 -2.462779e+38
2.6497338 -0.19435346 2.0107646 -2.4761228e+38
2.6497231 -0.19903916 2.0107646 -2.4760703e+38
2.6497123 -0.20372486 2.0107646 -2.4761743e+38
2.6497016 -0.20841056 2.0107646 -2.4761224e+38
2.6496909 -0.21309626 2.0107646 -2.4761749e+38
2.6326823 -0.21675536 2.0054379 -2.4759676e+38
2.6326718 -0.22140869 2.0054379 -2.4891563e+38
2.6326611 -0.226062 2.0054379 -2.4891563e+38
2.6326504 -0.23071533 2.0054379 -2.4893121e+38
2.6326396 -0.23536867 2.0054379 -2.5292408e+38
2.6156318 -0.23883349 2.0001111 -2.5692227e+38
2.6156211 -0.24345443 2.0001111 -2.6225488e+38
2.6326077 -0.24932861 2.0054379 -2.6760307e+38
2.632597 -0.25398192 2.0054379 -2.729201e+38
2.6325865 -0.25863525 2.0054379 -2.7825778e+38
2.6495726 -0.26463899 2.0107646 -2.7162201e+38
2.6495619 -0.26932469 2.0107646 -2.6500708e+38
2.6495512 -0.27401039 2.0107646 -2.5172525e+38
2.6495404 -0.27869609 2.0107646 -2.397683e+38
2.6495297 -0.28338179 2.0107646 -3.0256485e+38
2.649519 -0.28806749 2.0107646 nan
2.6495082 -0.29275322 2.0107646 nan
2.6494975 -0.29743892 2.0107646 nan
2.6494868 -0.30212462 2.0107646 nan
2.9442537 0.031994812 2.0976388 nan
2.9442418 0.026749112 2.0976388 nan
2.9232278 0.02081155 2.0910988 nan
2.9012144 0.014922954 2.0842474 nan
2.9012024 0.0097591653 2.0842474 nan
2.8801892 0.0040235147 2.0777073 nan
2.8801773 -0.0011002794 2.0777073 nan
2.8591647 -0.0067159384 2.0711675 nan
2.859153 -0.011799727 2.0711675 nan
2.8591413 -0.01688353 2.0711675 nan
2.819128 -0.022675622 2.0587103 nan
2.8191164 -0.027683225 2.0587103 nan
2.7991042 -0.032968793 2.0524817 nan
2.7990928 -0.037938301 2.0524817 nan
2.7790811 -0.043109585 2.0462532 -3.1982855e+38
2.7790699 -0.048040997 2.0462532 -3.0890879e+38
2.7790585 -0.052972414 2.0462532 -2.9704887e+38
2.760047 -0.057986937 2.0403359 -2.783611e+38
2.7600358 -0.062882163 2.0403359 -2.5959574e+38
2.7410243 -0.067788117 2.0344188 -2.5812072e+38
2.7410131 -0.072647147 2.0344188 -2.5554566e+38
2.7410021 -0.077506185 2.0344188 -2.4763812e+38
2.7409909 -0.082365222 2.0344188 -2.3966253e+38
2.7409797 -0.087224253 2.0344188 -2.3552926e+38
2.7409685 -0.09208329 2.0344188 -2.3150517e+38
2.7409575 -0.09694232 2.0344188 -2.3289664e+38
2.7409463 -0.10180136 2.0344188 -2.3290188e+38
2.7219357 -0.1063816 2.0285017 -2.3293828e+38
2.7219245 -0.11120445 2.0285017 -2.3291234e+38
2.7219136 -0.11602729 2.0285017 -2.3291236e+38
2.7219024 -0.12085013 2.0285017 -2.3156756e+38
2.7218914 -0.12567297 2.0285017 -2.3288121e+38
2.7218804 -0.13049582 2.0285017 -2.3421567e+38
2.7038703 -0.13484883 2.0228961 -2.3288648e+38
2.6858606 -0.13913327 2.0172901 -2.3157287e+38
2.6858497 -0.14388755 2.0172901 -2.3424177e+38
2.6858387 -0.14864182 2.0172901 -2.3557096e+38
2.6678293 -0.15278912 2.0116844 -2.3690017e+38
2.6678185 -0.15750909 2.0116844 -2.3692102e+38
2.6678076 -0.16222909 2.0116844 -2.3693148e+38
2.6677969 -0.16694906 2.0116844 -2.3560753e+38
2.6677861 -0.17166907 2.0116844 -2.3827128e+38
2.6677752 -0.17638904 2.0116844 -2.3961091e+38
2.649766 -0.18029635 2.0060787 -2.4226939e+38
2.6497552 -0.18498205 2.0060787 -2.43609e+38
2.6497445 -0.18966776 2.0060787 -2.4626228e+38
2.6497338 -0.19435346 2.0060787 -2.4759666e+38
2.6497231 -0.19903916 2.0060787 -2.462622e+38
2.6497123 -0.20372486 2.0060787 -2.4492257e+38
2.6327038 -0.20744872 2.0007844 -2.4358813e+38
2.6326931 -0.21210206 2.0007844 -2.4092969e+38
2.6326823 -0.21675536 2.0007844 -2.4223815e+38
2.6326718 -0.22140869 2.0007844 -2.4357781e+38
2.6326611 -0.226062 2.0007844 -2.4224341e+38
2.6326504 -0.23071533 2.0007844 -2.4092458e+38
2.6326396 -0.23536867 2.0007844 -2.4756555e+38
2.6156318 -0.23883349 1.9954903 -2.529137e+38
2.6156211 -0.24345443 1.9954903 -2.5824107e+38
2.6326077 -0.24932861 2.0007844 -2.6225484e+38
2.632597 -0.25398192 2.0007844 -2.7022514e+38
2.6325865 -0.25863525 2.0007844 -2.7690253e+38
2.6325758 -0.26328859 2.0007844 -2.795715e+38
2.632565 -0.26794189 2.0007844 -2.8229751e+38
2.6325543 -0.27259523 2.0007844 -2.743378e+38
2.6495404 -0.27869609 2.0060787 -2.6636284e+38
2.6495297 -0.28338179 2.0060787 -2.6907882e+38
2.649519 -0.28806749 2.0060787 -2.7207029e+38
2.6495082 -0.29275322 2.0060787 nan
2.6325011 -0.29586184 2.0007844 nan
2.6324904 -0.30051515 2.0007844 nan
2.9442656 0.037240513 2.0923932 nan
2.9442537 0.031994812 2.0923932 nan
2.9442418 0.026749112 2.0923932 nan
2.9232278 0.02081155 2.0858932 nan
2.9012144 0.014922954 2.0790834 nan
2.9012024 0.0097591653 2.0790834 nan
2.8801892 0.0040235147 2.0725837 nan
2.8801773 -0.0011002794 2.0725837 nan
2.8591647 -0.0067159384 2.0660837 nan
2.859153 -0.011799727 2.0660837 nan
2.8591413 -0.01688353 2.0660837 nan
2.819128 -0.022675622 2.0537026 nan
2.7991157 -0.027999278 2.0475121 nan
2.7991042 -0.032968793 2.0475121 nan
2.7790926 -0.038178165 2.0413218 -3.2904966e+38
2.7790811 -0.043109585 2.0413218 -2.9833177e+38
2.7790699 -0.048040997 2.0413218 -3.0235035e+38
2.7600582 -0.053091712 2.0354407 -3.0642094e+38
2.7410467 -0.058070045 2.0295599 -3.0768251e+38
2.7410355 -0.062929079 2.0295599 -3.0889686e+38
2.7410243 -0.067788117 2.0295599 -2.7021358e+38
2.7410131 -0.072647147 2.0295599 -2.3167142e+38
2.7410021 -0.077506185 2.0295599 -2.3693668e+38
2.7409909 -0.082365222 2.0295599 -2.4216004e+38
2.7409797 -0.087224253 2.0295599 -2.3820341e+38
2.7409685 -0.09208329 2.0295599 -2.3291242e+38
2.7409575 -0.09694232 2.0295599 -2.3424161e+38
2.7409463 -0.10180136 2.0295599 -2.3558128e+38
2.7219357 -0.1063816 2.0236788 -2.3557096e+38
2.7219245 -0.11120445 2.0236788 -2.3422611e+38
2.7219136 -0.11602729 2.0236788 -2.3422607e+38
2.7219024 -0.12085013 2.0236788 -2.3288642e+38
2.7038925 -0.12527171 2.0181074 -2.3288638e+38
2.7038813 -0.13006027 2.0181074 -2.3421046e+38
2.7038703 -0.13484883 2.0181074 -2.3289163e+38
2.6858606 -0.13913327 2.012536 -2.3290204e+38
2.6858497 -0.14388755 2.012536 -2.3423648e+38
2.6858387 -0.14864182 2.012536 -2.3689495e+38
2.6678293 -0.15278912 2.0069647 -2.3558132e+38
2.6678185 -0.15750909 2.0069647 -2.3559179e+38
2.6678076 -0.16222909 2.0069647 -2.3560743e+38
2.6677969 -0.16694906 2.0069647 -2.3428343e+38
2.6677861 -0.17166907 2.0069647 -2.356127e+38
2.6677752 -0.17638904 2.0069647 -2.3694718e+38
2.649766 -0.18029635 2.0013931 -2.3828166e+38
2.6497552 -0.18498205 2.0013931 -2.3961608e+38
2.6497445 -0.18966776 2.0013931 -2.4226935e+38
2.6497338 -0.19435346 2.0013931 -2.4492778e+38
2.632725 -0.19814208 1.9961312 -2.4357776e+38
2.6497123 -0.20372486 2.0013931 -2.4222253e+38
2.6327038 -0.20744872 1.9961312 -2.4090363e+38
2.6326931 -0.21210206 1.9961312 -2.4090361e+38
2.6326823 -0.21675536 1.9961312 -2.422328e+38
2.615674 -0.22034973 1.9908693 -2.4357247e+38
2.6326611 -0.226062 1.9961312 -2.4357251e+38
2.6326504 -0.23071533 1.9961312 -2.4223813e+38
2.6326396 -0.23536867 1.9961312 -2.4624143e+38
2.6156318 -0.23883349 1.9908693 -2.5024993e+38
2.6156211 -0.24345443 1.9908693 -2.5424802e+38
2.6326077 -0.24932861 1.9961312 -2.5825661e+38
2.632597 -0.25398192 1.9961312 -2.6356845e+38
2.6325865 -0.25863525 1.9961312 -2.6891155e+38
2.6325758 -0.26328859 1.9961312 -2.7030331e+38
2.632565 -0.26794189 1.9961312 -2.7039685e+38
2.6325543 -0.27259523 1.9961312 -2.6902616e+38
2.6495404 -0.27869609 2.0013931 -2.663053e+38
2.6495297 -0.28338179 2.0013931 -2.5175638e+38
2.649519 -0.28806749 2.0013931 -2.3725545e+38
2.6495082 -0.29275322 2.0013931 nan
2.6494975 -0.29743892 2.0013931 nan
2.6324904 -0.30051515 1.9961312 nan
2.6494761 -0.30681032 2.0013931 nan
2.9232755 0.041634358 2.0806875 nan
2.9232635 0.03642866 2.0806875 nan
2.9232516 0.031222947 2.0806875 nan
2.9232397 0.026017249 2.0806875 nan
2.9012263 0.02008675 2.0739198 nan
2.9012144 0.014922954 2.0739198 nan
2.9012024 0.0097591653 2.0739198 nan
2.8801892 0.0040235147 2.0674598 nan
2.8801773 -0.0011002794 2.0674598 nan
2.8591647 -0.0067159384 2.0609999 nan
2.859153 -0.011799727 2.0609999 -2.8524804e+38
2.8391404 -0.017275773 2.0548475 -3.0645879e+38
2.7991271 -0.023029771 2.0425427 -3.277938e+38
2.7991157 -0.027999278 2.0425427 -2.9705009e+38
2.7991042 -0.032968793 2.0425427 -2.6517417e+38
2.7790926 -0.038178165 2.0363903 -2.7024145e+38
2.7790811 -0.043109585 2.0363903 -2.7568295e+38
2.7600694 -0.048196487 2.0305455 -2.9574078e+38
2.7600582 -0.053091712 2.0305455 -3.1571033e+38
2.7410467 -0.058070045 2.0247006 -3.3704546e+38
2.7410355 -0.062929079 2.0247006 nan
2.7220242 -0.067798838 2.018856 -2.8217197e+38
2.722013 -0.072621688 2.018856 -2.0635409e+38
2.7410021 -0.077506185 2.0247006 -2.2626659e+38
2.7409909 -0.082365222 2.0247006 -2.4486012e+38
2.7409797 -0.087224253 2.0247006 -2.3955349e+38
2.7409685 -0.09208329 2.0247006 -2.342469e+38
2.7409575 -0.09694232 2.0247006 -2.3691049e+38
2.7219467 -0.10155875 2.018856 -2.3822935e+38
2.7219357 -0.1063816 2.018856 -2.3688459e+38
2.7039254 -0.11090603 2.0133188 -2.355553e+38
2.7039144 -0.1156946 2.0133188 -2.3555005e+38
2.7039034 -0.12048315 2.0133188 -2.342208e+38
2.7038925 -0.12527171 2.0133188 -2.3422078e+38
2.7038813 -0.13006027 2.0133188 -2.3289676e+38
2.7038703 -0.13484883 2.0133188 -2.32902e+38
2.6858606 -0.13913327 2.0077817 -2.3290204e+38
2.6858497 -0.14388755 2.0077817 -2.3555534e+38
2.6858387 -0.14864182 2.0077817 -2.3690536e+38
2.6678293 -0.15278912 2.0022445 -2.3559173e+38
2.6678185 -0.15750909 2.0022445 -2.3427293e+38
2.6678076 -0.16222909 2.0022445 -2.3428337e+38
2.6677969 -0.16694906 2.0022445 -2.3295418e+38
2.6677861 -0.17166907 2.0022445 -2.3295422e+38
2.6677752 -0.17638904 2.0022445 -2.3295944e+38
2.649766 -0.18029635 1.9967074 -2.3429388e+38
2.6497552 -0.18498205 1.9967074 -2.3561793e+38
2.6497445 -0.18966776 1.9967074 -2.3960045e+38
2.6497338 -0.19435346 1.9967074 -2.4224328e+38
2.6497231 -0.19903916 1.9967074 -2.4089327e+38
2.6497123 -0.20372486 1.9967074 -2.3822956e+38
2.6327038 -0.20744872 1.9914778 -2.3956394e+38
2.6326931 -0.21210206 1.9914778 -2.3956388e+38
2.6326823 -0.21675536 1.9914778 -2.4221191e+38
2.6326718 -0.22140869 1.9914778 -2.4356192e+38
2.6326611 -0.226062 1.9914778 -2.4356716e+38
2.6326504 -0.23071533 1.9914778 -2.4356722e+38
2.6326396 -0.23536867 1.9914778 -2.449017e+38
2.6156318 -0.23883349 1.9862483 -2.4624656e+38
2.6156211 -0.24345443 1.9862483 -2.502395e+38
2.6156106 -0.24807537 1.9862483 -2.5291362e+38
2.632597 -0.25398192 1.9914778 -2.5688582e+38
2.6325865 -0.25863525 1.9914778 -2.6092553e+38
2.6325758 -0.26328859 1.9914778 -2.5966391e+38
2.632565 -0.26794189 1.9914778 -2.5836092e+38
2.6325543 -0.27259523 1.9914778 -2.6240079e+38
2.6325438 -0.27724853 1.9914778 -2.6635213e+38
2.6495297 -0.28338179 1.9967074 -2.3438316e+38
2.649519 -0.28806749 1.9967074 -2.0137668e+38
2.6495082 -0.29275322 1.9967074 -3.2541124e+38
2.6494975 -0.29743892 1.9967074 nan
2.6494868 -0.30212462 1.9967074 nan
2.6494761 -0.30681032 1.9967074 nan
2.6494653 -0.31149602 1.9967074 nan
2.6674507 -0.31798869 2.0022445 nan
2.9442897 0.047731921 2.0819016 nan
2.9232755 0.041634358 2.0754817 nan
2.9232635 0.03642866 2.0754817 nan
2.9232516 0.031222947 2.0754817 nan
2.9232397 0.026017249 2.0754817 nan
2.9012263 0.02008675 2.0687561 nan
2.8802125 0.014271103 2.062336 nan
2.8802009 0.0091473088 2.062336 nan
2.8801892 0.0040235147 2.062336 nan
2.8591764 -0.0016321465 2.0559158 -2.9724157e+38
2.8591647 -0.0067159384 2.0559158 -2.8640979e+38
2.859153 -0.011799727 2.0559158 -2.770122e+38
2.8391404 -0.017275773 2.0498018 -2.9973414e+38
2.7991271 -0.023029771 2.0375731 -3.2232572e+38
2.7991157 -0.027999278 2.0375731 -2.9037742e+38
2.7791038 -0.033246752 2.0314589 -2.5844974e+38
2.7790926 -0.038178165 2.0314589 -2.716483e+38
2.7600806 -0.043301258 2.0256503 -2.8494599e+38
2.7600694 -0.048196487 2.0256503 -2.9701828e+38
2.7410576 -0.053211007 2.0198417 -3.1034184e+38
2.7410467 -0.058070045 2.0198417 -2.9443796e+38
2.7410355 -0.062929079 2.0198417 -2.7997159e+38
2.7220242 -0.067798838 2.0140331 -2.5030215e+38
2.722013 -0.072621688 2.0140331 -2.2088763e+38
2.7410021 -0.077506185 2.0198417 -2.3156281e+38
2.7409909 -0.082365222 2.0198417 -2.4220694e+38
2.7409797 -0.087224253 2.0198417 -2.3955876e+38
2.7409685 -0.09208329 2.0198417 -2.3691061e+38
2.7219577 -0.09673591 2.0140331 -2.3690534e+38
2.7219467 -0.10155875 2.0140331 -2.3689495e+38
2.7219357 -0.1063816 2.0140331 -2.3556051e+38
2.7039254 -0.11090603 2.0085301 -2.3555005e+38
2.7039144 -0.1156946 2.0085301 -2.3423112e+38
2.6859043 -0.12011617 2.0030274 -2.328967e+38
2.6858933 -0.12487045 2.0030274 -2.3291228e+38
2.6858823 -0.12962472 2.0030274 -2.3158828e+38
2.6858716 -0.134379 2.0030274 -2.3291236e+38
2.6858606 -0.13913327 2.0030274 -2.3424165e+38
2.667851 -0.14334914 1.9975245 -2.3557611e+38
2.6678402 -0.14806911 1.9975245 -2.3558134e+38
2.6678293 -0.15278912 1.9975245 -2.3559694e+38
2.6678185 -0.15750909 1.9975245 -2.3560735e+38
2.6678076 -0.16222909 1.9975245 -2.3427295e+38
2.6677969 -0.16694906 1.9975245 -2.3427299e+38
2.6677861 -0.17166907 1.9975245 -2.3427822e+38
2.6677752 -0.17638904 1.9975245 -2.3428858e+38
2.649766 -0.18029635 1.9920217 -2.356126e+38
2.6497552 -0.18498205 1.9920217 -2.382659e+38
2.6497445 -0.18966776 1.9920217 -2.3825037e+38
2.6497338 -0.19435346 1.9920217 -2.3956398e+38
2.6497231 -0.19903916 1.9920217 -2.368899e+38
2.6497123 -0.20372486 1.9920217 -2.3422622e+38
2.6327038 -0.20744872 1.9868245 -2.3423137e+38
2.6326931 -0.21210206 1.9868245 -2.3556571e+38
2.6326823 -0.21675536 1.9868245 -2.3690524e+38
2.6326718 -0.22140869 1.9868245 -2.395741e+38
2.6326611 -0.226062 1.9868245 -2.3957412e+38
2.6326504 -0.23071533 1.9868245 -2.4090862e+38
2.6326396 -0.23536867 1.9868245 -2.4222754e+38
2.6156318 -0.23883349 1.9816275 -2.4490166e+38
2.6156211 -0.24345443 1.9816275 -2.4757058e+38
2.6156106 -0.24807537 1.9816275 -2.5024987e+38
2.6155999 -0.25269631 1.9816275 -2.5556684e+38
2.6155894 -0.25731725 1.9816275 -2.6089931e+38
2.6155787 -0.26193818 1.9816275 -2.5959083e+38
2.6155682 -0.26655912 1.9816275 -2.5959649e+38
2.6155577 -0.27118006 1.9816275 -2.6235406e+38
2.6325438 -0.27724853 1.9868245 -2.6510089e+38
2.6325331 -0.28190187 1.9868245 -2.4377102e+38
2.649519 -0.28806749 1.9920217 -2.2245741e+38
2.6325116 -0.29120851 1.9868245 -3.1054549e+38
2.6494975 -0.29743892 1.9920217 nan
2.6494868 -0.30212462 1.9920217 nan
2.6674721 -0.30854872 1.9975245 nan
2.6674614 -0.31326869 1.9975245 nan
2.6674507 -0.31798869 1.9975245 nan
2.6674397 -0.32270867 1.9975245 nan
2.9442897 0.047731921 2.0766559 nan
2.9442778 0.042486213 2.0766559 nan
2.9232635 0.03642866 2.070276 nan
2.9232516 0.031222947 2.070276 nan
2.9232397 0.026017249 2.070276 nan
2.9012263 0.02008675 2.0635922 nan
2.8802125 0.014271103 2.0572121 nan
2.8802009 0.0091473088 2.0572121 nan
2.8801892 0.0040235147 2.0572121 -2.8074556e+38
2.8591764 -0.0016321465 2.0508323 -1.9323439e+38
2.8591647 -0.0067159384 2.0508323 -2.317662e+38
2.8391519 -0.012230072 2.0447559 -2.6907316e+38
2.8391404 -0.017275773 2.0447559 -2.9313457e+38
2.7991271 -0.023029771 2.0326035 -3.1565861e+38
2.7991157 -0.027999278 2.0326035 -2.8367392e+38
2.7791038 -0.033246752 2.0265274 -2.5173576e+38
2.7600918 -0.038406033 2.0207551 -2.7294596e+38
2.7600806 -0.043301258 2.0207551 -2.9294184e+38
2.7600694 -0.048196487 2.0207551 -2.9836295e+38
2.7410576 -0.053211007 2.0149827 -3.0366937e+38
2.7410467 -0.058070045 2.0149827 -2.5305474e+38
2.7410355 -0.062929079 2.0149827 -2.0250708e+38
2.7220242 -0.067798838 2.0092101 -2.1818198e+38
2.722013 -0.072621688 2.0092101 -2.3418987e+38
2.7410021 -0.077506185 2.0149827 -2.3687952e+38
2.7409909 -0.082365222 2.0149827 -2.3954834e+38
2.7219799 -0.087090224 2.0092101 -2.3955351e+38
2.7409685 -0.09208329 2.0149827 -2.3955343e+38
2.7219577 -0.09673591 2.0092101 -2.3689491e+38
2.7219467 -0.10155875 2.0092101 -2.3423644e+38
2.7039363 -0.10611747 2.0037417 -2.3423122e+38
2.685926 -0.11060762 1.9982731 -2.3423638e+38
2.7039144 -0.1156946 2.0037417 -2.3291749e+38
2.6859043 -0.12011617 1.9982731 -2.3159344e+38
2.6858933 -0.12487045 1.9982731 -2.316038e+38
2.6858823 -0.12962472 1.9982731 -2.3026942e+38
2.6858716 -0.134379 1.9982731 -2.3292275e+38
2.6678617 -0.13862914 1.9928045 -2.3558122e+38
2.667851 -0.14334914 1.9928045 -2.3558645e+38
2.6678402 -0.14806911 1.9928045 -2.3426248e+38
2.6678293 -0.15278912 1.9928045 -2.3559696e+38
2.6678185 -0.15750909 1.9928045 -2.3559698e+38
2.6678076 -0.16222909 1.9928045 -2.3558662e+38
2.6497982 -0.16623923 1.9873359 -2.35597e+38
2.6497874 -0.17092493 1.9873359 -2.35597e+38
2.6497767 -0.17561065 1.9873359 -2.3560737e+38
2.649766 -0.18029635 1.9873359 -2.382658e+38
2.6497552 -0.18498205 1.9873359 -2.3957945e+38
2.6497445 -0.18966776 1.9873359 -2.3823467e+38
2.6497338 -0.19435346 1.9873359 -2.3688465e+38
2.6497231 -0.19903916 1.9873359 -2.3420023e+38
2.6497123 -0.20372486 1.9873359 -2.3022809e+38
2.6497016 -0.20841056 1.9873359 -2.3022805e+38
2.6496909 -0.21309626 1.9873359 -2.3024875e+38
2.6496801 -0.21778196 1.9873359 -2.3292794e+38
2.6326718 -0.22140869 1.9821712 -2.3557603e+38
2.6326611 -0.226062 1.9821712 -2.3689487e+38
2.6326504 -0.23071533 1.9821712 -2.3688457e+38
2.6326396 -0.23536867 1.9821712 -2.4086195e+38
2.6326292 -0.24002197 1.9821712 -2.4355162e+38
2.6156211 -0.24345443 1.9770064 -2.4622054e+38
2.6156106 -0.24807537 1.9770064 -2.4757058e+38
2.632597 -0.25398192 1.9821712 -2.5422717e+38
2.6155894 -0.25731725 1.9770064 -2.5954933e+38
2.6155787 -0.26193818 1.9770064 -2.5953381e+38
2.6155682 -0.26655912 1.9770064 -2.5960158e+38
2.6155577 -0.27118006 1.9770064 -2.6230703e+38
2.6325438 -0.27724853 1.9821712 -2.6370913e+38
2.6325331 -0.28190187 1.9821712 -2.5313782e+38
2.649519 -0.28806749 1.9873359 -2.4247852e+38
2.6495082 -0.29275322 1.9873359 -2.957208e+38
2.6494975 -0.29743892 1.9873359 nan
2.6494868 -0.30212462 1.9873359 nan
2.6674721 -0.30854872 1.9928045 nan
2.6674614 -0.31326869 1.9928045 nan
2.6674507 -0.31798869 1.9928045 nan
2.6674397 -0.32270867 1.9928045 nan
2.9442897 0.047731921 2.0714102 nan
2.9232755 0.041634358 2.0650702 nan
2.9232635 0.03642866 2.0650702 nan
2.9232516 0.031222947 2.0650702 nan
2.9232397 0.026017249 2.0650702 nan
2.9012263 0.02008675 2.0584283 nan
2.8802125 0.014271103 2.0520883 nan
2.8802009 0.0091473088 2.0520883 -2.7847152e+38
2.8591881 0.0034516528 2.0457482 -2.5564527e+38
2.8591764 -0.0016321465 2.0457482 -2.3302266e+38
2.8591647 -0.0067159384 2.0457482 -2.543736e+38
2.8391519 -0.012230072 2.0397103 -2.7704333e+38
2.8191395 -0.017668016 2.0336721 -2.8640519e+38
2.7991271 -0.023029771 2.0276341 -2.9571479e+38
2.779115 -0.028315336 2.021596 -2.7966522e+38
2.7791038 -0.033246752 2.021596 -2.6498098e+38
2.7600918 -0.038406033 2.0158598 -2.7961245e+38
2.7600806 -0.043301258 2.0158598 -2.929156e+38
2.7410688 -0.048351973 2.0101237 -2.8904782e+38
2.7410576 -0.053211007 2.0101237 -2.8513249e+38
2.7220461 -0.058153152 2.0043874 -2.4368204e+38
2.7410355 -0.062929079 2.0101237 -2.0370068e+38
2.7220242 -0.067798838 2.0043874 -2.1957806e+38
2.722013 -0.072621688 2.0043874 -2.3554463e+38
2.7410021 -0.077506185 2.0101237 -2.3820852e+38
2.7219908 -0.082267374 2.0043874 -2.4087223e+38
2.7219799 -0.087090224 2.0043874 -2.3821382e+38
2.7219689 -0.091913067 2.0043874 -2.3687416e+38
2.7219577 -0.09673591 2.0043874 -2.3556565e+38
2.7219467 -0.10155875 2.0043874 -2.3557082e+38
2.7039363 -0.10611747 1.9989531 -2.3424674e+38
2.685926 -0.11060762 1.9935188 -2.3424674e+38
2.685915 -0.1153619 1.9935188 -2.3425711e+38
2.6859043 -0.12011617 1.9935188 -2.3293824e+38
2.6858933 -0.12487045 1.9935188 -2.3293301e+38
2.6858823 -0.12962472 1.9935188 -2.3292788e+38
2.6858716 -0.134379 1.9935188 -2.3425715e+38
2.6678617 -0.13862914 1.9880846 -2.3558639e+38
2.667851 -0.14334914 1.9880846 -2.3426757e+38
2.6678402 -0.14806911 1.9880846 -2.3427806e+38
2.6678293 -0.15278912 1.9880846 -2.3426775e+38
2.6678185 -0.15750909 1.9880846 -2.3559181e+38
2.6678076 -0.16222909 1.9880846 -2.3558662e+38
2.6497982 -0.16623923 1.9826503 -2.3426256e+38
2.6497874 -0.17092493 1.9826503 -2.3426252e+38
2.6497767 -0.17561065 1.9826503 -2.3559692e+38
2.649766 -0.18029635 1.9826503 -2.3691574e+38
2.6497552 -0.18498205 1.9826503 -2.3822937e+38
2.6497445 -0.18966776 1.9826503 -2.3688453e+38
2.6497338 -0.19435346 1.9826503 -2.3553455e+38
2.6497231 -0.19903916 1.9826503 -2.3287612e+38
2.6497123 -0.20372486 1.9826503 -2.30228e+38
2.6497016 -0.20841056 1.9826503 -2.3023835e+38
2.6496909 -0.21309626 1.9826503 -2.3157796e+38
2.6326823 -0.21675536 1.9775178 -2.3291236e+38
2.6326718 -0.22140869 1.9775178 -2.3557082e+38
2.6326611 -0.226062 1.9775178 -2.3555005e+38
2.6326504 -0.23071533 1.9775178 -2.368534e+38
2.6326396 -0.23536867 1.9775178 -2.3820345e+38
2.6326292 -0.24002197 1.9775178 -2.4088274e+38
2.6156211 -0.24345443 1.9723854 -2.4356203e+38
2.6156106 -0.24807537 1.9723854 -2.4623612e+38
2.6155999 -0.25269631 1.9723854 -2.5023423e+38
2.6155894 -0.25731725 1.9723854 -2.5556686e+38
2.6155787 -0.26193818 1.9723854 -2.5824101e+38
2.6155682 -0.26655912 1.9723854 -2.6095665e+38
2.6155577 -0.27118006 1.9723854 -2.6229632e+38
2.6325438 -0.27724853 1.9775178 -2.6498623e+38
2.6325331 -0.28190187 1.9775178 -2.6238e+38
2.649519 -0.28806749 1.9826503 -2.6106134e+38
2.6495082 -0.29275322 1.9826503 -2.6913036e+38
2.6494975 -0.29743892 1.9826503 -2.7865388e+38
2.6494868 -0.30212462 1.9826503 nan
2.6674721 -0.30854872 1.9880846 nan
2.6674614 -0.31326869 1.9880846 nan
2.6494546 -0.31618172 1.9826503 nan
2.6494439 -0.32086742 1.9826503 nan
2.9442897 0.047731921 2.0661645 nan
2.9442778 0.042486213 2.0661645 nan
2.9232635 0.03642866 2.0598645 nan
2.9232516 0.031222947 2.0598645 nan
2.901238 0.025250554 2.0532646 nan
2.8802242 0.019394904 2.0469646 nan
2.8802125 0.014271103 2.0469646 -2.8754741e+38
2.8802009 0.0091473088 2.0469646 -1.8654663e+38
2.8591881 0.0034516528 2.0406647 -2.3033824e+38
2.8591764 -0.0016321465 2.0406647 -2.7294635e+38
2.8391635 -0.0071843676 2.0346646 -2.783205e+38
2.8191509 -0.01266041 2.0286646 -2.8368424e+38
2.8191395 -0.017668016 2.0286646 -2.7973303e+38
2.7791264 -0.023383915 2.0166645 -2.7440015e+38
2.779115 -0.028315336 2.0166645 -2.769544e+38
2.7791038 -0.033246752 2.0166645 -2.7829914e+38
2.7600918 -0.038406033 2.0109644 -2.8628483e+38
2.7600806 -0.043301258 2.0109644 -2.9298827e+38
2.7410688 -0.048351973 2.0052645 -2.7976889e+38
2.7410576 -0.053211007 2.0052645 -2.6632552e+38
2.7220461 -0.058153152 1.9995645 -2.3549837e+38
2.7220352 -0.062975995 1.9995645 -2.0361217e+38
2.7220242 -0.067798838 1.9995645 -2.1954702e+38
2.722013 -0.072621688 1.9995645 -2.3552908e+38
2.722002 -0.077444531 1.9995645 -2.3819808e+38
2.7219908 -0.082267374 1.9995645 -2.4086696e+38
2.7219799 -0.087090224 1.9995645 -2.3820337e+38
2.7219689 -0.091913067 1.9995645 -2.3423122e+38
2.7219577 -0.09673591 1.9995645 -2.3557082e+38
2.7039473 -0.10132892 1.9941645 -2.3558118e+38
2.7039363 -0.10611747 1.9941645 -2.3559155e+38
2.685926 -0.11060762 1.9887645 -2.342623e+38
2.685915 -0.1153619 1.9887645 -2.3426749e+38
2.6859043 -0.12011617 1.9887645 -2.3426228e+38
2.6858933 -0.12487045 1.9887645 -2.3558631e+38
2.6678834 -0.12918918 1.9833646 -2.3558635e+38
2.6678727 -0.13390917 1.9833646 -2.3558118e+38
2.6678617 -0.13862914 1.9833646 -2.3425719e+38
2.667851 -0.14334914 1.9833646 -2.3426761e+38
2.6678402 -0.14806911 1.9833646 -2.3293323e+38
2.6678293 -0.15278912 1.9833646 -2.3425212e+38
2.6678185 -0.15750909 1.9833646 -2.3558134e+38
2.6678076 -0.16222909 1.9833646 -2.3424694e+38
2.6497982 -0.16623923 1.9779645 -2.3292287e+38
2.6497874 -0.17092493 1.9779645 -2.3425727e+38
2.6497767 -0.17561065 1.9779645 -2.3425201e+38
2.649766 -0.18029635 1.9779645 -2.3557082e+38
2.6497552 -0.18498205 1.9779645 -2.3688447e+38
2.6497445 -0.18966776 1.9779645 -2.3553447e+38
2.6497338 -0.19435346 1.9779645 -2.3420526e+38
2.6497231 -0.19903916 1.9779645 -2.3154164e+38
2.6497123 -0.20372486 1.9779645 -2.2889874e+38
2.6497016 -0.20841056 1.9779645 -2.3156758e+38
2.6326931 -0.21210206 1.9728645 -2.3290196e+38
2.6326823 -0.21675536 1.9728645 -2.3423636e+38
2.6326718 -0.22140869 1.9728645 -2.3422597e+38
2.6326611 -0.226062 1.9728645 -2.3553443e+38
2.6326504 -0.23071533 1.9728645 -2.3554488e+38
2.6326396 -0.23536867 1.9728645 -2.3687934e+38
2.6326292 -0.24002197 1.9728645 -2.3822939e+38
2.6156211 -0.24345443 1.9677646 -2.4089832e+38
2.6156106 -0.24807537 1.9677646 -2.4357241e+38
2.6155999 -0.25269631 1.9677646 -2.4756537e+38
2.6155894 -0.25731725 1.9677646 -2.5024469e+38
2.6155787 -0.26193818 1.9677646 -2.555825e+38
2.6155682 -0.26655912 1.9677646 -2.6092547e+38
2.6155577 -0.27118006 1.9677646 -2.6359441e+38
2.6325438 -0.27724853 1.9728645 -2.6496542e+38
2.6325331 -0.28190187 1.9728645 -2.7165854e+38
2.6325223 -0.2865552 1.9728645 -2.7831005e+38
2.6495082 -0.29275322 1.9779645 -2.4375031e+38
2.6494975 -0.29743892 1.9779645 -2.0944046e+38
2.6494868 -0.30212462 1.9779645 nan
2.6674721 -0.30854872 1.9833646 nan
2.6674614 -0.31326869 1.9833646 nan
2.6494546 -0.31618172 1.9779645 nan
2.6494439 -0.32086742 1.9779645 nan
2.6494329 -0.32555309 1.9779645 nan
2.967304 0.05399821 2.067775 nan
2.9442897 0.047731921 2.0609188 nan
2.9232755 0.041634358 2.0546589 nan
2.9232635 0.03642866 2.0546589 nan
2.9012499 0.03041435 2.0481007 nan
2.901238 0.025250554 2.0481007 nan
2.8802242 0.019394904 2.0418408 -3.0796874e+38
2.8802125 0.014271103 2.0418408 -2.6369804e+38
2.8802009 0.0091473088 2.0418408 -2.1832821e+38
2.8591881 0.0034516528 2.0355806 -2.4633593e+38
2.8591764 -0.0016321465 2.0355806 -2.7566204e+38
2.8391635 -0.0071843676 2.0296187 -2.7833088e+38
2.8191509 -0.01266041 2.0236568 -2.8103096e+38
2.7991385 -0.01806026 2.017695 -2.7839333e+38
2.7791264 -0.023383915 2.0117331 -2.7576027e+38
2.779115 -0.028315336 2.0117331 -2.7700585e+38
2.7791038 -0.033246752 2.0117331 -2.7964906e+38
2.7600918 -0.038406033 2.0060692 -2.8766627e+38
2.74108 -0.043492936 2.0004056 -2.9702268e+38
2.7410688 -0.048351973 2.0004056 -2.6100879e+38
2.7220573 -0.05333031 1.9947417 -2.2635477e+38
2.7220461 -0.058153152 1.9947417 -2.2224183e+38
2.704035 -0.063020445 1.9893759 -2.1949516e+38
2.7220242 -0.067798838 1.9947417 -2.2753288e+38
2.7040131 -0.072597563 1.9893759 -2.3686352e+38
2.722002 -0.077444531 1.9947417 -2.3687398e+38
2.7219908 -0.082267374 1.9947417 -2.3820844e+38
2.7039802 -0.086963236 1.9893759 -2.3688964e+38
2.7219689 -0.091913067 1.9947417 -2.3558118e+38
2.7039583 -0.096540362 1.9893759 -2.3558635e+38
2.7039473 -0.10132892 1.9893759 -2.3692597e+38
2.6859369 -0.10585335 1.9840102 -2.3692597e+38
2.6679268 -0.11030922 1.9786446 -2.3692595e+38
2.6679158 -0.11502921 1.9786446 -2.3692593e+38
2.6679051 -0.1197492 1.9786446 -2.3691037e+38
2.6678941 -0.12446918 1.9786446 -2.3691558e+38
2.6678834 -0.12918918 1.9786446 -2.3823964e+38
2.6678727 -0.13390917 1.9786446 -2.3691041e+38
2.6678617 -0.13862914 1.9786446 -2.3691047e+38
2.667851 -0.14334914 1.9786446 -2.355813e+38
2.6678402 -0.14806911 1.9786446 -2.3424169e+38
2.6678293 -0.15278912 1.9786446 -2.3424686e+38
2.6678185 -0.15750909 1.9786446 -2.3424686e+38
2.6678076 -0.16222909 1.9786446 -2.3424686e+38
2.6497982 -0.16623923 1.9732788 -2.3424684e+38
2.6497874 -0.17092493 1.9732788 -2.3424161e+38
2.6497767 -0.17561065 1.9732788 -2.3423116e+38
2.649766 -0.18029635 1.9732788 -2.3289666e+38
2.6497552 -0.18498205 1.9732788 -2.328863e+38
2.6497445 -0.18966776 1.9732788 -2.3154671e+38
2.6497338 -0.19435346 1.9732788 -2.3154673e+38
2.6497231 -0.19903916 1.9732788 -2.3021233e+38
2.6497123 -0.20372486 1.9732788 -2.3022273e+38
2.6497016 -0.20841056 1.9732788 -2.3022794e+38
2.6496909 -0.21309626 1.9732788 -2.3156232e+38
2.6326823 -0.21675536 1.9682112 -2.3156745e+38
2.6326718 -0.22140869 1.9682112 -2.328967e+38
2.6326611 -0.226062 1.9682112 -2.3289151e+38
2.6326504 -0.23071533 1.9682112 -2.3290713e+38
2.6326396 -0.23536867 1.9682112 -2.3423118e+38
2.6156318 -0.23883349 1.9631436 -2.369053e+38
2.6156211 -0.24345443 1.9631436 -2.395742e+38
2.6156106 -0.24807537 1.9631436 -2.4224314e+38
2.6155999 -0.25269631 1.9631436 -2.4491208e+38
2.6155894 -0.25731725 1.9631436 -2.4891543e+38
2.6155787 -0.26193818 1.9631436 -2.5158435e+38
2.6155682 -0.26655912 1.9631436 -2.5558775e+38
2.6155577 -0.27118006 1.9631436 -2.5826193e+38
2.6325438 -0.27724853 1.9682112 -2.6228097e+38
2.6325331 -0.28190187 1.9682112 -2.6229673e+38
2.6325223 -0.2865552 1.9682112 -2.6232287e+38
2.6495082 -0.29275322 1.9732788 -2.4504826e+38
2.6494975 -0.29743892 1.9732788 -2.2778474e+38
2.6674831 -0.30382872 1.9786446 nan
2.6674721 -0.30854872 1.9786446 nan
2.6854572 -0.31504139 1.9840102 nan
2.6854465 -0.31979567 1.9840102 nan
2.6494439 -0.32086742 1.9732788 nan
2.6494329 -0.32555309 1.9732788 nan
2.967304 0.05399821 2.0624855 nan
2.9442897 0.047731921 2.0556731 nan
2.9442778 0.042486213 2.0556731 nan
2.9232635 0.03642866 2.0494533 nan
2.9232516 0.031222947 2.0494533 nan
2.901238 0.025250554 2.0429368 nan
2.8802242 0.019394904 2.0367169 -2.2654802e+38
2.8802125 0.014271103 2.0367169 -2.3828698e+38
2.8591998 0.0085354447 2.0304968 -2.5030753e+38
2.8591881 0.0034516528 2.0304968 -2.6366769e+38
2.8391752 -0.0021386743 2.0245731 -2.7697036e+38
2.8191624 -0.007652808 2.0186493 -2.7829959e+38
2.8191509 -0.01266041 2.0186493 -2.7834638e+38
2.7991385 -0.01806026 2.0127254 -2.7837238e+38
2.7791264 -0.023383915 2.0068016 -2.7702725e+38
2.779115 -0.028315336 2.0068016 -2.783094e+38
2.760103 -0.033510808 2.001174 -2.7968041e+38
2.741091 -0.038633902 1.9955465 -2.903716e+38
2.74108 -0.043492936 1.9955465 -2.9960315e+38
2.7220683 -0.048507459 1.9899188 -2.4222272e+38
2.7220573 -0.05333031 1.9899188 -1.850603e+38
2.7220461 -0.058153152 1.9899188 -2.1027366e+38
2.704035 -0.063020445 1.9845874 -2.3418938e+38
2.7040241 -0.067809001 1.9845874 -2.368738e+38
2.7040131 -0.072597563 1.9845874 -2.3820832e+38
2.722002 -0.077444531 1.9899188 -2.3688439e+38
2.7219908 -0.082267374 1.9899188 -2.3423116e+38
2.7039802 -0.086963236 1.9845874 -2.3557084e+38
2.7039692 -0.091751799 1.9845874 -2.3558641e+38
2.7039583 -0.096540362 1.9845874 -2.3692605e+38
2.6859479 -0.10109907 1.9792559 -2.3693124e+38
2.6859369 -0.10585335 1.9792559 -2.3826566e+38
2.6679268 -0.11030922 1.9739245 -2.3826047e+38
2.6679158 -0.11502921 1.9739245 -2.395897e+38
2.6679051 -0.1197492 1.9739245 -2.3958452e+38
2.6678941 -0.12446918 1.9739245 -2.3957935e+38
2.6678834 -0.12918918 1.9739245 -2.3957418e+38
2.6678727 -0.13390917 1.9739245 -2.395742e+38
2.6678617 -0.13862914 1.9739245 -2.3956382e+38
2.667851 -0.14334914 1.9739245 -2.382242e+38
2.6678402 -0.14806911 1.9739245 -2.3556571e+38
2.6678293 -0.15278912 1.9739245 -2.3423644e+38
2.6678185 -0.15750909 1.9739245 -2.3290719e+38
2.6678076 -0.16222909 1.9739245 -2.342364e+38
2.6497982 -0.16623923 1.9685931 -2.355656e+38
2.6497874 -0.17092493 1.9685931 -2.3422597e+38
2.6497767 -0.17561065 1.9685931 -2.3289151e+38
2.649766 -0.18029635 1.9685931 -2.3155705e+38
2.6497552 -0.18498205 1.9685931 -2.2889342e+38
2.6497445 -0.18966776 1.9685931 -2.2888306e+38
2.6497338 -0.19435346 1.9685931 -2.2754866e+38
2.6497231 -0.19903916 1.9685931 -2.2886752e+38
2.6497123 -0.20372486 1.9685931 -2.3021233e+38
2.6497016 -0.20841056 1.9685931 -2.3021754e+38
2.6496909 -0.21309626 1.9685931 -2.3023305e+38
2.6326823 -0.21675536 1.9635578 -2.3023819e+38
2.6496694 -0.22246766 1.9685931 -2.3023301e+38
2.6496587 -0.22715336 1.9685931 -2.3023301e+38
2.6326504 -0.23071533 1.9635578 -2.3023827e+38
2.6326396 -0.23536867 1.9635578 -2.3289676e+38
2.6326292 -0.24002197 1.9635578 -2.3424165e+38
2.6326184 -0.24467531 1.9635578 -2.3691055e+38
2.6156106 -0.24807537 1.9585226 -2.3958467e+38
2.632597 -0.25398192 1.9635578 -2.4358284e+38
2.6325865 -0.25863525 1.9635578 -2.4625176e+38
2.6155787 -0.26193818 1.9585226 -2.4891029e+38
2.632565 -0.26794189 1.9635578 -2.5026043e+38
2.6155577 -0.27118006 1.9585226 -2.5424826e+38
2.6325438 -0.27724853 1.9635578 -2.5826209e+38
2.6325331 -0.28190187 1.9635578 -2.5159536e+38
2.6325223 -0.2865552 1.9635578 -2.4501688e+38
2.6325116 -0.29120851 1.9635578 -2.4501185e+38
2.6494975 -0.29743892 1.9685931 -2.4517363e+38
2.6674831 -0.30382872 1.9739245 nan
2.6854682 -0.31028712 1.9792559 nan
2.6854572 -0.31504139 1.9792559 nan
2.6854465 -0.31979567 1.9792559 nan
2.7034314 -0.32639119 1.9845874 nan
2.7034204 -0.33117974 1.9845874 nan
2.967304 0.05399821 2.0571959 nan
2.9442897 0.047731921 2.0504274 nan
2.9442778 0.042486213 2.0504274 nan
2.9232635 0.03642866 2.0442474 nan
2.9232516 0.031222947 2.0442474 nan
2.901238 0.025250554 2.0377731 -2.9705443e+38
2.8802242 0.019394904 2.0315931 -2.0904449e+38
2.8802125 0.014271103 2.0315931 -2.3300643e+38
2.8591998 0.0085354447 2.025413 -2.5833995e+38
2.8391867 0.0029070228 2.0195274 -2.6631562e+38
2.8391752 -0.0021386743 2.0195274 -2.7430657e+38
2.7991612 -0.0081212409 2.007756 -2.7565137e+38
2.7991498 -0.013090748 2.007756 -2.7833064e+38
2.7791376 -0.018452503 2.0018702 -2.7701701e+38
2.7791264 -0.023383915 2.0018702 -2.7700133e+38
2.7601142 -0.028615583 1.9962788 -2.7700642e+38
2.7221014 -0.034038924 1.985096 -2.7569814e+38
2.741091 -0.038633902 1.9906874 -2.8105157e+38
2.7220793 -0.043684617 1.985096 -2.8637827e+38
2.7220683 -0.048507459 1.985096 -2.5156851e+38
2.7220573 -0.05333031 1.985096 -2.1557011e+38
