# .PCD v0.7 - Point Cloud Data file format
VERSION 0.7
FIELDS x y z rgb
SIZE 4 4 4 4
TYPE F F F F
COUNT 1 1 1 1
WIDTH 1026
HEIGHT 1
VIEWPOINT 0 0 0 1 0 0 0
POINTS 1026
DATA ascii
2.6855145 -0.072572976 1.7700675 -2.0755274e+38
2.7035034 -0.077385657 1.7738903 -2.0755791e+38
2.7034924 -0.082174219 1.7738903 -2.0622347e+38
2.7034814 -0.086962774 1.7738903 -2.035598e+38
2.7034705 -0.091751337 1.7738903 -1.9957212e+38
2.7034595 -0.0965399 1.7738903 -2.0223057e+38
2.7034485 -0.10132845 1.7738903 -2.0488382e+38
2.7034376 -0.10611701 1.7738903 -2.0089611e+38
2.7034266 -0.11090557 1.7738903 -1.9557401e+38
2.6854162 -0.11536144 1.7700675 -1.9556881e+38
2.6854055 -0.12011571 1.7700675 -1.9423963e+38
2.6853945 -0.12486999 1.7700675 -1.9158121e+38
2.6853836 -0.12962426 1.7700675 -1.889331e+38
2.7033715 -0.13484837 1.7738903 -1.9025707e+38
2.7033606 -0.13963693 1.7738903 -1.9158628e+38
2.7033496 -0.1444255 1.7738903 -1.9291032e+38
2.7033386 -0.14921406 1.7738903 -1.9423435e+38
2.7213264 -0.15460959 1.7777131 -1.9156553e+38
2.7213151 -0.15943243 1.7777131 -1.8891225e+38
2.7213042 -0.16425528 1.7777131 -1.9024148e+38
2.7032948 -0.16836828 1.7738903 -1.9157071e+38
2.6852856 -0.17241272 1.7700675 -1.9289993e+38
2.6852746 -0.177167 1.7700675 -1.9423439e+38
2.6672657 -0.18110858 1.7662445 -1.9556368e+38
2.6672547 -0.18582857 1.7662445 -1.955689e+38
2.667244 -0.19054854 1.7662445 -2.0090143e+38
2.649235 -0.19435298 1.7624216 -2.0622353e+38
2.6492243 -0.19903868 1.7624216 -2.0620795e+38
2.6492136 -0.20372438 1.7624216 -2.0622357e+38
2.632205 -0.20744827 1.7588112 -2.0888209e+38
2.6321943 -0.21210158 1.7588112 -2.1021133e+38
2.6321836 -0.21675491 1.7588112 -2.1419385e+38
2.6321731 -0.22140822 1.7588112 -2.1687824e+38
2.6151648 -0.22497022 1.7552006 -2.195367e+38
2.615154 -0.22959116 1.7552006 -2.2089199e+38
2.6151435 -0.2342121 1.7552006 -2.2356613e+38
2.615133 -0.23883301 1.7552006 -2.2490063e+38
2.6151223 -0.24345395 1.7552006 -2.2624553e+38
2.6151118 -0.24807492 1.7552006 -2.2758003e+38
2.6151011 -0.25269586 1.7552006 -2.3291262e+38
2.6150906 -0.2573168 1.7552006 -2.369212e+38
2.6150799 -0.26193774 1.7552006 -2.4490709e+38
2.6150694 -0.26655868 1.7552006 -2.529138e+38
2.6320555 -0.27259475 1.7588112 -2.5695357e+38
2.632045 -0.27724808 1.7588112 -2.6098812e+38
2.6320343 -0.28190142 1.7588112 -3.2086585e+38
2.6320236 -0.28655472 1.7588112 nan
2.6490095 -0.29275274 1.7624216 nan
2.6320024 -0.29586136 1.7588112 nan
2.798856 0.076360904 1.7890968 -2.2888837e+38
2.7988448 0.071391396 1.7890968 -2.2892466e+38
2.778831 0.065382026 1.7848873 -2.3029542e+38
2.7788198 0.060450606 1.7848873 -2.3162465e+38
2.7788086 0.055519208 1.7848873 -2.3293311e+38
2.759795 0.049708486 1.7808883 -2.3290194e+38
2.7597837 0.044813268 1.7808883 -2.3420512e+38
2.7407706 0.039111122 1.7768893 -2.3020695e+38
2.7217574 0.033481367 1.7728902 -2.2755359e+38
2.7217464 0.028658524 1.7728902 -2.2487426e+38
2.7217355 0.023835674 1.7728902 -2.2087619e+38
2.7217243 0.019012831 1.7728902 -2.1821771e+38
2.7217133 0.014189988 1.7728902 -2.1554885e+38
2.7217023 0.0093671381 1.7728902 -2.142248e+38
2.7216911 0.0045442954 1.7728902 -2.1422486e+38
2.7036791 -0.00076871365 1.7691016 -2.142249e+38
2.7036681 -0.0055572689 1.7691016 -2.1421971e+38
2.721658 -0.0099242404 1.7728902 -2.1421449e+38
2.7036462 -0.01513439 1.7691016 -2.142093e+38
2.7036352 -0.019922949 1.7691016 -2.1288525e+38
2.703624 -0.024711505 1.7691016 -2.1288521e+38
2.703613 -0.029500067 1.7691016 -2.102163e+38
2.6856017 -0.034538787 1.7653131 -2.0887673e+38
2.6855907 -0.039293062 1.7653131 -2.0755272e+38
2.6855798 -0.044047337 1.7653131 -2.0622349e+38
2.6855688 -0.048801608 1.7653131 -2.0755272e+38
2.6675577 -0.053668901 1.7615244 -2.0888199e+38
2.667547 -0.058388889 1.7615244 -2.1021123e+38
2.667536 -0.063108876 1.7615244 -2.1154044e+38
2.6675253 -0.067828864 1.7615244 -2.1021119e+38
2.6855145 -0.072572976 1.7653131 -2.1021119e+38
2.7035034 -0.077385657 1.7691016 -2.0755272e+38
2.7034924 -0.082174219 1.7691016 -2.0622347e+38
2.7034814 -0.086962774 1.7691016 -2.0356497e+38
2.7214701 -0.091912605 1.7728902 -2.0091173e+38
2.7214589 -0.096735448 1.7728902 -2.0223576e+38
2.7034485 -0.10132845 1.7691016 -2.0488382e+38
2.7034376 -0.10611701 1.7691016 -2.0355455e+38
2.7034266 -0.11090557 1.7691016 -2.0221495e+38
2.6854162 -0.11536144 1.7653131 -1.995565e+38
2.6854055 -0.12011571 1.7653131 -1.9689291e+38
2.6853945 -0.12486999 1.7653131 -1.9425009e+38
2.6853836 -0.12962426 1.7653131 -1.9161232e+38
2.7033715 -0.13484837 1.7691016 -1.929207e+38
2.7033606 -0.13963693 1.7691016 -1.9423953e+38
2.7213485 -0.14496389 1.7728902 -1.9290509e+38
2.7213373 -0.14978674 1.7728902 -1.9289991e+38
2.7213264 -0.15460959 1.7728902 -1.9157071e+38
2.7213151 -0.15943243 1.7728902 -1.8891225e+38
2.7213042 -0.16425528 1.7728902 -1.9024667e+38
2.7032948 -0.16836828 1.7691016 -1.9024665e+38
2.6852856 -0.17241272 1.7653131 -1.9290506e+38
2.6852746 -0.177167 1.7653131 -1.9556358e+38
2.6672657 -0.18110858 1.7615244 -1.982221e+38
2.6672547 -0.18582857 1.7615244 -2.0088579e+38
2.6492457 -0.18966728 1.757736 -2.0355984e+38
2.649235 -0.19435298 1.757736 -2.0622349e+38
2.6492243 -0.19903868 1.757736 -2.0754752e+38
2.6492136 -0.20372438 1.757736 -2.0888203e+38
2.632205 -0.20744827 1.7541578 -2.1021651e+38
2.6321943 -0.21210158 1.7541578 -2.1154058e+38
2.6321836 -0.21675491 1.7541578 -2.1420944e+38
2.6321731 -0.22140822 1.7541578 -2.1688867e+38
2.6151648 -0.22497022 1.7505798 -2.1822309e+38
2.615154 -0.22959116 1.7505798 -2.1957319e+38
2.6151435 -0.2342121 1.7505798 -2.2223692e+38
2.5981359 -0.23764452 1.7470016 -2.2489545e+38
2.5981255 -0.2422331 1.7470016 -2.2756957e+38
2.5981147 -0.24682164 1.7470016 -2.2890928e+38
2.5981042 -0.25141022 1.7470016 -2.3158342e+38
2.6150906 -0.2573168 1.7505798 -2.355972e+38
2.6150799 -0.26193774 1.7505798 -2.3958503e+38
2.6150694 -0.26655868 1.7505798 -2.4492289e+38
2.6320555 -0.27259475 1.7541578 -2.4628863e+38
2.632045 -0.27724808 1.7541578 -2.4636153e+38
2.6490309 -0.28338134 1.757736 -3.0767756e+38
2.6490202 -0.28806704 1.757736 nan
2.6490095 -0.29275274 1.757736 nan
2.6489987 -0.29743844 1.757736 nan
2.648988 -0.30212414 1.757736 nan
2.7988675 0.081330411 1.7841274 -2.0099539e+38
2.798856 0.076360904 1.7841274 -2.3024881e+38
2.7988448 0.071391396 1.7841274 -2.3293325e+38
2.778831 0.065382026 1.7799559 -2.3428327e+38
2.7788198 0.060450606 1.7799559 -2.3429887e+38
2.7788086 0.055519208 1.7799559 -2.3293842e+38
2.759795 0.049708486 1.7759931 -2.3423646e+38
2.7597837 0.044813268 1.7759931 -2.3554479e+38
2.7407706 0.039111122 1.7720302 -2.3153624e+38
2.7407594 0.034252085 1.7720302 -2.2753807e+38
2.7217464 0.028658524 1.7680674 -2.2486396e+38
2.7217355 0.023835674 1.7680674 -2.2087623e+38
2.7217243 0.019012831 1.7680674 -2.1821774e+38
2.7217133 0.014189988 1.7680674 -2.1555924e+38
2.7217023 0.0093671381 1.7680674 -2.1555922e+38
2.7216911 0.0045442954 1.7680674 -2.1423001e+38
2.7036791 -0.00076871365 1.7643131 -2.1555926e+38
2.7036681 -0.0055572689 1.7643131 -2.1687812e+38
2.7036572 -0.010345835 1.7643131 -2.1687814e+38
2.7036462 -0.01513439 1.7643131 -2.1553849e+38
2.7036352 -0.019922949 1.7643131 -2.1553328e+38
2.703624 -0.024711505 1.7643131 -2.1553326e+38
2.703613 -0.029500067 1.7643131 -2.141936e+38
2.6856017 -0.034538787 1.7605588 -2.1154036e+38
2.6855907 -0.039293062 1.7605588 -2.1021117e+38
2.6855798 -0.044047337 1.7605588 -2.0755274e+38
2.6855688 -0.048801608 1.7605588 -2.0888201e+38
2.6675577 -0.053668901 1.7568045 -2.0888203e+38
2.667547 -0.058388889 1.7568045 -2.1154052e+38
2.6855361 -0.063064426 1.7605588 -2.1419894e+38
2.6675253 -0.067828864 1.7568045 -2.128645e+38
2.6855145 -0.072572976 1.7605588 -2.1153523e+38
2.7035034 -0.077385657 1.7643131 -2.0888194e+38
2.7034924 -0.082174219 1.7643131 -2.0622347e+38
2.7034814 -0.086962774 1.7643131 -2.0356501e+38
2.7214701 -0.091912605 1.7680674 -2.0090656e+38
2.7214589 -0.096735448 1.7680674 -2.0223578e+38
2.7214479 -0.10155829 1.7680674 -2.0355982e+38
2.7034376 -0.10611701 1.7643131 -2.0621306e+38
2.7034266 -0.11090557 1.7643131 -2.0887152e+38
2.7034156 -0.11569414 1.7643131 -2.0355461e+38
2.7034047 -0.12048269 1.7643131 -1.9823254e+38
2.6853945 -0.12486999 1.7605588 -1.9558453e+38
2.6853836 -0.12962426 1.7605588 -1.92926e+38
2.7033715 -0.13484837 1.7643131 -1.9423959e+38
2.7213595 -0.14014104 1.7680674 -1.9556879e+38
2.7213485 -0.14496389 1.7680674 -1.9423435e+38
2.7213373 -0.14978674 1.7680674 -1.9157071e+38
2.7213264 -0.15460959 1.7680674 -1.9024148e+38
2.7213151 -0.15943243 1.7680674 -1.8891742e+38
2.7213042 -0.16425528 1.7680674 -1.8891738e+38
2.7032948 -0.16836828 1.7643131 -1.889174e+38
2.7032838 -0.17315684 1.7643131 -1.9289991e+38
2.6852746 -0.177167 1.7605588 -1.9556358e+38
2.6672657 -0.18110858 1.7568045 -2.0088051e+38
2.6672547 -0.18582857 1.7568045 -2.0487862e+38
2.667244 -0.19054854 1.7568045 -2.0621826e+38
2.649235 -0.19435298 1.7530502 -2.0622347e+38
2.6492243 -0.19903868 1.7530502 -2.0888194e+38
2.6492136 -0.20372438 1.7530502 -2.1154565e+38
2.632205 -0.20744827 1.7495046 -2.1155093e+38
2.6321943 -0.21210158 1.7495046 -2.1155097e+38
2.6321836 -0.21675491 1.7495046 -2.1421466e+38
2.6321731 -0.22140822 1.7495046 -2.1688871e+38
2.6151648 -0.22497022 1.7459588 -2.1822834e+38
2.615154 -0.22959116 1.7459588 -2.1823881e+38
2.6151435 -0.2342121 1.7459588 -2.2223179e+38
2.615133 -0.23883301 1.7459588 -2.2489552e+38
2.5981255 -0.2422331 1.742413 -2.2755922e+38
2.5981147 -0.24682164 1.742413 -2.3022813e+38
2.5981042 -0.25141022 1.742413 -2.3156261e+38
2.6150906 -0.2573168 1.7459588 -2.3291275e+38
2.6150799 -0.26193774 1.7459588 -2.3557652e+38
2.6150694 -0.26655868 1.7459588 -2.3692668e+38
2.6320555 -0.27259475 1.7495046 -2.3426317e+38
2.632045 -0.27724808 1.7495046 -2.3174004e+38
2.6490309 -0.28338134 1.7530502 -2.9440621e+38
2.6490202 -0.28806704 1.7530502 nan
2.6490095 -0.29275274 1.7530502 nan
2.6489987 -0.29743844 1.7530502 nan
2.648988 -0.30212414 1.7530502 nan
2.798856 0.076360904 1.7791579 -2.3424175e+38
2.7988448 0.071391396 1.7791579 -2.3558664e+38
2.7988334 0.066421889 1.7791579 -2.382711e+38
2.7788198 0.060450606 1.7750245 -2.3695748e+38
2.7788086 0.055519208 1.7750245 -2.3693663e+38
2.759795 0.049708486 1.7710979 -2.3558134e+38
2.7597837 0.044813268 1.7710979 -2.3555007e+38
2.7407706 0.039111122 1.7671711 -2.3154149e+38
2.7217574 0.033481367 1.7632445 -2.2886219e+38
2.7217464 0.028658524 1.7632445 -2.248744e+38
2.7217355 0.023835674 1.7632445 -2.2221069e+38
2.7217243 0.019012831 1.7632445 -2.1955735e+38
2.7217133 0.014189988 1.7632445 -2.1690404e+38
2.703701 0.0088084042 1.7595246 -2.1822285e+38
2.7036901 0.0040198416 1.7595246 -2.1821765e+38
2.7036791 -0.00076871365 1.7595246 -2.1821246e+38
2.7036681 -0.0055572689 1.7595246 -2.1953135e+38
2.7036572 -0.010345835 1.7595246 -2.1820216e+38
2.7036462 -0.01513439 1.7595246 -2.168625e+38
2.7036352 -0.019922949 1.7595246 -2.1686246e+38
2.703624 -0.024711505 1.7595246 -2.1686246e+38
2.703613 -0.029500067 1.7595246 -2.141988e+38
2.7036021 -0.034288626 1.7595246 -2.1286959e+38
2.6855907 -0.039293062 1.7558045 -2.1154038e+38
2.6855798 -0.044047337 1.7558045 -2.1021121e+38
2.6675687 -0.048948914 1.7520845 -2.0888205e+38
2.6675577 -0.053668901 1.7520845 -2.0755286e+38
2.667547 -0.058388889 1.7520845 -2.1021133e+38
2.667536 -0.063108876 1.7520845 -2.1154052e+38
2.6675253 -0.067828864 1.7520845 -2.1020606e+38
2.6675146 -0.072548851 1.7520845 -2.0886641e+38
2.7035034 -0.077385657 1.7595246 -2.0489424e+38
2.7034924 -0.082174219 1.7595246 -2.0091177e+38
2.7034814 -0.086962774 1.7595246 -1.9824814e+38
2.7034705 -0.091751337 1.7595246 -1.9691891e+38
2.7034595 -0.0965399 1.7595246 -1.9824812e+38
2.7034485 -0.10132845 1.7595246 -1.9957737e+38
2.7034376 -0.10611701 1.7595246 -2.0223063e+38
2.7034266 -0.11090557 1.7595246 -2.062131e+38
2.6854162 -0.11536144 1.7558045 -2.0355463e+38
2.7034047 -0.12048269 1.7595246 -1.9956181e+38
2.6853945 -0.12486999 1.7558045 -1.9690859e+38
2.6853836 -0.12962426 1.7558045 -1.9557411e+38
2.7033715 -0.13484837 1.7595246 -1.9423961e+38
2.7213595 -0.14014104 1.7632445 -1.9423959e+38
2.7213485 -0.14496389 1.7632445 -1.9157073e+38
2.7033386 -0.14921406 1.7595246 -1.9023631e+38
2.7213264 -0.15460959 1.7632445 -1.8891225e+38
2.7213151 -0.15943243 1.7632445 -1.8758815e+38
2.7213042 -0.16425528 1.7632445 -1.9024655e+38
2.7032948 -0.16836828 1.7595246 -1.9289987e+38
2.7032838 -0.17315684 1.7595246 -1.9688762e+38
2.6852746 -0.177167 1.7558045 -2.0220453e+38
2.6672657 -0.18110858 1.7520845 -2.0487335e+38
2.6672547 -0.18582857 1.7520845 -2.0887665e+38
2.6492457 -0.18966728 1.7483644 -2.0887667e+38
2.649235 -0.19435298 1.7483644 -2.0755787e+38
2.6492243 -0.19903868 1.7483644 -2.0888714e+38
2.6322157 -0.20279494 1.7448511 -2.1155085e+38
2.632205 -0.20744827 1.7448511 -2.1022687e+38
2.6321943 -0.21210158 1.7448511 -2.1023212e+38
2.6321836 -0.21675491 1.7448511 -2.1289583e+38
2.6321731 -0.22140822 1.7448511 -2.1556471e+38
2.6151648 -0.22497022 1.7413378 -2.1556993e+38
2.615154 -0.22959116 1.7413378 -2.1690964e+38
2.6151435 -0.2342121 1.7413378 -2.195682e+38
2.615133 -0.23883301 1.7413378 -2.2356633e+38
2.5981255 -0.2422331 1.7378246 -2.2623004e+38
2.5981147 -0.24682164 1.7378246 -2.3022293e+38
2.5981042 -0.25141022 1.7378246 -2.3155737e+38
2.5980937 -0.25599876 1.7378246 -2.3423672e+38
2.6150799 -0.26193774 1.7413378 -2.3425242e+38
2.6150694 -0.26655868 1.7413378 -2.3427852e+38
2.6320555 -0.27259475 1.7448511 -2.2365521e+38
2.6490417 -0.27869564 1.7483644 -2.1173416e+38
2.6490309 -0.28338134 1.7483644 -2.4511069e+38
2.6490202 -0.28806704 1.7483644 -2.7723616e+38
2.6490095 -0.29275274 1.7483644 nan
2.6489987 -0.29743844 1.7483644 nan
2.648988 -0.30212414 1.7483644 nan
2.798856 0.076360904 1.7741883 -2.3683226e+38
2.7988448 0.071391396 1.7741883 -2.3955339e+38
2.7988334 0.066421889 1.7741883 -2.4092941e+38
2.7788198 0.060450606 1.7700931 -2.4098137e+38
2.7788086 0.055519208 1.7700931 -2.3960018e+38
2.759795 0.049708486 1.7662027 -2.3825534e+38
2.7407818 0.043970153 1.7623122 -2.3555524e+38
2.7407706 0.039111122 1.7623122 -2.3286555e+38
2.7217574 0.033481367 1.7584217 -2.2887778e+38
2.7217464 0.028658524 1.7584217 -2.2621925e+38
2.7217355 0.023835674 1.7584217 -2.2222629e+38
2.703723 0.018385522 1.7547359 -2.2089698e+38
2.703712 0.013596967 1.7547359 -2.1823329e+38
2.703701 0.0088084042 1.7547359 -2.2088651e+38
2.7036901 0.0040198416 1.7547359 -2.2220536e+38
2.7036791 -0.00076871365 1.7547359 -2.2220015e+38
2.7036681 -0.0055572689 1.7547359 -2.2086057e+38
2.7036572 -0.010345835 1.7547359 -2.1952621e+38
2.7036462 -0.01513439 1.7547359 -2.1685735e+38
2.7036352 -0.019922949 1.7547359 -2.1686253e+38
2.703624 -0.024711505 1.7547359 -2.1686253e+38
2.703613 -0.029500067 1.7547359 -2.1553328e+38
2.7036021 -0.034288626 1.7547359 -2.1420407e+38
2.7035911 -0.039077185 1.7547359 -2.1286965e+38
2.6855798 -0.044047337 1.7510502 -2.1154567e+38
2.6855688 -0.048801608 1.7510502 -2.0888728e+38
2.6855581 -0.053555883 1.7510502 -2.0622882e+38
2.667547 -0.058388889 1.7473645 -2.0755807e+38
2.667536 -0.063108876 1.7473645 -2.0888209e+38
2.6675253 -0.067828864 1.7473645 -2.0755284e+38
2.6675146 -0.072548851 1.7473645 -2.062184e+38
2.7035034 -0.077385657 1.7547359 -2.0091183e+38
2.7034924 -0.082174219 1.7547359 -1.9426571e+38
2.7034814 -0.086962774 1.7547359 -1.9426052e+38
2.7034705 -0.091751337 1.7547359 -1.9293129e+38
2.7034595 -0.0965399 1.7547359 -1.9426052e+38
2.7034485 -0.10132845 1.7547359 -1.942605e+38
2.7034376 -0.10611701 1.7547359 -1.9957741e+38
2.7034266 -0.11090557 1.7547359 -2.0355469e+38
2.7034156 -0.11569414 1.7547359 -2.0222027e+38
2.7034047 -0.12048269 1.7547359 -2.0089627e+38
2.6853945 -0.12486999 1.7510502 -1.9957228e+38
2.6853836 -0.12962426 1.7510502 -1.9690857e+38
2.7033715 -0.13484837 1.7547359 -1.9556372e+38
2.7033606 -0.13963693 1.7547359 -1.9290521e+38
2.7033496 -0.1444255 1.7547359 -1.9023631e+38
2.7033386 -0.14921406 1.7547359 -1.87583e+38
2.7213264 -0.15460959 1.7584217 -1.8625892e+38
2.7213151 -0.15943243 1.7584217 -1.8492968e+38
2.7213042 -0.16425528 1.7584217 -1.9024659e+38
2.7032948 -0.16836828 1.7547359 -1.9555835e+38
2.7032838 -0.17315684 1.7547359 -2.0220455e+38
2.7032728 -0.17794541 1.7547359 -2.0752142e+38
2.6852636 -0.18192127 1.7510502 -2.1018505e+38
2.6672547 -0.18582857 1.7473645 -2.1285391e+38
2.6492457 -0.18966728 1.7436788 -2.115247e+38
2.649235 -0.19435298 1.7436788 -2.0888188e+38
2.6492243 -0.19903868 1.7436788 -2.1022158e+38
2.6322157 -0.20279494 1.7401979 -2.1022681e+38
2.632205 -0.20744827 1.7401979 -2.0890284e+38
2.6321943 -0.21210158 1.7401979 -2.0757884e+38
2.6321836 -0.21675491 1.7401979 -2.1024253e+38
2.6321731 -0.22140822 1.7401979 -2.129062e+38
2.6151648 -0.22497022 1.7367169 -2.1423545e+38
2.6321516 -0.23071489 1.7401979 -2.1556997e+38
2.6151435 -0.2342121 1.7367169 -2.1822855e+38
2.615133 -0.23883301 1.7367169 -2.2089741e+38
2.5981255 -0.2422331 1.733236 -2.248955e+38
2.5981147 -0.24682164 1.733236 -2.2887805e+38
2.5981042 -0.25141022 1.733236 -2.3152616e+38
2.5980937 -0.25599876 1.733236 -2.3422626e+38
2.5980833 -0.2605873 1.733236 -2.3290751e+38
2.6150694 -0.26655868 1.7367169 -2.3160437e+38
2.6150589 -0.27117962 1.7367169 -2.1168684e+38
2.632045 -0.27724808 1.7401979 -1.9176927e+38
2.6490309 -0.28338134 1.7436788 -1.9574146e+38
2.6490202 -0.28806704 1.7436788 -1.985772e+38
2.6490095 -0.29275274 1.7436788 -2.8651471e+38
2.6489987 -0.29743844 1.7436788 nan
2.648988 -0.30212414 1.7436788 nan
2.798856 0.076360904 1.7692188 -2.035336e+38
2.7988448 0.071391396 1.7692188 -2.2486422e+38
2.7988334 0.066421889 1.7692188 -2.47565e+38
2.7788198 0.060450606 1.7651616 -2.4360853e+38
2.7788086 0.055519208 1.7651616 -2.4089817e+38
2.759795 0.049708486 1.7613074 -2.3955337e+38
2.7597837 0.044813268 1.7613074 -2.3820331e+38
2.7407706 0.039111122 1.7574531 -2.3420516e+38
2.7217574 0.033481367 1.7535988 -2.3021222e+38
2.7217464 0.028658524 1.7535988 -2.2755369e+38
2.7217355 0.023835674 1.7535988 -2.2488477e+38
2.703723 0.018385522 1.7499473 -2.2355544e+38
2.703712 0.013596967 1.7499473 -2.222158e+38
2.703701 0.0088084042 1.7499473 -2.2221057e+38
2.7036901 0.0040198416 1.7499473 -2.2352939e+38
2.7036791 -0.00076871365 1.7499473 -2.2219495e+38
2.7036681 -0.0055572689 1.7499473 -2.2218982e+38
2.7036572 -0.010345835 1.7499473 -2.2085025e+38
2.7036462 -0.01513439 1.7499473 -2.1950027e+38
2.7036352 -0.019922949 1.7499473 -2.1818662e+38
2.703624 -0.024711505 1.7499473 -2.1685739e+38
2.703613 -0.029500067 1.7499473 -2.1420411e+38
2.7036021 -0.034288626 1.7499473 -2.1288007e+38
2.7035911 -0.039077185 1.7499473 -2.1022162e+38
2.7035801 -0.043865744 1.7499473 -2.0890284e+38
2.6855688 -0.048801608 1.7462959 -2.0756846e+38
2.6855581 -0.053555883 1.7462959 -2.0623404e+38
2.6855471 -0.058310155 1.7462959 -2.0755807e+38
2.667536 -0.063108876 1.7426445 -2.0888211e+38
2.6675253 -0.067828864 1.7426445 -2.0622365e+38
2.6675146 -0.072548851 1.7426445 -2.0356e+38
2.6855035 -0.077327251 1.7462959 -1.9957749e+38
2.6854925 -0.082081527 1.7462959 -1.9426058e+38
2.7034814 -0.086962774 1.7499473 -1.9293135e+38
2.7034705 -0.091751337 1.7499473 -1.9160214e+38
2.7034595 -0.0965399 1.7499473 -1.9293656e+38
2.7034485 -0.10132845 1.7499473 -1.9426575e+38
2.7034376 -0.10611701 1.7499473 -1.9957743e+38
2.7034266 -0.11090557 1.7499473 -2.0354956e+38
2.7034156 -0.11569414 1.7499473 -2.0089629e+38
2.7034047 -0.12048269 1.7499473 -1.9957747e+38
2.7033937 -0.12527126 1.7499473 -1.9824826e+38
2.7033825 -0.13005981 1.7499473 -1.9824305e+38
2.6853728 -0.13437852 1.7462959 -1.969034e+38
2.7033606 -0.13963693 1.7499473 -1.9688772e+38
2.7033496 -0.1444255 1.7499473 -1.9289993e+38
2.7033386 -0.14921406 1.7499473 -1.8891219e+38
2.7033277 -0.15400261 1.7499473 -1.889173e+38
2.7033167 -0.15879117 1.7499473 -1.8891217e+38
2.7213042 -0.16425528 1.7535988 -1.9157066e+38
2.7032948 -0.16836828 1.7499473 -1.9422397e+38
2.7032838 -0.17315684 1.7499473 -1.9954609e+38
2.6852746 -0.177167 1.7462959 -2.0486296e+38
2.6852636 -0.18192127 1.7462959 -2.048681e+38
2.6672547 -0.18582857 1.7426445 -2.0620773e+38
2.6492457 -0.18966728 1.738993 -2.0621813e+38
2.649235 -0.19435298 1.738993 -2.0755785e+38
2.6322262 -0.19814163 1.7355446 -2.0889235e+38
2.6322157 -0.20279494 1.7355446 -2.1022162e+38
2.632205 -0.20744827 1.7355446 -2.0757878e+38
2.6151965 -0.21110737 1.732096 -2.0625478e+38
2.615186 -0.21572831 1.732096 -2.1024768e+38
2.6151752 -0.22034925 1.732096 -2.1423539e+38
2.6151648 -0.22497022 1.732096 -2.1556461e+38
2.615154 -0.22959116 1.732096 -2.1822838e+38
2.6151435 -0.2342121 1.732096 -2.2088694e+38
2.615133 -0.23883301 1.732096 -2.2487462e+38
2.5981255 -0.2422331 1.7286474 -2.2754345e+38
2.5981147 -0.24682164 1.7286474 -2.3020198e+38
2.5981042 -0.25141022 1.7286474 -2.328761e+38
2.5980937 -0.25599876 1.7286474 -2.3557098e+38
2.5980833 -0.2605873 1.7286474 -2.3557104e+38
2.5980728 -0.26517588 1.7286474 -2.3558674e+38
2.6150589 -0.27117962 1.732096 -2.24979e+38
2.632045 -0.27724808 1.7355446 -2.1570006e+38
2.6490309 -0.28338134 1.738993 -2.0768285e+38
2.6490202 -0.28806704 1.738993 -2.0096483e+38
2.6490095 -0.29275274 1.738993 -2.4508976e+38
2.6489987 -0.29743844 1.738993 -2.9054886e+38
2.648988 -0.30212414 1.738993 nan
2.798856 0.076360904 1.7642493 -1.7021964e+38
2.7988448 0.071391396 1.7642493 -2.1145183e+38
2.778831 0.065382026 1.7602303 -2.5281928e+38
2.7788198 0.060450606 1.7602303 -2.4763778e+38
2.7788086 0.055519208 1.7602303 -2.4093454e+38
2.759795 0.049708486 1.7564121 -2.408567e+38
2.7407818 0.043970153 1.752594 -2.3953775e+38
2.7407706 0.039111122 1.752594 -2.355396e+38
2.7217574 0.033481367 1.748776 -2.3021742e+38
2.7217464 0.028658524 1.748776 -2.2888813e+38
2.7217355 0.023835674 1.748776 -2.2754845e+38
2.7217243 0.019012831 1.748776 -2.2621397e+38
2.703712 0.013596967 1.7451588 -2.2487432e+38
2.703701 0.0088084042 1.7451588 -2.2486392e+38
2.7036901 0.0040198416 1.7451588 -2.235295e+38
2.7036791 -0.00076871365 1.7451588 -2.2351911e+38
2.7036681 -0.0055572689 1.7451588 -2.2351394e+38
2.7036572 -0.010345835 1.7451588 -2.2217437e+38
2.7036462 -0.01513439 1.7451588 -2.2084512e+38
2.7036352 -0.019922949 1.7451588 -2.1951589e+38
2.703624 -0.024711505 1.7451588 -2.1686263e+38
2.703613 -0.029500067 1.7451588 -2.1420936e+38
2.7036021 -0.034288626 1.7451588 -2.1022687e+38
2.7035911 -0.039077185 1.7451588 -2.0756322e+38
2.7035801 -0.043865744 1.7451588 -2.0490998e+38
2.6855688 -0.048801608 1.7415416 -2.0491e+38
2.6855581 -0.053555883 1.7415416 -2.0490481e+38
2.6855471 -0.058310155 1.7415416 -2.0622365e+38
2.667536 -0.063108876 1.7379246 -2.0754767e+38
2.6675253 -0.067828864 1.7379246 -2.0488921e+38
2.6675146 -0.072548851 1.7379246 -2.0090153e+38
2.7035034 -0.077385657 1.7451588 -1.9824307e+38
2.7034924 -0.082174219 1.7451588 -1.9426056e+38
2.7034814 -0.086962774 1.7451588 -1.916021e+38
2.7034705 -0.091751337 1.7451588 -1.8894884e+38
2.7034595 -0.0965399 1.7451588 -1.9160729e+38
2.7214479 -0.10155829 1.748776 -1.9426052e+38
2.7034376 -0.10611701 1.7451588 -1.9957739e+38
2.7034266 -0.11090557 1.7451588 -2.0355469e+38
2.7034156 -0.11569414 1.7451588 -2.0089104e+38
2.7034047 -0.12048269 1.7451588 -1.9691378e+38
2.7033937 -0.12527126 1.7451588 -1.9825341e+38
2.7033825 -0.13005981 1.7451588 -1.9956705e+38
2.7033715 -0.13484837 1.7451588 -1.99567e+38
2.7033606 -0.13963693 1.7451588 -1.9954615e+38
2.7033496 -0.1444255 1.7451588 -1.9555839e+38
2.7033386 -0.14921406 1.7451588 -1.9024144e+38
2.7033277 -0.15400261 1.7451588 -1.9158101e+38
2.7033167 -0.15879117 1.7451588 -1.9157066e+38
2.7033057 -0.16357973 1.7451588 -1.9156551e+38
2.7032948 -0.16836828 1.7451588 -1.9156553e+38
2.7032838 -0.17315684 1.7451588 -1.9688247e+38
2.6852746 -0.177167 1.7415416 -2.0087532e+38
2.6852636 -0.18192127 1.7415416 -1.9954607e+38
2.6672547 -0.18582857 1.7379246 -1.9823761e+38
2.6492457 -0.18966728 1.7343074 -2.022357e+38
2.649235 -0.19435298 1.7343074 -2.0622862e+38
2.6322262 -0.19814163 1.7308912 -2.0889233e+38
2.6322157 -0.20279494 1.7308912 -2.1023198e+38
2.632205 -0.20744827 1.7308912 -2.0758395e+38
2.6321943 -0.21210158 1.7308912 -2.0359629e+38
2.615186 -0.21572831 1.7274749 -2.0891841e+38
2.6151752 -0.22034925 1.7274749 -2.1423534e+38
2.6151648 -0.22497022 1.7274749 -2.1689384e+38
2.615154 -0.22959116 1.7274749 -2.1955236e+38
2.6151435 -0.2342121 1.7274749 -2.2487454e+38
2.5981359 -0.23764452 1.7240589 -2.2886223e+38
2.5981255 -0.2422331 1.7240589 -2.3019665e+38
2.5981147 -0.24682164 1.7240589 -2.3153113e+38
2.5981042 -0.25141022 1.7240589 -2.3420003e+38
2.5980937 -0.25599876 1.7240589 -2.3555009e+38
2.5980833 -0.2605873 1.7240589 -2.3821901e+38
2.5980728 -0.26517588 1.7240589 -2.395743e+38
2.6150589 -0.27117962 1.7274749 -2.3960038e+38
2.632045 -0.27724808 1.7308912 -2.3827625e+38
2.6320343 -0.28190142 1.7308912 -2.209806e+38
2.6320236 -0.28655472 1.7308912 -2.0366995e+38
2.6490095 -0.29275274 1.7343074 -2.0499448e+38
2.6489987 -0.29743844 1.7343074 -2.0535879e+38
2.6319916 -0.3005147 1.7308912 -3.4010496e+38
2.7988448 0.071391396 1.7592797 -2.6195142e+38
2.778831 0.065382026 1.7552989 -2.1156614e+38
2.7788198 0.060450606 1.7552989 -2.3030072e+38
2.7598062 0.054603711 1.7515168 -2.4896187e+38
2.759795 0.049708486 1.7515168 -2.4488596e+38
2.7407818 0.043970153 1.747735 -2.4221183e+38
2.7407706 0.039111122 1.747735 -2.3687922e+38
2.7217574 0.033481367 1.7439531 -2.3288109e+38
2.7217464 0.028658524 1.7439531 -2.3021736e+38
2.7217355 0.023835674 1.7439531 -2.2753811e+38
2.7217243 0.019012831 1.7439531 -2.2487442e+38
2.7217133 0.014189988 1.7439531 -2.2353998e+38
2.703701 0.0088084042 1.7403703 -2.2220552e+38
2.7036901 0.0040198416 1.7403703 -2.2087112e+38
2.7036791 -0.00076871365 1.7403703 -2.1954191e+38
2.7036681 -0.0055572689 1.7403703 -2.1953155e+38
2.7036572 -0.010345835 1.7403703 -2.1953155e+38
2.7036462 -0.01513439 1.7403703 -2.1952634e+38
2.7036352 -0.019922949 1.7403703 -2.1686786e+38
2.703624 -0.024711505 1.7403703 -2.1288537e+38
2.703613 -0.029500067 1.7403703 -2.1155614e+38
2.7036021 -0.034288626 1.7403703 -2.102321e+38
2.7035911 -0.039077185 1.7403703 -2.0756846e+38
2.6855798 -0.044047337 1.7367873 -2.0490481e+38
2.6855688 -0.048801608 1.7367873 -2.0623404e+38
2.6855581 -0.053555883 1.7367873 -2.088873e+38
2.667547 -0.058388889 1.7332045 -2.0755286e+38
2.667536 -0.063108876 1.7332045 -2.0754247e+38
2.6675253 -0.067828864 1.7332045 -2.0488919e+38
2.6675146 -0.072548851 1.7332045 -2.0355479e+38
2.7035034 -0.077385657 1.7403703 -1.9824826e+38
2.7034924 -0.082174219 1.7403703 -1.9426575e+38
2.7034814 -0.086962774 1.7403703 -1.9558975e+38
2.7034705 -0.091751337 1.7403703 -1.9825339e+38
2.7034595 -0.0965399 1.7403703 -1.9824301e+38
2.7034485 -0.10132845 1.7403703 -1.9956181e+38
2.7034376 -0.10611701 1.7403703 -2.0222023e+38
2.7034266 -0.11090557 1.7403703 -2.0487868e+38
2.7034156 -0.11569414 1.7403703 -2.0354944e+38
2.7034047 -0.12048269 1.7403703 -2.0222544e+38
2.7033937 -0.12527126 1.7403703 -2.0089106e+38
2.7033825 -0.13005981 1.7403703 -1.9954624e+38
2.6853728 -0.13437852 1.7367873 -2.0087023e+38
2.7033606 -0.13963693 1.7403703 -2.0217344e+38
2.7033496 -0.1444255 1.7403703 -1.9688242e+38
2.7033386 -0.14921406 1.7403703 -1.9289474e+38
2.6853292 -0.15339562 1.7367873 -1.9422914e+38
2.7033167 -0.15879117 1.7403703 -1.9555841e+38
2.7033057 -0.16357973 1.7403703 -1.9555324e+38
2.7032948 -0.16836828 1.7403703 -1.9687727e+38
2.7032838 -0.17315684 1.7403703 -1.9954092e+38
2.6852746 -0.177167 1.7367873 -2.0220459e+38
2.6852636 -0.18192127 1.7367873 -2.0220978e+38
2.6672547 -0.18582857 1.7332045 -2.0090134e+38
2.6492457 -0.18966728 1.7296216 -2.0356499e+38
2.649235 -0.19435298 1.7296216 -2.049046e+38
2.6322262 -0.19814163 1.7262379 -2.049046e+38
2.6322157 -0.20279494 1.7262379 -2.0624947e+38
2.632205 -0.20744827 1.7262379 -2.0891316e+38
2.6151965 -0.21110737 1.722854 -2.1156642e+38
2.615186 -0.21572831 1.722854 -2.155593e+38
2.6151752 -0.22034925 1.722854 -2.1954704e+38
2.6151648 -0.22497022 1.722854 -2.2220554e+38
2.615154 -0.22959116 1.722854 -2.2485365e+38
2.6151435 -0.2342121 1.722854 -2.2752253e+38
2.5981359 -0.23764452 1.7194703 -2.3018101e+38
2.5981255 -0.2422331 1.7194703 -2.3285504e+38
2.5981147 -0.24682164 1.7194703 -2.3417393e+38
2.5981042 -0.25141022 1.7194703 -2.3553433e+38
2.5980937 -0.25599876 1.7194703 -2.3820325e+38
2.5980833 -0.2605873 1.7194703 -2.3956369e+38
2.5980728 -0.26517588 1.7194703 -2.4090862e+38
2.6150589 -0.27117962 1.722854 -2.4092949e+38
2.6150482 -0.27580056 1.722854 -2.3960556e+38
2.6320343 -0.28190142 1.7262379 -2.1699318e+38
2.6320236 -0.28655472 1.7262379 -1.9570493e+38
2.6320128 -0.29120806 1.7262379 -1.9569988e+38
2.6320024 -0.29586136 1.7262379 -1.9713934e+38
2.7988448 0.071391396 1.7543103 -3.1371377e+38
2.778831 0.065382026 1.7503674 -1.7029776e+38
2.7788198 0.060450606 1.7503674 -2.1304118e+38
2.7598062 0.054603711 1.7466216 -2.5557659e+38
2.759795 0.049708486 1.7466216 -2.5016115e+38
2.7407818 0.043970153 1.7428759 -2.4352538e+38
2.7407706 0.039111122 1.7428759 -2.3953765e+38
2.7217574 0.033481367 1.7391303 -2.3554473e+38
2.7217464 0.028658524 1.7391303 -2.3155184e+38
2.7217355 0.023835674 1.7391303 -2.2754334e+38
2.703723 0.018385522 1.7355816 -2.2485891e+38
2.703712 0.013596967 1.7355816 -2.2088155e+38
2.703701 0.0088084042 1.7355816 -2.1954708e+38
2.7036901 0.0040198416 1.7355816 -2.1689382e+38
2.7036791 -0.00076871365 1.7355816 -2.1689382e+38
2.7036681 -0.0055572689 1.7355816 -2.155594e+38
2.7036572 -0.010345835 1.7355816 -2.1688344e+38
2.7036462 -0.01513439 1.7355816 -2.1820745e+38
2.7036352 -0.019922949 1.7355816 -2.1421975e+38
2.703624 -0.024711505 1.7355816 -2.0890282e+38
2.703613 -0.029500067 1.7355816 -2.089028e+38
2.7036021 -0.034288626 1.7355816 -2.0890282e+38
2.7035911 -0.039077185 1.7355816 -2.0624436e+38
2.6855798 -0.044047337 1.7320331 -2.0357552e+38
2.6855688 -0.048801608 1.7320331 -2.075632e+38
2.6675577 -0.053668901 1.7284845 -2.1154569e+38
2.667547 -0.058388889 1.7284845 -2.1021129e+38
2.667536 -0.063108876 1.7284845 -2.0754765e+38
2.6675253 -0.067828864 1.7284845 -2.0621842e+38
2.6675146 -0.072548851 1.7284845 -2.0488917e+38
2.6855035 -0.077327251 1.7320331 -1.9957743e+38
2.6854925 -0.082081527 1.7320331 -1.9426052e+38
2.7034814 -0.086962774 1.7355816 -2.0090147e+38
2.7034705 -0.091751337 1.7355816 -2.0621316e+38
2.7034595 -0.0965399 1.7355816 -2.0620278e+38
2.7214479 -0.10155829 1.7391303 -2.0487353e+38
2.7034376 -0.10611701 1.7355816 -2.0486832e+38
2.7034266 -0.11090557 1.7355816 -2.0487349e+38
2.7214148 -0.11602683 1.7391303 -2.0619751e+38
2.7034047 -0.12048269 1.7355816 -2.0620272e+38
2.7033937 -0.12527126 1.7355816 -2.0354428e+38
2.7033825 -0.13005981 1.7355816 -1.9955137e+38
2.7033715 -0.13484837 1.7355816 -2.0219942e+38
2.7033606 -0.13963693 1.7355816 -2.0352861e+38
2.6853509 -0.14388707 1.7320331 -1.9955129e+38
2.6853399 -0.14864135 1.7320331 -1.9555841e+38
2.6853292 -0.15339562 1.7320331 -1.9688766e+38
2.6853182 -0.1581499 1.7320331 -1.9821689e+38
2.7033057 -0.16357973 1.7355816 -1.9954611e+38
2.7032948 -0.16836828 1.7355816 -2.0087013e+38
2.6852856 -0.17241272 1.7320331 -2.0218897e+38
2.6852746 -0.177167 1.7320331 -2.0352861e+38
2.6852636 -0.18192127 1.7320331 -2.0353382e+38
2.6672547 -0.18582857 1.7284845 -2.0354942e+38
2.6492457 -0.18966728 1.724936 -2.0355461e+38
2.649235 -0.19435298 1.724936 -2.0356501e+38
2.6322262 -0.19814163 1.7215846 -2.0223583e+38
2.6322157 -0.20279494 1.7215846 -2.0092219e+38
2.632205 -0.20744827 1.7215846 -2.1024239e+38
2.6151965 -0.21110737 1.7182331 -2.1821778e+38
2.615186 -0.21572831 1.7182331 -2.2087625e+38
2.6151752 -0.22034925 1.7182331 -2.2353471e+38
2.6151648 -0.22497022 1.7182331 -2.2752758e+38
2.615154 -0.22959116 1.7182331 -2.3018614e+38
2.6151435 -0.2342121 1.7182331 -2.3151547e+38
2.5981359 -0.23764452 1.7148817 -2.3153628e+38
2.5981255 -0.2422331 1.7148817 -2.3421035e+38
2.5981147 -0.24682164 1.7148817 -2.3686883e+38
2.5981042 -0.25141022 1.7148817 -2.3821887e+38
2.5980937 -0.25599876 1.7148817 -2.3956367e+38
2.5980833 -0.2605873 1.7148817 -2.4091888e+38
2.5980728 -0.26517588 1.7148817 -2.4225338e+38
2.6150589 -0.27117962 1.7182331 -2.4226387e+38
2.6150482 -0.27580056 1.7182331 -2.4092955e+38
2.6320343 -0.28190142 1.7215846 -2.1432952e+38
2.6320236 -0.28655472 1.7215846 -1.8636886e+38
2.6320128 -0.29120806 1.7215846 -1.8760967e+38
2.6320024 -0.29586136 1.7215846 -1.8790192e+38
2.778831 0.065382026 1.745436 -3.0442516e+38
2.7788198 0.060450606 1.745436 -2.6605416e+38
2.7598062 0.054603711 1.7417264 -2.2771966e+38
2.759795 0.049708486 1.7417264 -2.35581e+38
2.7407818 0.043970153 1.7380168 -2.435097e+38
2.7407706 0.039111122 1.7380168 -2.3688437e+38
2.7217574 0.033481367 1.7343074 -2.3155707e+38
2.7217464 0.028658524 1.7343074 -2.2889342e+38
2.7217355 0.023835674 1.7343074 -2.2621937e+38
2.703723 0.018385522 1.7307931 -2.2355568e+38
2.703712 0.013596967 1.7307931 -2.2089716e+38
2.703701 0.0088084042 1.7307931 -2.1956266e+38
2.7036901 0.0040198416 1.7307931 -2.1822824e+38
2.7036791 -0.00076871365 1.7307931 -2.1822822e+38
2.7036681 -0.0055572689 1.7307931 -2.1955224e+38
2.7036572 -0.010345835 1.7307931 -2.1954702e+38
2.7036462 -0.01513439 1.7307931 -2.1953664e+38
2.7036352 -0.019922949 1.7307931 -2.1687816e+38
2.703624 -0.024711505 1.7307931 -2.1289563e+38
2.703613 -0.029500067 1.7307931 -2.1156117e+38
2.6856017 -0.034538787 1.7272788 -2.1022677e+38
2.6855907 -0.039293062 1.7272788 -2.0889237e+38
2.6855798 -0.044047337 1.7272788 -2.0755795e+38
2.6675687 -0.048948914 1.7237645 -2.0755793e+38
2.6675577 -0.053668901 1.7237645 -2.0755278e+38
2.667547 -0.058388889 1.7237645 -2.0755799e+38
2.667536 -0.063108876 1.7237645 -2.0755282e+38
2.6675253 -0.067828864 1.7237645 -2.0489436e+38
2.6675146 -0.072548851 1.7237645 -2.0223067e+38
2.6855035 -0.077327251 1.7272788 -2.009014e+38
2.6854925 -0.082081527 1.7272788 -1.995722e+38
2.7034814 -0.086962774 1.7307931 -2.0222548e+38
2.7034705 -0.091751337 1.7307931 -2.0354432e+38
2.7034595 -0.0965399 1.7307931 -2.0487353e+38
2.7034485 -0.10132845 1.7307931 -2.0753199e+38
2.7034376 -0.10611701 1.7307931 -2.0619757e+38
2.7034266 -0.11090557 1.7307931 -2.0619753e+38
2.7034156 -0.11569414 1.7307931 -2.0619749e+38
2.7034047 -0.12048269 1.7307931 -2.0752671e+38
2.7033937 -0.12527126 1.7307931 -2.0486826e+38
2.7033825 -0.13005981 1.7307931 -2.0220978e+38
2.6853728 -0.13437852 1.7272788 -2.0220974e+38
2.6853619 -0.1391328 1.7272788 -2.0220974e+38
2.6853509 -0.14388707 1.7272788 -2.0088571e+38
2.6853399 -0.14864135 1.7272788 -1.982221e+38
2.6853292 -0.15339562 1.7272788 -1.9821693e+38
2.6853182 -0.1581499 1.7272788 -1.9954094e+38
2.6853073 -0.16290417 1.7272788 -2.0087532e+38
2.6852965 -0.16765845 1.7272788 -2.0219936e+38
2.6852856 -0.17241272 1.7272788 -2.0484741e+38
2.6852746 -0.177167 1.7272788 -2.0618187e+38
2.6672657 -0.18110858 1.7237645 -2.075215e+38
2.6672547 -0.18582857 1.7237645 -2.0753191e+38
2.6492457 -0.18966728 1.7202502 -2.0621826e+38
2.649235 -0.19435298 1.7202502 -2.0622351e+38
2.6322262 -0.19814163 1.7169312 -2.0489951e+38
2.6322157 -0.20279494 1.7169312 -2.0357548e+38
2.632205 -0.20744827 1.7169312 -2.1023198e+38
2.6151965 -0.21110737 1.7136121 -2.1688857e+38
2.5981884 -0.21470171 1.7102931 -2.1954706e+38
2.6151752 -0.22034925 1.7136121 -2.2353471e+38
2.5981674 -0.22387886 1.7102931 -2.2486388e+38
2.615154 -0.22959116 1.7136121 -2.2753288e+38
2.6151435 -0.2342121 1.7136121 -2.2887263e+38
2.5981359 -0.23764452 1.7102931 -2.302331e+38
2.5981255 -0.2422331 1.7102931 -2.31552e+38
2.5981147 -0.24682164 1.7102931 -2.3422607e+38
2.5981042 -0.25141022 1.7102931 -2.3556573e+38
2.5980937 -0.25599876 1.7102931 -2.3825528e+38
2.5980833 -0.2605873 1.7102931 -2.3958963e+38
2.5980728 -0.26517588 1.7102931 -2.4225856e+38
2.6150589 -0.27117962 1.7136121 -2.4093977e+38
2.6150482 -0.27580056 1.7136121 -2.409399e+38
2.6320343 -0.28190142 1.7169312 -2.1299508e+38
2.6320236 -0.28655472 1.7169312 -1.850549e+38
2.6320128 -0.29120806 1.7169312 -1.9955654e+38
2.6320024 -0.29586136 1.7169312 -2.15535e+38
2.7988334 0.066421889 1.7443712 nan
2.7788198 0.060450606 1.7405045 -3.1903624e+38
2.7598062 0.054603711 1.7368312 -1.982377e+38
2.7407928 0.04882919 1.7331579 -2.2093345e+38
2.7407818 0.043970153 1.7331579 -2.4221679e+38
2.7217686 0.03830421 1.7294846 -2.3426232e+38
2.7217574 0.033481367 1.7294846 -2.2625578e+38
2.7217464 0.028658524 1.7294846 -2.2491095e+38
2.7217355 0.023835674 1.7294846 -2.2357128e+38
2.703723 0.018385522 1.7260045 -2.2223682e+38
2.703712 0.013596967 1.7260045 -2.2090231e+38
2.703701 0.0088084042 1.7260045 -2.2089704e+38
2.7036901 0.0040198416 1.7260045 -2.1956262e+38
2.7036791 -0.00076871365 1.7260045 -2.2088666e+38
2.7036681 -0.0055572689 1.7260045 -2.2221065e+38
2.7036572 -0.010345835 1.7260045 -2.2220542e+38
2.7036462 -0.01513439 1.7260045 -2.2086583e+38
2.7036352 -0.019922949 1.7260045 -2.1953662e+38
2.703624 -0.024711505 1.7260045 -2.1687293e+38
2.703613 -0.029500067 1.7260045 -2.1421445e+38
2.6856017 -0.034538787 1.7225245 -2.1155596e+38
2.6855907 -0.039293062 1.7225245 -2.1154555e+38
2.6855798 -0.044047337 1.7225245 -2.1154553e+38
2.6675687 -0.048948914 1.7190444 -2.0755783e+38
2.6675577 -0.053668901 1.7190444 -2.0357538e+38
2.667547 -0.058388889 1.7190444 -2.0491503e+38
2.667536 -0.063108876 1.7190444 -2.062287e+38
2.6675253 -0.067828864 1.7190444 -2.0224104e+38
2.6675146 -0.072548851 1.7190444 -1.9824297e+38
2.6855035 -0.077327251 1.7225245 -2.0222544e+38
2.6854925 -0.082081527 1.7225245 -2.0488392e+38
2.7034814 -0.086962774 1.7260045 -2.0354432e+38
2.7034705 -0.091751337 1.7260045 -2.0088587e+38
2.7034595 -0.0965399 1.7260045 -2.0487353e+38
2.7214479 -0.10155829 1.7294846 -2.08856e+38
2.7034376 -0.10611701 1.7260045 -2.0752154e+38
2.7034266 -0.11090557 1.7260045 -2.0619749e+38
2.7214148 -0.11602683 1.7294846 -2.0752667e+38
2.7034047 -0.12048269 1.7260045 -2.0885588e+38
2.7033937 -0.12527126 1.7260045 -2.0752663e+38
2.7033825 -0.13005981 1.7260045 -2.0486816e+38
2.6853728 -0.13437852 1.7225245 -2.035441e+38
2.6853619 -0.1391328 1.7225245 -2.0088565e+38
2.6853509 -0.14388707 1.7225245 -2.0089084e+38
2.6853399 -0.14864135 1.7225245 -2.0088569e+38
2.6673305 -0.15278864 1.7190444 -2.0088055e+38
2.6853182 -0.1581499 1.7225245 -1.9954611e+38
2.6853073 -0.16290417 1.7225245 -2.0220457e+38
2.6852965 -0.16765845 1.7225245 -2.0352339e+38
2.6852856 -0.17241272 1.7225245 -2.0616625e+38
2.6852746 -0.177167 1.7225245 -2.088455e+38
2.6672657 -0.18110858 1.7190444 -2.1017994e+38
2.6672547 -0.18582857 1.7190444 -2.1151959e+38
2.6492457 -0.18966728 1.7155645 -2.1021117e+38
2.649235 -0.19435298 1.7155645 -2.0754756e+38
2.6322262 -0.19814163 1.7122779 -2.0622357e+38
2.6322157 -0.20279494 1.7122779 -2.0489951e+38
2.632205 -0.20744827 1.7122779 -2.1022681e+38
2.6151965 -0.21110737 1.7089912 -2.1422488e+38
2.5981884 -0.21470171 1.7057045 -2.1821256e+38
2.6151752 -0.22034925 1.7089912 -2.2220025e+38
2.5981674 -0.22387886 1.7057045 -2.2352428e+38
2.615154 -0.22959116 1.7089912 -2.2353477e+38
2.6151435 -0.2342121 1.7089912 -2.2619854e+38
2.5981359 -0.23764452 1.7057045 -2.2754345e+38
2.5981255 -0.2422331 1.7057045 -2.3020198e+38
2.5981147 -0.24682164 1.7057045 -2.3155202e+38
2.5981042 -0.25141022 1.7057045 -2.3421571e+38
2.6150906 -0.2573168 1.7089912 -2.3558128e+38
2.6150799 -0.26193774 1.7089912 -2.3825532e+38
2.6150694 -0.26655868 1.7089912 -2.4093458e+38
2.6150589 -0.27117962 1.7089912 -2.4095022e+38
2.632045 -0.27724808 1.7122779 -2.3960537e+38
2.6320343 -0.28190142 1.7122779 -2.1164483e+38
2.6320236 -0.28655472 1.7122779 -1.8226146e+38
2.6320128 -0.29120806 1.7122779 -2.1268814e+38
2.6320024 -0.29586136 1.7122779 -2.4238457e+38
2.8188472 0.072469361 1.7432302 nan
2.778831 0.065382026 1.7355731 nan
2.7788198 0.060450606 1.7355731 nan
2.7598062 0.054603711 1.731936 -2.4856653e+38
2.7407928 0.04882919 1.7282988 -2.4610562e+38
2.7407818 0.043970153 1.7282988 -2.4357716e+38
2.7217686 0.03830421 1.7246616 -2.3825004e+38
2.7217574 0.033481367 1.7246616 -2.3290713e+38
2.7217464 0.028658524 1.7246616 -2.3023825e+38
2.7217355 0.023835674 1.7246616 -2.2755896e+38
2.7217243 0.019012831 1.7246616 -2.2490042e+38
2.703712 0.013596967 1.721216 -2.2356073e+38
2.703701 0.0088084042 1.721216 -2.2222623e+38
2.7036901 0.0040198416 1.721216 -2.2222104e+38
2.7036791 -0.00076871365 1.721216 -2.2221584e+38
2.7036681 -0.0055572689 1.721216 -2.2353465e+38
2.7036572 -0.010345835 1.721216 -2.2220017e+38
2.7036462 -0.01513439 1.721216 -2.2218982e+38
2.7036352 -0.019922949 1.721216 -2.1953141e+38
2.6856234 -0.02503024 1.7177702 -2.1553332e+38
2.6856124 -0.029784516 1.7177702 -2.1421445e+38
2.6856017 -0.034538787 1.7177702 -2.1156113e+38
2.6855907 -0.039293062 1.7177702 -2.1155586e+38
2.6675794 -0.044228926 1.7143245 -2.1287985e+38
2.6675687 -0.048948914 1.7143245 -2.1022135e+38
2.6675577 -0.053668901 1.7143245 -2.0889219e+38
2.667547 -0.058388889 1.7143245 -2.0623379e+38
2.667536 -0.063108876 1.7143245 -2.0489422e+38
2.6675253 -0.067828864 1.7143245 -2.0356501e+38
2.6675146 -0.072548851 1.7143245 -2.0222542e+38
2.6855035 -0.077327251 1.7177702 -2.0222544e+38
2.7034924 -0.082174219 1.721216 -2.0222027e+38
2.7034814 -0.086962774 1.721216 -2.0222029e+38
2.7034705 -0.091751337 1.721216 -2.0354432e+38
2.7034595 -0.0965399 1.721216 -2.0486834e+38
2.7214479 -0.10155829 1.7246616 -2.0486309e+38
2.721437 -0.10638114 1.7246616 -2.0619745e+38
2.7214258 -0.11120398 1.7246616 -2.0752665e+38
2.7214148 -0.11602683 1.7246616 -2.0885586e+38
2.7034047 -0.12048269 1.721216 -2.1017986e+38
2.7033937 -0.12527126 1.721216 -2.0752653e+38
2.7033825 -0.13005981 1.721216 -2.061973e+38
2.6853728 -0.13437852 1.7177702 -2.0620767e+38
2.6853619 -0.1391328 1.7177702 -2.0487846e+38
2.6853509 -0.14388707 1.7177702 -2.0354404e+38
2.6853399 -0.14864135 1.7177702 -2.0353891e+38
2.6673305 -0.15278864 1.7143245 -2.0088051e+38
2.6853182 -0.1581499 1.7177702 -1.9954611e+38
2.6853073 -0.16290417 1.7177702 -1.9954094e+38
2.6672981 -0.16694862 1.7143245 -1.9953052e+38
2.6672873 -0.17166859 1.7143245 -2.0219932e+38
2.6672764 -0.17638859 1.7143245 -2.0487337e+38
2.6672657 -0.18110858 1.7143245 -2.0752665e+38
2.6492565 -0.18498158 1.7108788 -2.0885594e+38
2.6492457 -0.18966728 1.7108788 -2.0753716e+38
2.649235 -0.19435298 1.7108788 -2.075372e+38
2.6322262 -0.19814163 1.7076246 -2.0754761e+38
2.6152177 -0.20186549 1.7043703 -2.0888203e+38
2.6152072 -0.20648643 1.7043703 -2.1022164e+38
2.6151965 -0.21110737 1.7043703 -2.1289044e+38
2.5981884 -0.21470171 1.701116 -2.1820729e+38
2.6151752 -0.22034925 1.7043703 -2.2219501e+38
2.5981674 -0.22387886 1.701116 -2.2218986e+38
2.615154 -0.22959116 1.7043703 -2.2351917e+38
2.5981464 -0.23305595 1.701116 -2.2485887e+38
2.5981359 -0.23764452 1.701116 -2.2618821e+38
2.5981255 -0.2422331 1.701116 -2.2620909e+38
2.5981147 -0.24682164 1.701116 -2.2755912e+38
2.5981042 -0.25141022 1.701116 -2.3023318e+38
2.6150906 -0.2573168 1.7043703 -2.3425727e+38
2.6150799 -0.26193774 1.7043703 -2.382554e+38
2.6150694 -0.26655868 1.7043703 -2.4359831e+38
2.6150589 -0.27117962 1.7043703 -2.4892563e+38
2.632045 -0.27724808 1.7076246 -2.555768e+38
2.6320343 -0.28190142 1.7076246 -2.288934e+38
2.6320236 -0.28655472 1.7076246 -2.0206491e+38
2.6490095 -0.29275274 1.7108788 -2.7549964e+38
2.6489987 -0.29743844 1.7108788 nan
2.8188472 0.072469361 1.7382226 nan
2.778831 0.065382026 1.7306416 nan
2.7598174 0.059498943 1.7270408 nan
2.740804 0.053688213 1.7234397 -2.9822146e+38
2.7407928 0.04882919 1.7234397 -2.7134039e+38
2.7407818 0.043970153 1.7234397 -2.4483905e+38
2.7217686 0.03830421 1.7198389 -2.4224821e+38
2.7217574 0.033481367 1.7198389 -2.3956371e+38
2.7217464 0.028658524 1.7198389 -2.3556556e+38
2.7217355 0.023835674 1.7198389 -2.302278e+38
2.7217243 0.019012831 1.7198389 -2.2756928e+38
2.7217133 0.014189988 1.7198389 -2.2489517e+38
2.703701 0.0088084042 1.7164273 -2.2488992e+38
2.7036901 0.0040198416 1.7164273 -2.2355031e+38
2.7036791 -0.00076871365 1.7164273 -2.2353992e+38
2.7036681 -0.0055572689 1.7164273 -2.2353469e+38
2.7036572 -0.010345835 1.7164273 -2.2352948e+38
2.7036462 -0.01513439 1.7164273 -2.2352428e+38
2.6856344 -0.020275965 1.7130159 -2.1953662e+38
2.6856234 -0.02503024 1.7130159 -2.1421969e+38
2.6856124 -0.029784516 1.7130159 -2.1289565e+38
2.6856017 -0.034538787 1.7130159 -2.1156634e+38
2.6675901 -0.039508939 1.7096045 -2.1289551e+38
2.6675794 -0.044228926 1.7096045 -2.1288506e+38
2.6675687 -0.048948914 1.7096045 -2.1287464e+38
2.6675577 -0.053668901 1.7096045 -2.1287468e+38
2.667547 -0.058388889 1.7096045 -2.0888186e+38
2.667536 -0.063108876 1.7096045 -2.0356497e+38
2.6675253 -0.067828864 1.7096045 -2.0488903e+38
2.6675146 -0.072548851 1.7096045 -2.0621828e+38
2.6855035 -0.077327251 1.7130159 -2.0222542e+38
2.7034924 -0.082174219 1.7164273 -1.9823776e+38
2.7034814 -0.086962774 1.7164273 -2.0222029e+38
2.7034705 -0.091751337 1.7164273 -2.0619757e+38
2.7034595 -0.0965399 1.7164273 -2.035339e+38
2.7034485 -0.10132845 1.7164273 -2.0088057e+38
2.7034376 -0.10611701 1.7164273 -2.0486822e+38
2.7214258 -0.11120398 1.7198389 -2.0885586e+38
2.7214148 -0.11602683 1.7198389 -2.1018505e+38
2.7034047 -0.12048269 1.7164273 -2.101902e+38
2.7033937 -0.12527126 1.7164273 -2.0886614e+38
2.7033825 -0.13005981 1.7164273 -2.0753694e+38
2.6853728 -0.13437852 1.7130159 -2.0887657e+38
2.6853619 -0.1391328 1.7130159 -2.0886099e+38
2.6853509 -0.14388707 1.7130159 -2.0751621e+38
2.6853399 -0.14864135 1.7130159 -2.0486301e+38
2.6673305 -0.15278864 1.7096045 -2.0220459e+38
2.6853182 -0.1581499 1.7130159 -1.9821691e+38
2.6853073 -0.16290417 1.7130159 -1.9688249e+38
2.6672981 -0.16694862 1.7096045 -1.9422918e+38
2.6672873 -0.17166859 1.7096045 -1.9822204e+38
2.6672764 -0.17638859 1.7096045 -2.0088049e+38
2.6672657 -0.18110858 1.7096045 -2.0353378e+38
2.6492565 -0.18498158 1.7061931 -2.0619749e+38
2.6492457 -0.18966728 1.7061931 -2.0620791e+38
2.649235 -0.19435298 1.7061931 -2.0621314e+38
2.6322262 -0.19814163 1.7029712 -2.0888201e+38
2.6152177 -0.20186549 1.6997492 -2.1154046e+38
2.6152072 -0.20648643 1.6997492 -2.1154563e+38
2.6151965 -0.21110737 1.6997492 -2.1155083e+38
2.5981884 -0.21470171 1.6965274 -2.1686772e+38
2.6151752 -0.22034925 1.6997492 -2.2218984e+38
2.5981674 -0.22387886 1.6965274 -2.2218469e+38
2.615154 -0.22959116 1.6997492 -2.2218996e+38
2.6151435 -0.2342121 1.6997492 -2.2351927e+38
2.5981359 -0.23764452 1.6965274 -2.2353495e+38
2.5981255 -0.2422331 1.6965274 -2.2355061e+38
2.6151118 -0.24807492 1.6997492 -2.2223183e+38
2.5981042 -0.25141022 1.6965274 -2.2756438e+38
2.6150906 -0.2573168 1.6997492 -2.3157287e+38
2.6150799 -0.26193774 1.6997492 -2.3823982e+38
2.6150694 -0.26655868 1.6997492 -2.4492233e+38
2.6150589 -0.27117962 1.6997492 -2.5824061e+38
2.632045 -0.27724808 1.7029712 -2.7154331e+38
2.6320343 -0.28190142 1.7029712 -2.4762244e+38
2.6320236 -0.28655472 1.7029712 -2.2240924e+38
2.6490095 -0.29275274 1.7061931 -3.3853035e+38
2.7988448 0.071391396 1.7294626 nan
2.778831 0.065382026 1.7257103 nan
2.7598174 0.059498943 1.7221454 nan
2.740804 0.053688213 1.7185807 -2.6918715e+38
2.7407928 0.04882919 1.7185807 -2.5415409e+38
2.7407818 0.043970153 1.7185807 -2.3947555e+38
2.7217686 0.03830421 1.7150159 -2.4087755e+38
2.7217574 0.033481367 1.7150159 -2.4087743e+38
2.7217464 0.028658524 1.7150159 -2.368896e+38
2.7217355 0.023835674 1.7150159 -2.3154667e+38
2.7217243 0.019012831 1.7150159 -2.2889332e+38
2.703712 0.013596967 1.7116388 -2.2621925e+38
2.703701 0.0088084042 1.7116388 -2.2621399e+38
2.7036901 0.0040198416 1.7116388 -2.2487438e+38
2.7036791 -0.00076871365 1.7116388 -2.2354515e+38
2.7036681 -0.0055572689 1.7116388 -2.2353994e+38
2.6856561 -0.010767423 1.7082617 -2.222055e+38
2.6856451 -0.015521694 1.7082617 -2.2220029e+38
2.6856344 -0.020275965 1.7082617 -2.1954181e+38
2.6856234 -0.02503024 1.7082617 -2.1555415e+38
2.6856124 -0.029784516 1.7082617 -2.1422492e+38
2.6676011 -0.034788951 1.7048845 -2.129008e+38
2.6675901 -0.039508939 1.7048845 -2.1289034e+38
2.6675794 -0.044228926 1.7048845 -2.1421431e+38
2.6675687 -0.048948914 1.7048845 -2.1287983e+38
2.6675577 -0.053668901 1.7048845 -2.1286949e+38
2.667547 -0.058388889 1.7048845 -2.1021107e+38
2.667536 -0.063108876 1.7048845 -2.0887667e+38
2.6675253 -0.067828864 1.7048845 -2.0755264e+38
2.6855145 -0.072572976 1.7082617 -2.0622345e+38
2.7035034 -0.077385657 1.7116388 -2.0489424e+38
