# .PCD v0.7 - Point Cloud Data file format
VERSION 0.7
FIELDS x y z rgb
SIZE 4 4 4 4
TYPE F F F F
COUNT 1 1 1 1
WIDTH 1040
HEIGHT 1
VIEWPOINT 0 0 0 1 0 0 0
POINTS 1040
DATA ascii
0.1042181 -0.3584086 2.6690001 -2.2487976e+38
0.10930191 -0.3584086 2.6690001 -2.2620894e+38
0.11438572 -0.3584086 2.6690001 -2.262089e+38
0.11946953 -0.3584086 2.6690001 -2.2621408e+38
0.12455335 -0.3584086 2.6690001 -2.2621925e+38
0.12963715 -0.3584086 2.6690001 -2.2621403e+38
0.13578096 -0.36122859 2.6900001 -2.2754843e+38
0.14090477 -0.36122859 2.6900001 -2.288777e+38
0.14602858 -0.36122859 2.6900001 -2.3021734e+38
0.15115239 -0.36122859 2.6900001 -2.3022778e+38
0.1562762 -0.36122859 2.6900001 -2.342207e+38
0.16140001 -0.36122859 2.6900001 -2.3688962e+38
0.16652381 -0.36122859 2.6900001 -2.4221181e+38
0.17164762 -0.36122859 2.6900001 -2.4753906e+38
0.17677145 -0.36122859 2.6900001 -2.4088767e+38
0.17912287 -0.35572287 2.6490002 -2.3294402e+38
0.18277811 -0.35303718 2.6290002 -3.0230846e+38
0.18635716 -0.35035145 2.6090002 nan
0.19132668 -0.35035145 2.6090002 nan
0.19479144 -0.34766573 2.5890002 nan
0.19825716 -0.34511432 2.5700002 nan
0.20315239 -0.34511432 2.5700002 nan
0.20804763 -0.34511432 2.5700002 nan
0.21294287 -0.34511432 2.5700002 nan
0.21783811 -0.34511432 2.5700002 nan
0.22273335 -0.34511432 2.5700002 nan
0.22931144 -0.34766573 2.5890002 nan
0.23605239 -0.35035145 2.6090002 nan
0.24102192 -0.35035145 2.6090002 nan
0.25768286 -0.36700287 2.733 nan
-0.25280669 -0.38615528 2.9170001 nan
-0.2472505 -0.38615528 2.9170001 nan
-0.2416943 -0.38615528 2.9170001 nan
-0.23419525 -0.38297811 2.8930001 nan
-0.22868478 -0.38297811 2.8930001 -3.2566715e+38
-0.2231743 -0.38297811 2.8930001 -1.7292578e+38
-0.21585812 -0.37980098 2.8690002 -2.183692e+38
-0.21039335 -0.37980098 2.8690002 -2.6222324e+38
-0.20492859 -0.37980098 2.8690002 -2.5554585e+38
-0.19946383 -0.37980098 2.8690002 -2.4889435e+38
-0.19399907 -0.37980098 2.8690002 -2.4357209e+38
-0.1885343 -0.37980098 2.8690002 -2.3824994e+38
-0.18306954 -0.37980098 2.8690002 -2.3559144e+38
-0.17760478 -0.37980098 2.8690002 -2.3158297e+38
-0.17070001 -0.37662384 2.845 -2.3422583e+38
-0.16528097 -0.37662384 2.845 -2.3688429e+38
-0.15856953 -0.37357908 2.822 -2.382239e+38
-0.15194573 -0.3705343 2.799 -2.3822917e+38
-0.14425716 -0.36457717 2.7540002 -2.3956365e+38
-0.13795143 -0.36179715 2.733 -2.4089292e+38
-0.13274573 -0.36179715 2.733 -2.4088258e+38
-0.12651335 -0.35888478 2.7110002 -2.3955848e+38
-0.12134953 -0.35888478 2.7110002 -2.395688e+38
-0.11528572 -0.35610479 2.6900001 -2.3822917e+38
-0.11016192 -0.35610479 2.6900001 -2.3556033e+38
-0.1050381 -0.35610479 2.6900001 -2.3157263e+38
-0.09991429 -0.35610479 2.6900001 -2.3156222e+38
-0.094790481 -0.35610479 2.6900001 -2.3023815e+38
-0.089666672 -0.35610479 2.6900001 -2.3024851e+38
-0.083882861 -0.35332477 2.6690001 -2.2890364e+38
-0.078799054 -0.35332477 2.6690001 -2.289036e+38
-0.07371524 -0.35332477 2.6690001 -2.2889322e+38
-0.068631433 -0.35332477 2.6690001 -2.2889324e+38
-0.063547626 -0.35332477 2.6690001 -2.2755884e+38
-0.058025718 -0.35067716 2.6490002 -2.2622963e+38
-0.052980002 -0.35067716 2.6490002 -2.2357118e+38
-0.04793429 -0.35067716 2.6490002 -2.2224195e+38
-0.043212384 -0.35332477 2.6690001 -2.1959386e+38
-0.037842859 -0.35067716 2.6490002 -2.1959384e+38
-0.032797147 -0.35067716 2.6490002 -2.1825944e+38
-0.027751431 -0.35067716 2.6490002 -2.195887e+38
-0.022705715 -0.35067716 2.6490002 -2.2090757e+38
-0.017660001 -0.35067716 2.6490002 -2.208972e+38
-0.012614287 -0.35067716 2.6490002 -2.209024e+38
-0.0075685717 -0.35067716 2.6490002 -2.2089722e+38
-0.0025038098 -0.34802955 2.6290002 -2.2089201e+38
0.0025038098 -0.34802955 2.6290002 -2.208868e+38
0.0075685717 -0.35067716 2.6490002 -2.2088676e+38
0.012614287 -0.35067716 2.6490002 -2.2354515e+38
0.017660001 -0.35067716 2.6490002 -2.2487438e+38
0.022705715 -0.35067716 2.6490002 -2.2353996e+38
0.027751431 -0.35067716 2.6490002 -2.2221073e+38
0.032797147 -0.35067716 2.6490002 -2.2353996e+38
0.037842859 -0.35067716 2.6490002 -2.2354e+38
0.042888574 -0.35067716 2.6490002 -2.2221081e+38
0.04793429 -0.35067716 2.6490002 -2.1955751e+38
0.052980002 -0.35067716 2.6490002 -2.2088151e+38
0.058025718 -0.35067716 2.6490002 -2.2221593e+38
0.06307143 -0.35067716 2.6490002 -2.2486917e+38
0.068117149 -0.35067716 2.6490002 -2.2620361e+38
0.07371524 -0.35332477 2.6690001 -2.2620361e+38
0.078799054 -0.35332477 2.6690001 -2.2486917e+38
0.083882861 -0.35332477 2.6690001 -2.2619316e+38
0.088300005 -0.35067716 2.6490002 -2.2620357e+38
0.093345724 -0.35067716 2.6490002 -2.275328e+38
0.098391436 -0.35067716 2.6490002 -2.2753803e+38
0.1042181 -0.35332477 2.6690001 -2.275329e+38
0.10930191 -0.35332477 2.6690001 -2.2753807e+38
0.11438572 -0.35332477 2.6690001 -2.2753807e+38
0.11946953 -0.35332477 2.6690001 -2.2621401e+38
0.12455335 -0.35332477 2.6690001 -2.2754322e+38
0.13065715 -0.35610479 2.6900001 -2.2887243e+38
0.13578096 -0.35610479 2.6900001 -2.3153089e+38
0.14090477 -0.35610479 2.6900001 -2.3287054e+38
0.14602858 -0.35610479 2.6900001 -2.3288096e+38
0.15115239 -0.35610479 2.6900001 -2.3289143e+38
0.1562762 -0.35610479 2.6900001 -2.3555516e+38
0.16140001 -0.35610479 2.6900001 -2.3822406e+38
0.16652381 -0.35610479 2.6900001 -2.4354625e+38
0.17164762 -0.35610479 2.6900001 -2.4887346e+38
0.17677145 -0.35610479 2.6900001 -2.4088765e+38
0.18047525 -0.35332477 2.6690001 -2.3300095e+38
0.18416858 -0.35067716 2.6490002 -2.9967045e+38
0.18635716 -0.34538192 2.6090002 nan
0.18986002 -0.34273431 2.5890002 nan
0.19479144 -0.34273431 2.5890002 nan
0.19825716 -0.34021908 2.5700002 nan
0.20315239 -0.34021908 2.5700002 nan
0.20804763 -0.34021908 2.5700002 nan
0.21294287 -0.34021908 2.5700002 nan
0.21783811 -0.34021908 2.5700002 nan
0.22273335 -0.34021908 2.5700002 nan
0.22931144 -0.34273431 2.5890002 nan
0.23424287 -0.34273431 2.5890002 nan
0.24102192 -0.34538192 2.6090002 nan
0.25560859 -0.35888478 2.7110002 nan
-0.25280669 -0.38059908 2.9170001 nan
-0.2472505 -0.38059908 2.9170001 nan
-0.2416943 -0.38059908 2.9170001 nan
-0.23419525 -0.37746763 2.8930001 nan
-0.22868478 -0.37746763 2.8930001 -3.2730765e+38
-0.2231743 -0.37746763 2.8930001 -1.7413536e+38
-0.21585812 -0.37433621 2.8690002 -2.1960475e+38
-0.21039335 -0.37433621 2.8690002 -2.6487638e+38
-0.20492859 -0.37433621 2.8690002 -2.5821986e+38
-0.19946383 -0.37433621 2.8690002 -2.5156323e+38
-0.19399907 -0.37433621 2.8690002 -2.4623582e+38
-0.1885343 -0.37433621 2.8690002 -2.4090327e+38
-0.18306954 -0.37433621 2.8690002 -2.3957398e+38
-0.17760478 -0.37433621 2.8690002 -2.3690516e+38
-0.17070001 -0.37120479 2.845 -2.38224e+38
-0.16528097 -0.37120479 2.845 -2.3821883e+38
-0.15856953 -0.36820385 2.822 -2.3955846e+38
-0.15194573 -0.36520287 2.799 -2.4088777e+38
-0.14425716 -0.35933146 2.7540002 -2.4222746e+38
-0.13795143 -0.35659146 2.733 -2.4488592e+38
-0.13274573 -0.35659146 2.733 -2.4355667e+38
-0.12754001 -0.35659146 2.733 -2.4222215e+38
-0.12134953 -0.35372096 2.7110002 -2.409032e+38
-0.11618572 -0.35372096 2.7110002 -2.3956359e+38
-0.11016192 -0.35098097 2.6900001 -2.3691031e+38
-0.1050381 -0.35098097 2.6900001 -2.3425704e+38
-0.09991429 -0.35098097 2.6900001 -2.3291741e+38
-0.094790481 -0.35098097 2.6900001 -2.3291737e+38
-0.089666672 -0.35098097 2.6900001 -2.315777e+38
-0.083882861 -0.34824097 2.6690001 -2.3156208e+38
-0.078799054 -0.34824097 2.6690001 -2.3022762e+38
-0.07371524 -0.34824097 2.6690001 -2.3021206e+38
-0.068631433 -0.34824097 2.6690001 -2.3021728e+38
-0.063547626 -0.34824097 2.6690001 -2.288777e+38
-0.058025718 -0.34563145 2.6490002 -2.275589e+38
-0.052980002 -0.34563145 2.6490002 -2.2489523e+38
-0.04793429 -0.34563145 2.6490002 -2.2224714e+38
-0.043212384 -0.34824097 2.6690001 -2.1960424e+38
-0.038128573 -0.34824097 2.6690001 -2.1959384e+38
-0.032797147 -0.34563145 2.6490002 -2.1958868e+38
-0.027751431 -0.34563145 2.6490002 -2.1957832e+38
-0.022705715 -0.34563145 2.6490002 -2.2089718e+38
-0.017660001 -0.34563145 2.6490002 -2.1956798e+38
-0.012614287 -0.34563145 2.6490002 -2.19568e+38
-0.007511429 -0.34302193 2.6290002 -2.195628e+38
-0.0025038098 -0.34302193 2.6290002 -2.1955238e+38
0.0025038098 -0.34302193 2.6290002 -2.1955751e+38
0.0075685717 -0.34563145 2.6490002 -2.1955749e+38
0.012614287 -0.34563145 2.6490002 -2.1955226e+38
0.017660001 -0.34563145 2.6490002 -2.1955226e+38
0.022705715 -0.34563145 2.6490002 -2.2088148e+38
0.027751431 -0.34563145 2.6490002 -2.2220556e+38
0.032797147 -0.34563145 2.6490002 -2.2088155e+38
0.037842859 -0.34563145 2.6490002 -2.2087639e+38
0.042888574 -0.34563145 2.6490002 -2.195524e+38
0.04793429 -0.34563145 2.6490002 -2.1955234e+38
0.052980002 -0.34563145 2.6490002 -2.2088148e+38
0.058025718 -0.34563145 2.6490002 -2.2354511e+38
0.06307143 -0.34563145 2.6490002 -2.248743e+38
0.068117149 -0.34563145 2.6490002 -2.2620355e+38
0.07371524 -0.34824097 2.6690001 -2.2487434e+38
0.078208573 -0.34563145 2.6490002 -2.2486911e+38
0.083254293 -0.34563145 2.6490002 -2.2487426e+38
0.088300005 -0.34563145 2.6490002 -2.2487945e+38
0.093345724 -0.34563145 2.6490002 -2.2621387e+38
0.098391436 -0.34563145 2.6490002 -2.2886716e+38
0.10343715 -0.34563145 2.6490002 -2.2754314e+38
0.10930191 -0.34824097 2.6690001 -2.2754318e+38
0.11438572 -0.34824097 2.6690001 -2.275432e+38
0.11946953 -0.34824097 2.6690001 -2.2621395e+38
0.12455335 -0.34824097 2.6690001 -2.2754835e+38
0.12963715 -0.34824097 2.6690001 -2.2754835e+38
0.13578096 -0.35098097 2.6900001 -2.3021198e+38
0.14090477 -0.35098097 2.6900001 -2.3288088e+38
0.14602858 -0.35098097 2.6900001 -2.3421536e+38
0.15115239 -0.35098097 2.6900001 -2.3422066e+38
0.1562762 -0.35098097 2.6900001 -2.3689479e+38
0.16140001 -0.35098097 2.6900001 -2.3956369e+38
0.16652381 -0.35098097 2.6900001 -2.4356182e+38
0.17164762 -0.35098097 2.6900001 -2.4889423e+38
0.17677145 -0.35098097 2.6900001 -2.4224282e+38
0.18189526 -0.35098097 2.6900001 -2.3691576e+38
0.18555906 -0.34824097 2.6690001 -2.9431166e+38
0.18635716 -0.34041241 2.6090002 nan
0.18986002 -0.33780289 2.5890002 nan
0.19336192 -0.33532384 2.5700002 nan
0.19825716 -0.33532384 2.5700002 nan
0.20315239 -0.33532384 2.5700002 nan
0.20804763 -0.33532384 2.5700002 nan
0.21294287 -0.33532384 2.5700002 nan
0.21783811 -0.33532384 2.5700002 nan
0.22273335 -0.33532384 2.5700002 nan
0.22931144 -0.33780289 2.5890002 nan
0.23605239 -0.34041241 2.6090002 nan
0.24102192 -0.34041241 2.6090002 nan
0.25362858 -0.35098097 2.6900001 nan
0.25875241 -0.35098097 2.6900001 nan
-0.25280669 -0.37504289 2.9170001 nan
-0.2472505 -0.37504289 2.9170001 nan
-0.2416943 -0.37504289 2.9170001 nan
-0.23419525 -0.37195715 2.8930001 nan
-0.22868478 -0.37195715 2.8930001 -3.283256e+38
-0.2231743 -0.37195715 2.8930001 -1.7561001e+38
-0.21585812 -0.36887145 2.8690002 -2.2103247e+38
-0.21039335 -0.36887145 2.8690002 -2.662159e+38
-0.20492859 -0.36887145 2.8690002 -2.6089906e+38
-0.19946383 -0.36887145 2.8690002 -2.5422686e+38
-0.19399907 -0.36887145 2.8690002 -2.4890468e+38
-0.1885343 -0.36887145 2.8690002 -2.4357213e+38
-0.18306954 -0.36887145 2.8690002 -2.4356689e+38
-0.17760478 -0.36887145 2.8690002 -2.4222728e+38
-0.17214002 -0.36887145 2.8690002 -2.4089288e+38
-0.16667525 -0.36887145 2.8690002 -2.3955848e+38
-0.15986192 -0.36578575 2.845 -2.4222217e+38
-0.15319429 -0.36282858 2.822 -2.4355665e+38
-0.14546192 -0.35704288 2.7770002 -2.4623074e+38
-0.13901144 -0.35408574 2.7540002 -2.4756514e+38
-0.13274573 -0.35138574 2.733 -2.4623588e+38
-0.12754001 -0.35138574 2.733 -2.4490657e+38
-0.12233429 -0.35138574 2.733 -2.4225322e+38
-0.11712858 -0.35138574 2.733 -2.3958438e+38
-0.11102191 -0.34855717 2.7110002 -2.3826554e+38
-0.1058581 -0.34855717 2.7110002 -2.355967e+38
-0.09991429 -0.34585717 2.6900001 -2.3558633e+38
-0.094790481 -0.34585717 2.6900001 -2.3424668e+38
-0.089666672 -0.34585717 2.6900001 -2.3423628e+38
-0.083882861 -0.34315717 2.6690001 -2.328966e+38
-0.078799054 -0.34315717 2.6690001 -2.3289137e+38
-0.07371524 -0.34315717 2.6690001 -2.3155695e+38
-0.068631433 -0.34315717 2.6690001 -2.3156214e+38
-0.063547626 -0.34315717 2.6690001 -2.3022255e+38
-0.058463812 -0.34315717 2.6690001 -2.2889334e+38
-0.053380005 -0.34315717 2.6690001 -2.2623486e+38
-0.04793429 -0.34058574 2.6490002 -2.2357639e+38
-0.043212384 -0.34315717 2.6690001 -2.1958866e+38
-0.038128573 -0.34315717 2.6690001 -2.2091268e+38
-0.032797147 -0.34058574 2.6490002 -2.2090751e+38
-0.027751431 -0.34058574 2.6490002 -2.2089195e+38
-0.022705715 -0.34058574 2.6490002 -2.1956791e+38
-0.017660001 -0.34058574 2.6490002 -2.1956791e+38
-0.012614287 -0.34058574 2.6490002 -2.1823349e+38
-0.007511429 -0.3380143 2.6290002 -2.1823349e+38
-0.0025038098 -0.3380143 2.6290002 -2.1822824e+38
0.0025038098 -0.3380143 2.6290002 -2.1822301e+38
0.0075685717 -0.34058574 2.6490002 -2.1822297e+38
0.012614287 -0.34058574 2.6490002 -2.1688334e+38
0.017660001 -0.34058574 2.6490002 -2.1423005e+38
0.022705715 -0.34058574 2.6490002 -2.1821774e+38
0.027751431 -0.34058574 2.6490002 -2.2220546e+38
0.032797147 -0.34058574 2.6490002 -2.1955226e+38
0.037842859 -0.34058574 2.6490002 -2.1688865e+38
0.042888574 -0.34058574 2.6490002 -2.1822311e+38
0.04793429 -0.34058574 2.6490002 -2.1822307e+38
0.052980002 -0.34058574 2.6490002 -2.2088151e+38
0.058025718 -0.34058574 2.6490002 -2.235399e+38
0.063547626 -0.34315717 2.6690001 -2.2486909e+38
0.068117149 -0.34058574 2.6490002 -2.2486911e+38
0.07371524 -0.34315717 2.6690001 -2.2486913e+38
0.078208573 -0.34058574 2.6490002 -2.2355026e+38
0.083254293 -0.34058574 2.6490002 -2.2356061e+38
0.088300005 -0.34058574 2.6490002 -2.2224177e+38
0.093345724 -0.34058574 2.6490002 -2.2622945e+38
0.098391436 -0.34058574 2.6490002 -2.2887754e+38
0.10343715 -0.34058574 2.6490002 -2.2887756e+38
0.10848287 -0.34058574 2.6490002 -2.2754835e+38
0.11352858 -0.34058574 2.6490002 -2.2755357e+38
0.11946953 -0.34315717 2.6690001 -2.2623472e+38
0.12455335 -0.34315717 2.6690001 -2.2623474e+38
0.12963715 -0.34315717 2.6690001 -2.2623476e+38
0.13578096 -0.34585717 2.6900001 -2.3022247e+38
0.14090477 -0.34585717 2.6900001 -2.3288618e+38
0.14602858 -0.34585717 2.6900001 -2.3421547e+38
0.15115239 -0.34585717 2.6900001 -2.3556035e+38
0.1562762 -0.34585717 2.6900001 -2.3823447e+38
0.16140001 -0.34585717 2.6900001 -2.3956895e+38
0.16652381 -0.34585717 2.6900001 -2.4356706e+38
0.17164762 -0.34585717 2.6900001 -2.4757543e+38
0.17677145 -0.34585717 2.6900001 -2.4359285e+38
0.18189526 -0.34585717 2.6900001 -2.3965239e+38
0.18555906 -0.34315717 2.6690001 -2.9032971e+38
0.18778573 -0.3380143 2.6290002 -3.3964651e+38
0.18986002 -0.33287144 2.5890002 nan
0.19336192 -0.3304286 2.5700002 nan
0.19825716 -0.3304286 2.5700002 nan
0.20315239 -0.3304286 2.5700002 nan
0.20804763 -0.3304286 2.5700002 nan
0.21294287 -0.3304286 2.5700002 nan
0.21783811 -0.3304286 2.5700002 nan
0.22273335 -0.3304286 2.5700002 nan
0.22931144 -0.33287144 2.5890002 nan
0.23424287 -0.33287144 2.5890002 nan
0.23917431 -0.33287144 2.5890002 nan
0.24787717 -0.3380143 2.6290002 nan
0.24720953 -0.3304286 2.5700002 nan
0.25985432 -0.34058574 2.6490002 nan
-0.25280669 -0.36948669 2.9170001 nan
-0.2472505 -0.36948669 2.9170001 nan
-0.2416943 -0.36948669 2.9170001 nan
-0.23419525 -0.3664467 2.8930001 nan
-0.22868478 -0.3664467 2.8930001 -3.2070355e+38
-0.2231743 -0.3664467 2.8930001 -1.7433275e+38
-0.21585812 -0.36340669 2.8690002 -2.1432905e+38
-0.21039335 -0.36340669 2.8690002 -2.5292873e+38
-0.20492859 -0.36340669 2.8690002 -2.4892039e+38
-0.19946383 -0.36340669 2.8690002 -2.4624111e+38
-0.19399907 -0.36340669 2.8690002 -2.435774e+38
-0.1885343 -0.36340669 2.8690002 -2.4224294e+38
-0.18306954 -0.36340669 2.8690002 -2.4223249e+38
-0.17760478 -0.36340669 2.8690002 -2.4222213e+38
-0.17214002 -0.36340669 2.8690002 -2.4222213e+38
-0.16667525 -0.36340669 2.8690002 -2.435514e+38
-0.15986192 -0.3603667 2.845 -2.4355663e+38
-0.15319429 -0.35745335 2.822 -2.4489111e+38
-0.14546192 -0.35175335 2.7770002 -2.4624115e+38
-0.13901144 -0.34884003 2.7540002 -2.4890995e+38
-0.13376573 -0.34884003 2.7540002 -2.4624624e+38
-0.12852001 -0.34884003 2.7540002 -2.4491695e+38
-0.1232743 -0.34884003 2.7540002 -2.4225322e+38
-0.11802858 -0.34884003 2.7540002 -2.4091882e+38
-0.11278287 -0.34884003 2.7540002 -2.3826037e+38
-0.10671715 -0.34618002 2.733 -2.3692599e+38
-0.10069429 -0.34339336 2.7110002 -2.3558639e+38
-0.09553048 -0.34339336 2.7110002 -2.3557601e+38
-0.089666672 -0.34073335 2.6900001 -2.3424157e+38
-0.084542863 -0.34073335 2.6900001 -2.3290192e+38
-0.079419054 -0.34073335 2.6900001 -2.3289666e+38
-0.074295245 -0.34073335 2.6900001 -2.3289145e+38
-0.068631433 -0.33807334 2.6690001 -2.3155701e+38
-0.063547626 -0.33807334 2.6690001 -2.3022259e+38
-0.058463812 -0.33807334 2.6690001 -2.2756411e+38
-0.053380005 -0.33807334 2.6690001 -2.2623486e+38
-0.048296195 -0.33807334 2.6690001 -2.2224716e+38
-0.042888574 -0.33554003 2.6490002 -2.1958349e+38
-0.038128573 -0.33807334 2.6690001 -2.1958345e+38
-0.032797147 -0.33554003 2.6490002 -2.1824903e+38
-0.027751431 -0.33554003 2.6490002 -2.1824384e+38
-0.022705715 -0.33554003 2.6490002 -2.1824384e+38
-0.017660001 -0.33554003 2.6490002 -2.1690421e+38
-0.012614287 -0.33554003 2.6490002 -2.1689899e+38
-0.007511429 -0.33300668 2.6290002 -2.1690417e+38
-0.0025038098 -0.33300668 2.6290002 -2.1690412e+38
0.0025038098 -0.33300668 2.6290002 -2.1556966e+38
0.0075685717 -0.33554003 2.6490002 -2.1556962e+38
0.012614287 -0.33554003 2.6490002 -2.1422478e+38
0.017660001 -0.33554003 2.6490002 -2.1422476e+38
0.022705715 -0.33554003 2.6490002 -2.1688319e+38
0.027751431 -0.33554003 2.6490002 -2.1953135e+38
0.032797147 -0.33554003 2.6490002 -2.1821258e+38
0.037842859 -0.33554003 2.6490002 -2.168834e+38
0.042888574 -0.33554003 2.6490002 -2.1821784e+38
0.04793429 -0.33554003 2.6490002 -2.1954708e+38
0.053380005 -0.33807334 2.6690001 -2.2220554e+38
0.058463812 -0.33807334 2.6690001 -2.2618797e+38
0.06307143 -0.33554003 2.6490002 -2.261983e+38
0.068631433 -0.33807334 2.6690001 -2.2619312e+38
0.07371524 -0.33807334 2.6690001 -2.248743e+38
0.078208573 -0.33554003 2.6490002 -2.2355544e+38
0.083254293 -0.33554003 2.6490002 -2.2357619e+38
0.088300005 -0.33554003 2.6490002 -2.2226253e+38
0.092640959 -0.33300668 2.6290002 -2.2490539e+38
0.097648576 -0.33300668 2.6290002 -2.2755348e+38
0.10343715 -0.33554003 2.6490002 -2.2755351e+38
0.10848287 -0.33554003 2.6490002 -2.2755353e+38
0.11352858 -0.33554003 2.6490002 -2.2623987e+38
0.11946953 -0.33807334 2.6690001 -2.2625549e+38
0.12455335 -0.33807334 2.6690001 -2.2625034e+38
0.12963715 -0.33807334 2.6690001 -2.2757963e+38
0.13578096 -0.34073335 2.6900001 -2.3023293e+38
0.14090477 -0.34073335 2.6900001 -2.342207e+38
0.14602858 -0.34073335 2.6900001 -2.3555518e+38
0.15115239 -0.34073335 2.6900001 -2.3689485e+38
0.1562762 -0.34073335 2.6900001 -2.3956375e+38
0.16140001 -0.34073335 2.6900001 -2.4223264e+38
0.16652381 -0.34073335 2.6900001 -2.4623594e+38
0.17164762 -0.34073335 2.6900001 -2.4892547e+38
0.17677145 -0.34073335 2.6900001 -2.4492212e+38
0.18189526 -0.34073335 2.6900001 -2.3960596e+38
0.18555906 -0.33807334 2.6690001 -2.8898024e+38
0.18778573 -0.33300668 2.6290002 -3.3696224e+38
0.19132668 -0.33047336 2.6090002 nan
0.19479144 -0.32794002 2.5890002 nan
0.19825716 -0.32553336 2.5700002 nan
0.20315239 -0.32553336 2.5700002 nan
0.20804763 -0.32553336 2.5700002 nan
0.21294287 -0.32553336 2.5700002 nan
0.21783811 -0.32553336 2.5700002 nan
0.22273335 -0.32553336 2.5700002 nan
0.22931144 -0.32794002 2.5890002 nan
0.23424287 -0.32794002 2.5890002 nan
0.23741907 -0.32553336 2.5700002 nan
0.24052288 -0.32312667 2.5510001 nan
0.24720953 -0.32553336 2.5700002 nan
-0.25280669 -0.36393049 2.9170001 nan
-0.2472505 -0.36393049 2.9170001 nan
-0.23970573 -0.36093622 2.8930001 nan
-0.23419525 -0.36093622 2.8930001 nan
-0.22868478 -0.36093622 2.8930001 -3.1370367e+38
-0.2231743 -0.36093622 2.8930001 -1.7294099e+38
-0.21585812 -0.35794193 2.8690002 -2.0636429e+38
-0.21039335 -0.35794193 2.8690002 -2.3960012e+38
-0.20492859 -0.35794193 2.8690002 -2.3826047e+38
-0.19946383 -0.35794193 2.8690002 -2.3692079e+38
-0.19399907 -0.35794193 2.8690002 -2.3824998e+38
-0.1885343 -0.35794193 2.8690002 -2.3956349e+38
-0.18306954 -0.35794193 2.8690002 -2.408926e+38
-0.17760478 -0.35794193 2.8690002 -2.4221673e+38
-0.17070001 -0.35494766 2.845 -2.4487529e+38
-0.16667525 -0.35794193 2.8690002 -2.462046e+38
-0.15986192 -0.35494766 2.845 -2.4620989e+38
-0.15194573 -0.34920859 2.799 -2.4490667e+38
-0.14546192 -0.34646383 2.7770002 -2.4759113e+38
-0.13901144 -0.34359431 2.7540002 -2.4891514e+38
-0.13376573 -0.34359431 2.7540002 -2.4758589e+38
-0.12852001 -0.34359431 2.7540002 -2.4491699e+38
-0.1232743 -0.34359431 2.7540002 -2.4358253e+38
-0.11802858 -0.34359431 2.7540002 -2.4091886e+38
-0.11278287 -0.34359431 2.7540002 -2.3958444e+38
-0.10671715 -0.3409743 2.733 -2.3824483e+38
-0.10151143 -0.3409743 2.733 -2.3691041e+38
-0.09553048 -0.33822954 2.7110002 -2.3557599e+38
-0.090366669 -0.33822954 2.7110002 -2.3424155e+38
-0.084542863 -0.33560956 2.6900001 -2.3290709e+38
-0.079419054 -0.33560956 2.6900001 -2.3290705e+38
-0.074295245 -0.33560956 2.6900001 -2.3289664e+38
-0.069171436 -0.33560956 2.6900001 -2.3155699e+38
-0.063547626 -0.33298954 2.6690001 -2.3022776e+38
-0.058463812 -0.33298954 2.6690001 -2.2756928e+38
-0.053380005 -0.33298954 2.6690001 -2.2490564e+38
-0.048296195 -0.33298954 2.6690001 -2.2224716e+38
-0.043212384 -0.33298954 2.6690001 -2.1958868e+38
-0.038128573 -0.33298954 2.6690001 -2.1825944e+38
-0.033044763 -0.33298954 2.6690001 -2.1559057e+38
-0.027751431 -0.33049431 2.6490002 -2.1691461e+38
-0.022705715 -0.33049431 2.6490002 -2.1690938e+38
-0.017660001 -0.33049431 2.6490002 -2.1556974e+38
-0.012614287 -0.33049431 2.6490002 -2.1424565e+38
-0.0075685717 -0.33049431 2.6490002 -2.142508e+38
-0.0025228574 -0.33049431 2.6490002 -2.1424037e+38
0.0025038098 -0.32799906 2.6290002 -2.1422995e+38
0.0075685717 -0.33049431 2.6490002 -2.1289555e+38
0.012614287 -0.33049431 2.6490002 -2.1288517e+38
0.017660001 -0.33049431 2.6490002 -2.1289036e+38
0.022705715 -0.33049431 2.6490002 -2.1554881e+38
0.027751431 -0.33049431 2.6490002 -2.1688327e+38
0.032797147 -0.33049431 2.6490002 -2.1688853e+38
0.037842859 -0.33049431 2.6490002 -2.1688855e+38
0.043212384 -0.33298954 2.6690001 -2.1955224e+38
0.048296195 -0.33298954 2.6690001 -2.2088146e+38
0.053380005 -0.33298954 2.6690001 -2.2486915e+38
0.058463812 -0.33298954 2.6690001 -2.2753278e+38
0.063547626 -0.33298954 2.6690001 -2.2753793e+38
0.068631433 -0.33298954 2.6690001 -2.2753795e+38
0.07371524 -0.33298954 2.6690001 -2.2621395e+38
0.078208573 -0.33049431 2.6490002 -2.2356588e+38
0.083254293 -0.33049431 2.6490002 -2.2359186e+38
0.087633342 -0.32799906 2.6290002 -2.2225223e+38
0.092640959 -0.32799906 2.6290002 -2.249003e+38
0.097648576 -0.32799906 2.6290002 -2.2622953e+38
0.1026562 -0.32799906 2.6290002 -2.2622434e+38
0.10848287 -0.33049431 2.6490002 -2.262347e+38
0.11352858 -0.33049431 2.6490002 -2.2625547e+38
0.11857429 -0.33049431 2.6490002 -2.2492111e+38
0.12455335 -0.33298954 2.6690001 -2.262504e+38
0.12963715 -0.33298954 2.6690001 -2.2757448e+38
0.13578096 -0.33560956 2.6900001 -2.3156222e+38
0.14090477 -0.33560956 2.6900001 -2.3422593e+38
0.14602858 -0.33560956 2.6900001 -2.3688445e+38
0.15115239 -0.33560956 2.6900001 -2.3822412e+38
0.1562762 -0.33560956 2.6900001 -2.4222225e+38
0.16140001 -0.33560956 2.6900001 -2.4489634e+38
0.16652381 -0.33560956 2.6900001 -2.4756525e+38
0.17164762 -0.33560956 2.6900001 -2.5023932e+38
0.17677145 -0.33560956 2.6900001 -2.4490168e+38
0.18047525 -0.33298954 2.6690001 -2.3965267e+38
0.18555906 -0.33298954 2.6690001 -2.8768182e+38
0.18778573 -0.32799906 2.6290002 -3.3433999e+38
0.19132668 -0.32550383 2.6090002 nan
0.1962962 -0.32550383 2.6090002 nan
0.19972287 -0.3230086 2.5890002 nan
0.20465431 -0.3230086 2.5890002 nan
0.20958573 -0.3230086 2.5890002 nan
0.21451716 -0.3230086 2.5890002 nan
0.21783811 -0.32063812 2.5700002 nan
0.22273335 -0.32063812 2.5700002 nan
0.22762859 -0.32063812 2.5700002 nan
0.23252383 -0.32063812 2.5700002 nan
0.23566383 -0.31826764 2.5510001 nan
0.23873144 -0.31589717 2.5320001 nan
0.24355431 -0.31589717 2.5320001 nan
-0.25072667 -0.35542575 2.8930001 nan
-0.24521621 -0.35542575 2.8930001 nan
-0.23970573 -0.35542575 2.8930001 nan
-0.23225239 -0.35247716 2.8690002 nan
-0.22678763 -0.35247716 2.8690002 nan
-0.22132286 -0.35247716 2.8690002 -2.2996776e+38
-0.21585812 -0.35247716 2.8690002 -2.7017265e+38
-0.21039335 -0.35247716 2.8690002 -3.0869925e+38
-0.20492859 -0.35247716 2.8690002 -2.9812749e+38
-0.19946383 -0.35247716 2.8690002 -2.8739499e+38
-0.19399907 -0.35247716 2.8690002 -2.7814228e+38
-0.1885343 -0.35247716 2.8690002 -2.6875957e+38
-0.18306954 -0.35247716 2.8690002 -2.5683784e+38
-0.17760478 -0.35247716 2.8690002 -2.4618864e+38
-0.17070001 -0.34952858 2.845 -2.448544e+38
-0.16667525 -0.35247716 2.8690002 -2.4485973e+38
-0.15986192 -0.34952858 2.845 -2.4488065e+38
-0.15194573 -0.34387717 2.799 -2.4624626e+38
-0.14546192 -0.3411743 2.7770002 -2.4359304e+38
-0.13901144 -0.3383486 2.7540002 -2.4227419e+38
-0.13376573 -0.3383486 2.7540002 -2.40919e+38
-0.12852001 -0.3383486 2.7540002 -2.4091898e+38
-0.1232743 -0.3383486 2.7540002 -2.4224298e+38
-0.11802858 -0.3383486 2.7540002 -2.4223777e+38
-0.11278287 -0.3383486 2.7540002 -2.4090331e+38
-0.10753715 -0.3383486 2.7540002 -2.3956367e+38
-0.10151143 -0.33576858 2.733 -2.3823442e+38
-0.09553048 -0.33306575 2.7110002 -2.369e+38
-0.090366669 -0.33306575 2.7110002 -2.3424153e+38
-0.084542863 -0.33048573 2.6900001 -2.3290709e+38
-0.079419054 -0.33048573 2.6900001 -2.3290185e+38
-0.074295245 -0.33048573 2.6900001 -2.3289662e+38
-0.069171436 -0.33048573 2.6900001 -2.3155697e+38
-0.06404762 -0.33048573 2.6900001 -2.3022255e+38
-0.058463812 -0.32790574 2.6690001 -2.2756407e+38
-0.053380005 -0.32790574 2.6690001 -2.2490562e+38
-0.048296195 -0.32790574 2.6690001 -2.2224716e+38
-0.043212384 -0.32790574 2.6690001 -2.1958868e+38
-0.038128573 -0.32790574 2.6690001 -2.1825424e+38
-0.033044763 -0.32790574 2.6690001 -2.1691982e+38
-0.027751431 -0.3254486 2.6490002 -2.1691461e+38
-0.022705715 -0.3254486 2.6490002 -2.1823859e+38
-0.017660001 -0.3254486 2.6490002 -2.169041e+38
-0.012614287 -0.3254486 2.6490002 -2.1690404e+38
-0.0075685717 -0.3254486 2.6490002 -2.1556954e+38
-0.0025228574 -0.3254486 2.6490002 -2.1555392e+38
0.0025228574 -0.3254486 2.6490002 -2.1555908e+38
0.0076257149 -0.32790574 2.6690001 -2.1554356e+38
0.012709524 -0.32790574 2.6690001 -2.1555401e+38
0.017793335 -0.32790574 2.6690001 -2.1555403e+38
0.022877144 -0.32790574 2.6690001 -2.1689364e+38
0.027960954 -0.32790574 2.6690001 -2.1822289e+38
0.032797147 -0.3254486 2.6490002 -2.1955214e+38
0.037842859 -0.3254486 2.6490002 -2.2087621e+38
0.043212384 -0.32790574 2.6690001 -2.2088142e+38
0.048296195 -0.32790574 2.6690001 -2.2221065e+38
0.053380005 -0.32790574 2.6690001 -2.2355026e+38
0.058463812 -0.32790574 2.6690001 -2.2356065e+38
0.06307143 -0.3254486 2.6490002 -2.2488468e+38
0.068117149 -0.3254486 2.6490002 -2.2754318e+38
0.073162861 -0.3254486 2.6490002 -2.2488475e+38
0.078208573 -0.3254486 2.6490002 -2.2356594e+38
0.082625717 -0.32299146 2.6290002 -2.2224195e+38
0.087633342 -0.32299146 2.6290002 -2.2224195e+38
0.092640959 -0.32299146 2.6290002 -2.249004e+38
0.097648576 -0.32299146 2.6290002 -2.2622961e+38
0.1026562 -0.32299146 2.6290002 -2.2622959e+38
0.10848287 -0.3254486 2.6490002 -2.2491071e+38
0.11352858 -0.3254486 2.6490002 -2.2491067e+38
0.11857429 -0.3254486 2.6490002 -2.2491075e+38
0.12455335 -0.32790574 2.6690001 -2.2624006e+38
0.12963715 -0.32790574 2.6690001 -2.2756935e+38
0.13578096 -0.33048573 2.6900001 -2.3156748e+38
0.14090477 -0.33048573 2.6900001 -2.3423118e+38
0.14602858 -0.33048573 2.6900001 -2.3688449e+38
0.15115239 -0.33048573 2.6900001 -2.3955339e+38
0.1562762 -0.33048573 2.6900001 -2.4222229e+38
0.16140001 -0.33048573 2.6900001 -2.449016e+38
0.16652381 -0.33048573 2.6900001 -2.4889973e+38
0.17164762 -0.33048573 2.6900001 -2.5423759e+38
0.17677145 -0.33048573 2.6900001 -2.5289295e+38
0.18047525 -0.32790574 2.6690001 -2.5288782e+38
0.18416858 -0.3254486 2.6490002 -2.9428606e+38
0.18778573 -0.32299146 2.6290002 -3.3700868e+38
0.19132668 -0.32053432 2.6090002 nan
0.1962962 -0.32053432 2.6090002 nan
0.19972287 -0.31807718 2.5890002 nan
0.20465431 -0.31807718 2.5890002 nan
0.20958573 -0.31807718 2.5890002 nan
0.21451716 -0.31807718 2.5890002 nan
0.21783811 -0.31574288 2.5700002 nan
0.22273335 -0.31574288 2.5700002 nan
0.22762859 -0.31574288 2.5700002 nan
0.23252383 -0.31574288 2.5700002 nan
0.23566383 -0.31340858 2.5510001 nan
0.23703431 -0.30886286 2.5140002 nan
-0.24521621 -0.34991527 2.8930001 nan
-0.23970573 -0.34991527 2.8930001 nan
-0.23225239 -0.3470124 2.8690002 nan
-0.22678763 -0.3470124 2.8690002 nan
-0.22132286 -0.3470124 2.8690002 -2.8744671e+38
-0.21585812 -0.3470124 2.8690002 -3.3300479e+38
-0.21039335 -0.3470124 2.8690002 nan
-0.20492859 -0.3470124 2.8690002 nan
-0.19946383 -0.3470124 2.8690002 -3.3813981e+38
-0.19399907 -0.3470124 2.8690002 -3.1815977e+38
-0.1885343 -0.3470124 2.8690002 -2.9680361e+38
-0.18306954 -0.3470124 2.8690002 -2.7283056e+38
-0.17760478 -0.3470124 2.8690002 -2.4888366e+38
-0.17214002 -0.3470124 2.8690002 -2.4615249e+38
-0.16667525 -0.3470124 2.8690002 -2.435201e+38
-0.15986192 -0.34410954 2.845 -2.4487022e+38
-0.15444286 -0.34410954 2.845 -2.4620993e+38
-0.14546192 -0.33588478 2.7770002 -2.409243e+38
-0.13901144 -0.33310288 2.7540002 -2.3423632e+38
-0.13376573 -0.33310288 2.7540002 -2.3556005e+38
-0.12852001 -0.33310288 2.7540002 -2.3686871e+38
-0.1232743 -0.33310288 2.7540002 -2.4090335e+38
-0.11802858 -0.33310288 2.7540002 -2.4356178e+38
-0.11278287 -0.33310288 2.7540002 -2.4222736e+38
-0.10671715 -0.33056289 2.733 -2.4089811e+38
-0.10151143 -0.33056289 2.733 -2.3955846e+38
-0.09553048 -0.32790193 2.7110002 -2.3822921e+38
-0.090366669 -0.32790193 2.7110002 -2.3556554e+38
-0.084542863 -0.32536194 2.6900001 -2.3157265e+38
-0.079419054 -0.32536194 2.6900001 -2.3156743e+38
-0.074295245 -0.32536194 2.6900001 -2.315622e+38
-0.069171436 -0.32536194 2.6900001 -2.3022255e+38
-0.06404762 -0.32536194 2.6900001 -2.288933e+38
-0.058923814 -0.32536194 2.6900001 -2.2756403e+38
-0.053380005 -0.32282192 2.6690001 -2.2490562e+38
-0.048296195 -0.32282192 2.6690001 -2.222472e+38
-0.043212384 -0.32282192 2.6690001 -2.1958353e+38
-0.038128573 -0.32282192 2.6690001 -2.1957315e+38
-0.033044763 -0.32282192 2.6690001 -2.1824909e+38
-0.027960954 -0.32282192 2.6690001 -2.1824905e+38
-0.022877144 -0.32282192 2.6690001 -2.182438e+38
-0.017793335 -0.32282192 2.6690001 -2.1823335e+38
-0.012614287 -0.32040289 2.6490002 -2.1823333e+38
-0.0075685717 -0.32040289 2.6490002 -2.1690408e+38
-0.0025228574 -0.32040289 2.6490002 -2.1557482e+38
0.0025228574 -0.32040289 2.6490002 -2.169092e+38
0.0076257149 -0.32282192 2.6690001 -2.1689885e+38
0.012709524 -0.32282192 2.6690001 -2.1690928e+38
0.017793335 -0.32282192 2.6690001 -2.1690406e+38
0.022877144 -0.32282192 2.6690001 -2.1823848e+38
0.027960954 -0.32282192 2.6690001 -2.1956252e+38
0.033044763 -0.32282192 2.6690001 -2.222158e+38
0.038128573 -0.32282192 2.6690001 -2.2354505e+38
0.043212384 -0.32282192 2.6690001 -2.2353988e+38
0.048296195 -0.32282192 2.6690001 -2.2355026e+38
0.053380005 -0.32282192 2.6690001 -2.2223142e+38
0.058463812 -0.32282192 2.6690001 -2.1956779e+38
0.063547626 -0.32282192 2.6690001 -2.2354511e+38
0.068117149 -0.32040289 2.6490002 -2.262088e+38
0.073162861 -0.32040289 2.6490002 -2.2487442e+38
0.078208573 -0.32040289 2.6490002 -2.2222637e+38
0.082625717 -0.31798384 2.6290002 -2.2223158e+38
0.087633342 -0.31798384 2.6290002 -2.2223676e+38
0.092640959 -0.31798384 2.6290002 -2.2489521e+38
0.097648576 -0.31798384 2.6290002 -2.262244e+38
0.1026562 -0.31798384 2.6290002 -2.2489513e+38
0.10848287 -0.32040289 2.6490002 -2.2357109e+38
0.11352858 -0.32040289 2.6490002 -2.2490032e+38
0.11857429 -0.32040289 2.6490002 -2.249056e+38
0.12362001 -0.32040289 2.6490002 -2.2623491e+38
0.12963715 -0.32282192 2.6690001 -2.2757456e+38
0.13472097 -0.32282192 2.6690001 -2.3157269e+38
0.13980477 -0.32282192 2.6690001 -2.3422599e+38
0.14488858 -0.32282192 2.6690001 -2.3820333e+38
0.15115239 -0.32536194 2.6900001 -2.4087741e+38
0.1562762 -0.32536194 2.6900001 -2.4221189e+38
0.16140001 -0.32536194 2.6900001 -2.4356716e+38
0.16652381 -0.32536194 2.6900001 -2.515582e+38
0.17164762 -0.32536194 2.6900001 -2.5821493e+38
0.17677145 -0.32536194 2.6900001 -2.6220282e+38
0.18047525 -0.32282192 2.6690001 -2.6490279e+38
0.18416858 -0.32040289 2.6490002 -3.0223021e+38
0.18778573 -0.31798384 2.6290002 -3.3826484e+38
0.19132668 -0.31556478 2.6090002 nan
0.1962962 -0.31556478 2.6090002 nan
0.19972287 -0.31314573 2.5890002 nan
0.20465431 -0.31314573 2.5890002 nan
0.20804763 -0.31084764 2.5700002 nan
0.21294287 -0.31084764 2.5700002 nan
0.21783811 -0.31084764 2.5700002 nan
0.22273335 -0.31084764 2.5700002 nan
0.22762859 -0.31084764 2.5700002 nan
0.23080477 -0.30854955 2.5510001 nan
0.23566383 -0.30854955 2.5510001 nan
0.23703431 -0.30407432 2.5140002 nan
-0.24521621 -0.34440479 2.8930001 nan
-0.23771715 -0.34154764 2.8690002 nan
-0.23225239 -0.34154764 2.8690002 nan
-0.22678763 -0.34154764 2.8690002 nan
-0.22132286 -0.34154764 2.8690002 nan
-0.21585812 -0.34154764 2.8690002 nan
-0.21039335 -0.34154764 2.8690002 nan
-0.20492859 -0.34154764 2.8690002 nan
-0.19946383 -0.34154764 2.8690002 nan
-0.19399907 -0.34154764 2.8690002 nan
-0.1885343 -0.34154764 2.8690002 -3.274594e+38
-0.18306954 -0.34154764 2.8690002 -3.0483113e+38
-0.17760478 -0.34154764 2.8690002 -2.835217e+38
-0.17070001 -0.33869049 2.845 -2.6350515e+38
-0.16667525 -0.34154764 2.8690002 -2.4350452e+38
-0.15856953 -0.3359524 2.822 -2.2616753e+38
-0.15319429 -0.3359524 2.822 -2.0892928e+38
-0.14546192 -0.33059525 2.7770002 -2.5951799e+38
-0.14017239 -0.33059525 2.7770002 -3.0989826e+38
-0.13488287 -0.33059525 2.7770002 -2.9273192e+38
-0.12959334 -0.33059525 2.7770002 -2.7529144e+38
-0.1232743 -0.32785717 2.7540002 -2.4881117e+38
-0.11802858 -0.32785717 2.7540002 -2.2361298e+38
-0.11278287 -0.32785717 2.7540002 -2.3160394e+38
-0.10671715 -0.32535717 2.733 -2.3824485e+38
-0.10151143 -0.32535717 2.733 -2.369052e+38
-0.09553048 -0.32273811 2.7110002 -2.3689477e+38
-0.090366669 -0.32273811 2.7110002 -2.3423628e+38
-0.084542863 -0.32023811 2.6900001 -2.3157263e+38
-0.079419054 -0.32023811 2.6900001 -2.3156743e+38
-0.074295245 -0.32023811 2.6900001 -2.315622e+38
-0.069171436 -0.32023811 2.6900001 -2.3023293e+38
-0.06404762 -0.32023811 2.6900001 -2.2889847e+38
-0.058923814 -0.32023811 2.6900001 -2.2756399e+38
-0.053800002 -0.32023811 2.6900001 -2.2490042e+38
-0.048296195 -0.31773812 2.6690001 -2.2357645e+38
-0.043212384 -0.31773812 2.6690001 -2.2224205e+38
-0.038128573 -0.31773812 2.6690001 -2.1958359e+38
-0.033044763 -0.31773812 2.6690001 -2.1824913e+38
-0.027960954 -0.31773812 2.6690001 -2.1824907e+38
-0.022877144 -0.31773812 2.6690001 -2.1824382e+38
-0.017793335 -0.31773812 2.6690001 -2.1824376e+38
-0.012709524 -0.31773812 2.6690001 -2.1956781e+38
-0.0075685717 -0.31535718 2.6490002 -2.182438e+38
-0.0025228574 -0.31535718 2.6490002 -2.1825416e+38
0.0025228574 -0.31535718 2.6490002 -2.1824374e+38
0.0076257149 -0.31773812 2.6690001 -2.1956779e+38
0.012709524 -0.31773812 2.6690001 -2.1957299e+38
0.017793335 -0.31773812 2.6690001 -2.1957297e+38
0.022705715 -0.31535718 2.6490002 -2.1956773e+38
0.027751431 -0.31535718 2.6490002 -2.2089177e+38
0.032797147 -0.31535718 2.6490002 -2.22221e+38
0.037842859 -0.31535718 2.6490002 -2.2355024e+38
0.043212384 -0.31773812 2.6690001 -2.2221582e+38
0.048296195 -0.31773812 2.6690001 -2.2222104e+38
0.053380005 -0.31773812 2.6690001 -2.2089181e+38
0.058463812 -0.31773812 2.6690001 -2.1955743e+38
0.06307143 -0.31535718 2.6490002 -2.2221593e+38
0.068117149 -0.31535718 2.6490002 -2.2354521e+38
0.073162861 -0.31535718 2.6490002 -2.2221603e+38
0.0776181 -0.31297621 2.6290002 -2.2221603e+38
0.082625717 -0.31297621 2.6290002 -2.222212e+38
0.087633342 -0.31297621 2.6290002 -2.2222637e+38
0.092640959 -0.31297621 2.6290002 -2.2356077e+38
0.097648576 -0.31297621 2.6290002 -2.2488996e+38
0.1026562 -0.31297621 2.6290002 -2.248899e+38
0.10766382 -0.31297621 2.6290002 -2.2488994e+38
0.11267143 -0.31297621 2.6290002 -2.2489517e+38
0.11767905 -0.31297621 2.6290002 -2.2622967e+38
0.12362001 -0.31535718 2.6490002 -2.2756415e+38
0.12866572 -0.31535718 2.6490002 -2.2889863e+38
0.13472097 -0.31773812 2.6690001 -2.3156232e+38
0.13980477 -0.31773812 2.6690001 -2.3422082e+38
0.14488858 -0.31773812 2.6690001 -2.3688449e+38
0.14997239 -0.31773812 2.6690001 -2.3955337e+38
0.1562762 -0.32023811 2.6900001 -2.4221704e+38
0.16140001 -0.32023811 2.6900001 -2.4490158e+38
0.16652381 -0.32023811 2.6900001 -2.5023417e+38
0.17164762 -0.32023811 2.6900001 -2.5689094e+38
0.17677145 -0.32023811 2.6900001 -2.5556193e+38
0.18047525 -0.31773812 2.6690001 -2.542586e+38
0.18416858 -0.31535718 2.6490002 -3.062438e+38
0.18778573 -0.31297621 2.6290002 nan
0.19132668 -0.31059524 2.6090002 nan
0.1962962 -0.31059524 2.6090002 nan
0.19972287 -0.30821431 2.5890002 nan
0.20465431 -0.30821431 2.5890002 nan
0.20804763 -0.3059524 2.5700002 nan
0.21294287 -0.3059524 2.5700002 nan
0.21783811 -0.3059524 2.5700002 nan
0.22273335 -0.3059524 2.5700002 nan
0.22762859 -0.3059524 2.5700002 nan
0.23080477 -0.30369049 2.5510001 nan
0.23390859 -0.30142859 2.5320001 nan
0.23703431 -0.29928574 2.5140002 nan
-0.24521621 -0.33889431 2.8930001 nan
-0.23771715 -0.33608288 2.8690002 nan
-0.23225239 -0.33608288 2.8690002 nan
-0.22678763 -0.33608288 2.8690002 nan
-0.22132286 -0.33608288 2.8690002 nan
-0.21585812 -0.33608288 2.8690002 nan
-0.21039335 -0.33608288 2.8690002 nan
-0.20492859 -0.33608288 2.8690002 nan
-0.19946383 -0.33608288 2.8690002 nan
-0.19399907 -0.33608288 2.8690002 nan
-0.1885343 -0.33608288 2.8690002 nan
-0.18306954 -0.33608288 2.8690002 -3.3816046e+38
-0.17760478 -0.33608288 2.8690002 -3.1681463e+38
-0.17070001 -0.33327144 2.845 -2.7951288e+38
-0.16528097 -0.33327144 2.845 -2.4211256e+38
-0.15856953 -0.33057716 2.822 -2.0736032e+38
-0.15194573 -0.32788289 2.799 -1.7171636e+38
-0.14546192 -0.32530573 2.7770002 -2.7964979e+38
-0.14017239 -0.32530573 2.7770002 nan
-0.13488287 -0.32530573 2.7770002 nan
-0.12959334 -0.32530573 2.7770002 -3.1280635e+38
-0.12430382 -0.32530573 2.7770002 -2.5808918e+38
-0.11802858 -0.32261145 2.7540002 -2.0363272e+38
-0.11278287 -0.32261145 2.7540002 -2.1966687e+38
-0.10753715 -0.32261145 2.7540002 -2.3559161e+38
-0.10151143 -0.32015145 2.733 -2.355812e+38
-0.09553048 -0.31757429 2.7110002 -2.3424672e+38
-0.090366669 -0.31757429 2.7110002 -2.3291745e+38
-0.084542863 -0.31511432 2.6900001 -2.3157782e+38
-0.079419054 -0.31511432 2.6900001 -2.3157263e+38
-0.074295245 -0.31511432 2.6900001 -2.3023819e+38
-0.069171436 -0.31511432 2.6900001 -2.3023817e+38
-0.06404762 -0.31511432 2.6900001 -2.2890371e+38
-0.058923814 -0.31511432 2.6900001 -2.2756926e+38
-0.053800002 -0.31511432 2.6900001 -2.2491083e+38
-0.048296195 -0.31265432 2.6690001 -2.2490568e+38
-0.043212384 -0.31265432 2.6690001 -2.2357647e+38
-0.038128573 -0.31265432 2.6690001 -2.2091803e+38
-0.033044763 -0.31265432 2.6690001 -2.1825432e+38
-0.027960954 -0.31265432 2.6690001 -2.1824907e+38
-0.022877144 -0.31265432 2.6690001 -2.1691978e+38
-0.017793335 -0.31265432 2.6690001 -2.1825414e+38
-0.012709524 -0.31265432 2.6690001 -2.1957301e+38
-0.0076257149 -0.31265432 2.6690001 -2.2090223e+38
-0.002541905 -0.31265432 2.6690001 -2.2090223e+38
0.002541905 -0.31265432 2.6690001 -2.2089706e+38
0.0076257149 -0.31265432 2.6690001 -2.2090223e+38
0.012709524 -0.31265432 2.6690001 -2.2090743e+38
0.017793335 -0.31265432 2.6690001 -2.2090221e+38
0.022705715 -0.31031144 2.6490002 -2.2222623e+38
0.027751431 -0.31031144 2.6490002 -2.2222623e+38
0.033044763 -0.31265432 2.6690001 -2.2355026e+38
0.037842859 -0.31031144 2.6490002 -2.2355026e+38
0.043212384 -0.31265432 2.6690001 -2.2221586e+38
0.048296195 -0.31265432 2.6690001 -2.1955739e+38
0.053380005 -0.31265432 2.6690001 -2.195522e+38
0.058463812 -0.31265432 2.6690001 -2.195522e+38
0.063547626 -0.31265432 2.6690001 -2.2088142e+38
0.068117149 -0.31031144 2.6490002 -2.2088151e+38
0.073162861 -0.31031144 2.6490002 -2.2088159e+38
0.078208573 -0.31031144 2.6490002 -2.2088157e+38
0.082625717 -0.30796859 2.6290002 -2.2221597e+38
0.087633342 -0.30796859 2.6290002 -2.2222635e+38
0.092640959 -0.30796859 2.6290002 -2.2222633e+38
0.097648576 -0.30796859 2.6290002 -2.2223148e+38
0.1026562 -0.30796859 2.6290002 -2.2356069e+38
0.10766382 -0.30796859 2.6290002 -2.2488996e+38
0.11267143 -0.30796859 2.6290002 -2.2621923e+38
0.11767905 -0.30796859 2.6290002 -2.275589e+38
0.12362001 -0.31031144 2.6490002 -2.2889336e+38
0.12866572 -0.31031144 2.6490002 -2.3022782e+38
0.13371144 -0.31031144 2.6490002 -2.3288113e+38
0.13875715 -0.31031144 2.6490002 -2.3422078e+38
0.14380287 -0.31031144 2.6490002 -2.3688449e+38
0.14997239 -0.31265432 2.6690001 -2.3821893e+38
0.15505619 -0.31265432 2.6690001 -2.4220665e+38
0.16140001 -0.31511432 2.6900001 -2.4489634e+38
0.16652381 -0.31511432 2.6900001 -2.5023411e+38
0.17030764 -0.31265432 2.6690001 -2.5555106e+38
0.17539144 -0.31265432 2.6690001 -2.4888938e+38
0.18047525 -0.31265432 2.6690001 -2.4235257e+38
0.18416858 -0.31031144 2.6490002 -3.1169078e+38
0.18778573 -0.30796859 2.6290002 nan
0.19132668 -0.30562574 2.6090002 nan
0.19479144 -0.30328289 2.5890002 nan
0.19825716 -0.30105716 2.5700002 nan
0.20315239 -0.30105716 2.5700002 nan
0.20804763 -0.30105716 2.5700002 nan
0.21294287 -0.30105716 2.5700002 nan
0.21783811 -0.30105716 2.5700002 nan
0.22273335 -0.30105716 2.5700002 nan
0.22762859 -0.30105716 2.5700002 nan
0.23080477 -0.29883146 2.5510001 nan
0.23566383 -0.29883146 2.5510001 nan
0.23703431 -0.29449716 2.5140002 nan
0.24009144 -0.29238859 2.4960001 nan
-0.24318191 -0.33061811 2.8690002 nan
-0.23771715 -0.33061811 2.8690002 nan
-0.23225239 -0.33061811 2.8690002 nan
-0.22678763 -0.33061811 2.8690002 nan
-0.22132286 -0.33061811 2.8690002 nan
-0.21585812 -0.33061811 2.8690002 nan
-0.21039335 -0.33061811 2.8690002 nan
-0.20492859 -0.33061811 2.8690002 nan
-0.19946383 -0.33061811 2.8690002 nan
-0.19399907 -0.33061811 2.8690002 nan
-0.1885343 -0.33061811 2.8690002 nan
-0.18153811 -0.3278524 2.845 -3.328643e+38
-0.17611906 -0.3278524 2.845 -3.1289957e+38
-0.17070001 -0.3278524 2.845 -2.6750296e+38
-0.16528097 -0.3278524 2.845 -2.2212179e+38
-0.15604097 -0.32001621 2.7770002 -2.808358e+38
-0.15075144 -0.32001621 2.7770002 nan
-0.14546192 -0.32001621 2.7770002 nan
-0.14017239 -0.32001621 2.7770002 nan
-0.13488287 -0.32001621 2.7770002 nan
-0.12959334 -0.32001621 2.7770002 nan
-0.12430382 -0.32001621 2.7770002 -2.8609061e+38
-0.11802858 -0.31736574 2.7540002 -1.8893302e+38
-0.11278287 -0.31736574 2.7540002 -2.12974e+38
-0.10753715 -0.31736574 2.7540002 -2.3824489e+38
-0.10151143 -0.31494573 2.733 -2.3691564e+38
-0.09553048 -0.3124105 2.7110002 -2.369052e+38
-0.090366669 -0.3124105 2.7110002 -2.3424668e+38
-0.085202865 -0.3124105 2.7110002 -2.3291224e+38
-0.079419054 -0.3099905 2.6900001 -2.315778e+38
-0.074295245 -0.3099905 2.6900001 -2.3023819e+38
-0.069171436 -0.3099905 2.6900001 -2.3023819e+38
-0.06404762 -0.3099905 2.6900001 -2.3023299e+38
-0.058923814 -0.3099905 2.6900001 -2.2890377e+38
-0.053800002 -0.3099905 2.6900001 -2.2757971e+38
-0.048296195 -0.30757049 2.6690001 -2.2624008e+38
-0.043212384 -0.30757049 2.6690001 -2.249057e+38
-0.038128573 -0.30757049 2.6690001 -2.2357649e+38
-0.033044763 -0.30757049 2.6690001 -2.2091278e+38
-0.027960954 -0.30757049 2.6690001 -2.2090751e+38
-0.022877144 -0.30757049 2.6690001 -2.2090227e+38
-0.017793335 -0.30757049 2.6690001 -2.2090221e+38
-0.012709524 -0.30757049 2.6690001 -2.2090221e+38
-0.0076257149 -0.30757049 2.6690001 -2.2223144e+38
-0.002541905 -0.30757049 2.6690001 -2.2356071e+38
0.002541905 -0.30757049 2.6690001 -2.2356075e+38
0.0076257149 -0.30757049 2.6690001 -2.2355554e+38
0.012709524 -0.30757049 2.6690001 -2.235555e+38
0.017793335 -0.30757049 2.6690001 -2.235555e+38
0.022877144 -0.30757049 2.6690001 -2.235555e+38
0.027960954 -0.30757049 2.6690001 -2.2222627e+38
0.033044763 -0.30757049 2.6690001 -2.2222106e+38
0.037842859 -0.30526572 2.6490002 -2.2221588e+38
0.043212384 -0.30757049 2.6690001 -2.2088668e+38
0.04793429 -0.30526572 2.6490002 -2.1955222e+38
0.053380005 -0.30757049 2.6690001 -2.1955218e+38
0.058463812 -0.30757049 2.6690001 -2.1955216e+38
0.06307143 -0.30526572 2.6490002 -2.1955211e+38
0.068117149 -0.30526572 2.6490002 -2.1955222e+38
0.073162861 -0.30526572 2.6490002 -2.1955232e+38
0.0776181 -0.30296096 2.6290002 -2.1954191e+38
0.082625717 -0.30296096 2.6290002 -2.2089189e+38
0.087633342 -0.30296096 2.6290002 -2.2222631e+38
0.092640959 -0.30296096 2.6290002 -2.222315e+38
0.097648576 -0.30296096 2.6290002 -2.235659e+38
0.1026562 -0.30296096 2.6290002 -2.2356588e+38
0.10766382 -0.30296096 2.6290002 -2.2489517e+38
0.11267143 -0.30296096 2.6290002 -2.2622963e+38
0.11767905 -0.30296096 2.6290002 -2.275589e+38
0.12268668 -0.30296096 2.6290002 -2.2889334e+38
0.12866572 -0.30526572 2.6490002 -2.3022778e+38
0.13371144 -0.30526572 2.6490002 -2.3155703e+38
0.13875715 -0.30526572 2.6490002 -2.3422595e+38
0.14380287 -0.30526572 2.6490002 -2.3555524e+38
0.14884858 -0.30526572 2.6490002 -2.3821893e+38
0.15505619 -0.30757049 2.6690001 -2.40893e+38
0.16014001 -0.30757049 2.6690001 -2.4490671e+38
0.16522382 -0.30757049 2.6690001 -2.5022885e+38
0.17030764 -0.30757049 2.6690001 -2.5687485e+38
0.17407715 -0.30526572 2.6490002 -2.5156816e+38
0.17912287 -0.30526572 2.6490002 -2.4760707e+38
0.18277811 -0.30296096 2.6290002 -3.1834755e+38
0.18778573 -0.30296096 2.6290002 nan
0.19132668 -0.3006562 2.6090002 nan
0.19479144 -0.29835144 2.5890002 nan
0.19825716 -0.29616192 2.5700002 nan
0.20315239 -0.29616192 2.5700002 nan
0.20804763 -0.29616192 2.5700002 nan
0.21294287 -0.29616192 2.5700002 nan
0.21783811 -0.29616192 2.5700002 nan
0.22273335 -0.29616192 2.5700002 nan
0.22594573 -0.2939724 2.5510001 nan
0.23080477 -0.2939724 2.5510001 nan
0.23566383 -0.2939724 2.5510001 nan
0.23873144 -0.29178289 2.5320001 nan
0.24009144 -0.28763431 2.4960001 nan
-0.24318191 -0.32515335 2.8690002 nan
-0.23771715 -0.32515335 2.8690002 nan
-0.23225239 -0.32515335 2.8690002 nan
-0.22678763 -0.32515335 2.8690002 nan
-0.22132286 -0.32515335 2.8690002 nan
-0.21585812 -0.32515335 2.8690002 nan
-0.21039335 -0.32515335 2.8690002 nan
-0.20492859 -0.32515335 2.8690002 nan
-0.19946383 -0.32515335 2.8690002 nan
-0.19399907 -0.32515335 2.8690002 nan
-0.1885343 -0.32515335 2.8690002 nan
-0.18153811 -0.32243335 2.845 -3.2882487e+38
-0.17611906 -0.32243335 2.845 -3.0749449e+38
-0.17070001 -0.32243335 2.845 -2.5413804e+38
-0.15194573 -0.31722003 2.799 nan
-0.1466143 -0.31722003 2.799 nan
-0.14128287 -0.31722003 2.799 nan
-0.13595144 -0.31722003 2.799 nan
-0.12959334 -0.31472668 2.7770002 nan
-0.12430382 -0.31472668 2.7770002 -3.123843e+38
-0.11802858 -0.31212002 2.7540002 -1.7294068e+38
-0.11278287 -0.31212002 2.7540002 -2.0770901e+38
-0.10753715 -0.31212002 2.7540002 -2.4092414e+38
-0.10151143 -0.30974001 2.733 -2.3959491e+38
-0.09553048 -0.30724669 2.7110002 -2.3825006e+38
-0.090366669 -0.30724669 2.7110002 -2.369156e+38
-0.085202865 -0.30724669 2.7110002 -2.3424672e+38
-0.079419054 -0.3048667 2.6900001 -2.3290707e+38
-0.074295245 -0.3048667 2.6900001 -2.3024342e+38
-0.069171436 -0.3048667 2.6900001 -2.3024342e+38
-0.06404762 -0.3048667 2.6900001 -2.3023821e+38
-0.058923814 -0.3048667 2.6900001 -2.3023819e+38
-0.053800002 -0.3048667 2.6900001 -2.2890375e+38
-0.048676193 -0.3048667 2.6900001 -2.2757452e+38
-0.043212384 -0.30248669 2.6690001 -2.262401e+38
-0.038128573 -0.30248669 2.6690001 -2.2490051e+38
-0.033044763 -0.30248669 2.6690001 -2.2357124e+38
-0.027960954 -0.30248669 2.6690001 -2.2357118e+38
-0.022877144 -0.30248669 2.6690001 -2.2356075e+38
-0.017793335 -0.30248669 2.6690001 -2.235555e+38
-0.012709524 -0.30248669 2.6690001 -2.2223144e+38
-0.0076257149 -0.30248669 2.6690001 -2.2356586e+38
-0.002541905 -0.30248669 2.6690001 -2.2488992e+38
0.002541905 -0.30248669 2.6690001 -2.2488996e+38
0.0076257149 -0.30248669 2.6690001 -2.2488477e+38
0.012709524 -0.30248669 2.6690001 -2.262088e+38
0.017793335 -0.30248669 2.6690001 -2.2620878e+38
