# .PCD v0.7 - Point Cloud Data file format
VERSION 0.7
FIELDS x y z rgb
SIZE 4 4 4 4
TYPE F F F F
COUNT 1 1 1 1
WIDTH 1070
HEIGHT 1
VIEWPOINT 0 0 0 1 0 0 0
POINTS 1070
DATA ascii
3.1772985 -1.3832687 1.1458988 -2.610665e+38
3.1513131 -1.3774893 1.1467159 -2.5974248e+38
3.151299 -1.3831408 1.1467159 -2.5841331e+38
3.1512849 -1.3887922 1.1467159 -2.6240106e+38
3.1512709 -1.3944436 1.1467159 -2.6507513e+38
3.1262846 -1.3888659 1.1475016 -2.6774403e+38
3.1262708 -1.3944697 1.1475016 -2.704077e+38
3.1262567 -1.4000735 1.1475016 -2.7042851e+38
3.1262426 -1.4056772 1.1475016 -2.6913563e+38
3.1262286 -1.411281 1.1475016 -2.7448369e+38
3.1262147 -1.4168848 1.1475016 -2.7980051e+38
3.1511719 -1.4340035 1.1467159 -2.9308749e+38
3.1511579 -1.4396549 1.1467159 -3.0636918e+38
3.1511436 -1.4453062 1.1467159 -3.26297e+38
3.1511295 -1.4509577 1.1467159 nan
3.1511154 -1.4566091 1.1467159 nan
3.1511014 -1.4622605 1.1467159 nan
3.1261165 -1.4561114 1.1475016 nan
3.1261027 -1.4617152 1.1475016 -3.1955174e+38
3.1011181 -1.4554232 1.1482873 -3.0763069e+38
3.0771327 -1.4495137 1.1490417 -2.9564691e+38
3.0062039 -1.4209696 1.151273 -2.6236435e+38
2.9832182 -1.4152694 1.1519959 -2.2912854e+38
2.9832048 -1.4206008 1.1519959 -2.3576954e+38
2.9831915 -1.4259322 1.1519959 -2.4244169e+38
2.961205 -1.4205439 1.1526873 -2.5038075e+38
2.9611919 -1.4258335 1.1526873 -2.570737e+38
2.9611785 -1.431123 1.1526873 -2.6104068e+38
2.9611654 -1.4364125 1.1526873 -2.6373035e+38
2.9381804 -1.4303197 1.1534102 -2.6770253e+38
2.9381673 -1.4355654 1.1534102 -2.7172661e+38
2.9381542 -1.4408109 1.1534102 -2.6775456e+38
2.9171672 -1.4355444 1.1540701 -2.6378247e+38
2.9171541 -1.44075 1.1540701 -2.7173709e+38
2.917141 -1.4459556 1.1540701 -2.7840915e+38
2.9171281 -1.4511614 1.1540701 -2.7972278e+38
2.917115 -1.4563671 1.1540701 -2.7977475e+38
2.9171021 -1.4615728 1.1540701 -2.8377805e+38
2.917089 -1.4667785 1.1540701 -2.8779699e+38
2.9170761 -1.4719843 1.1540701 -2.9580361e+38
2.917063 -1.4771899 1.1540701 -3.0379464e+38
2.9170499 -1.4823955 1.1540701 -3.237695e+38
2.917037 -1.4876013 1.1540701 nan
2.9170239 -1.492807 1.1540701 nan
2.917011 -1.4980127 1.1540701 nan
2.9169979 -1.5032184 1.1540701 nan
2.916985 -1.5084242 1.1540701 nan
2.9169719 -1.5136298 1.1540701 nan
2.9169588 -1.5188354 1.1540701 nan
2.9169459 -1.5240412 1.1540701 nan
3.1773698 -1.354764 1.1401978 -2.6101443e+38
3.1773555 -1.360465 1.1401978 -2.6634181e+38
3.2033134 -1.377448 1.1393311 -2.6369382e+38
3.203299 -1.3831984 1.1393311 -2.6105615e+38
3.1773129 -1.3775678 1.1401978 -2.6106136e+38
3.1772985 -1.3832687 1.1401978 -2.6239061e+38
3.1513131 -1.3774893 1.1410645 -2.6105619e+38
3.151299 -1.3831408 1.1410645 -2.597322e+38
3.1512849 -1.3887922 1.1410645 -2.6240627e+38
3.1262987 -1.383262 1.1418978 -2.664044e+38
3.1262846 -1.3888659 1.1418978 -2.6640444e+38
3.1262708 -1.3944697 1.1418978 -2.677285e+38
3.1262567 -1.4000735 1.1418978 -2.6910965e+38
3.1262426 -1.4056772 1.1418978 -2.7048041e+38
3.1262286 -1.411281 1.1418978 -2.7846097e+38
3.151186 -1.428352 1.1410645 -2.8643624e+38
3.1511719 -1.4340035 1.1410645 -2.9972323e+38
3.1511579 -1.4396549 1.1410645 -3.1432889e+38
3.1511436 -1.4453062 1.1410645 -3.329378e+38
3.1511295 -1.4509577 1.1410645 nan
3.1511154 -1.4566091 1.1410645 nan
3.1261306 -1.4505075 1.1418978 nan
3.1261165 -1.4561114 1.1418978 nan
3.1261027 -1.4617152 1.1418978 nan
3.1011181 -1.4554232 1.1427312 -3.3292265e+38
3.0771327 -1.4495137 1.1435311 -3.1294261e+38
3.0062039 -1.4209696 1.1458979 -2.7832027e+38
2.9832182 -1.4152694 1.1466645 -2.4506887e+38
2.9832048 -1.4206008 1.1466645 -2.4773775e+38
2.9831915 -1.4259322 1.1466645 -2.4905659e+38
2.961205 -1.4205439 1.1473978 -2.5308062e+38
2.9611919 -1.4258335 1.1473978 -2.5707358e+38
2.9611785 -1.431123 1.1473978 -2.6242173e+38
2.9611654 -1.4364125 1.1473978 -2.6903677e+38
2.9381804 -1.4303197 1.1481645 -2.7171087e+38
2.9381673 -1.4355654 1.1481645 -2.7568825e+38
2.9381542 -1.4408109 1.1481645 -2.7174218e+38
2.9171672 -1.4355444 1.1488645 -2.6907338e+38
2.9171541 -1.44075 1.1488645 -2.744111e+38
2.917141 -1.4459556 1.1488645 -2.8106765e+38
2.9171281 -1.4511614 1.1488645 -2.8107805e+38
2.917115 -1.4563671 1.1488645 -2.8243848e+38
2.9171021 -1.4615728 1.1488645 -2.8778139e+38
2.917089 -1.4667785 1.1488645 -2.9180029e+38
2.9170761 -1.4719843 1.1488645 -2.9714322e+38
2.917063 -1.4771899 1.1488645 -3.0249137e+38
2.9170499 -1.4823955 1.1488645 -3.1711815e+38
2.917037 -1.4876013 1.1488645 -3.3043617e+38
2.9170239 -1.492807 1.1488645 -3.2509827e+38
2.917011 -1.4980127 1.1488645 -3.1850833e+38
2.9169979 -1.5032184 1.1488645 -2.942542e+38
2.916985 -1.5084242 1.1488645 -2.7032799e+38
2.9169719 -1.5136298 1.1488645 -2.8220265e+38
2.9169588 -1.5188354 1.1488645 -2.9560393e+38
2.9169459 -1.5240412 1.1488645 -3.0085328e+38
3.1514261 -1.332278 1.1354131 -3.2093832e+38
3.151412 -1.3379295 1.1354131 -2.6239021e+38
3.1773698 -1.354764 1.1344968 -2.6633138e+38
3.1773555 -1.360465 1.1344968 -2.703347e+38
3.1773415 -1.3661659 1.1344968 -2.6635229e+38
3.1773272 -1.3718668 1.1344968 -2.6237499e+38
3.1773129 -1.3775678 1.1344968 -2.6237502e+38
3.1513274 -1.3718379 1.1354131 -2.6236984e+38
3.1513131 -1.3774893 1.1354131 -2.6236467e+38
3.151299 -1.3831408 1.1354131 -2.6106145e+38
3.1512849 -1.3887922 1.1354131 -2.6374073e+38
3.1262987 -1.383262 1.136294 -2.6640961e+38
3.1262846 -1.3888659 1.136294 -2.6507523e+38
3.1262708 -1.3944697 1.136294 -2.6377716e+38
3.1262567 -1.4000735 1.136294 -2.6780121e+38
3.1512144 -1.4170492 1.1354131 -2.7180447e+38
3.1512001 -1.4227006 1.1354131 -2.8243827e+38
3.151186 -1.428352 1.1354131 -2.9307721e+38
3.1511719 -1.4340035 1.1354131 -3.0768823e+38
3.1511579 -1.4396549 1.1354131 -3.2098031e+38
3.1511436 -1.4453062 1.1354131 -3.3957891e+38
3.1511295 -1.4509577 1.1354131 nan
3.1511154 -1.4566091 1.1354131 nan
3.1261306 -1.4505075 1.136294 nan
3.1261165 -1.4561114 1.136294 nan
3.1011319 -1.449867 1.137175 nan
3.1011181 -1.4554232 1.137175 nan
3.0771327 -1.4495137 1.1380206 -3.2891397e+38
3.0062039 -1.4209696 1.1405226 -2.9555868e+38
2.9832182 -1.4152694 1.1413331 -2.6100922e+38
2.9832048 -1.4206008 1.1413331 -2.583924e+38
2.9831915 -1.4259322 1.1413331 -2.557651e+38
2.961205 -1.4205439 1.1421083 -2.5713589e+38
2.9611919 -1.4258335 1.1421083 -2.5715154e+38
2.9611785 -1.431123 1.1421083 -2.6519971e+38
2.9381936 -1.425074 1.1429188 -2.7310242e+38
2.9381804 -1.4303197 1.1429188 -2.7574536e+38
2.9381673 -1.4355654 1.1429188 -2.7840907e+38
2.9381542 -1.4408109 1.1429188 -2.7710067e+38
2.9381411 -1.4460567 1.1429188 -2.7443705e+38
2.9171541 -1.44075 1.1436588 -2.7841958e+38
2.917141 -1.4459556 1.1436588 -2.824229e+38
2.9171281 -1.4511614 1.1436588 -2.8374698e+38
2.917115 -1.4563671 1.1436588 -2.8510738e+38
2.9171021 -1.4615728 1.1436588 -2.9044508e+38
2.917089 -1.4667785 1.1436588 -2.9579319e+38
2.9170761 -1.4719843 1.1436588 -2.9847764e+38
2.917063 -1.4771899 1.1436588 -3.0113612e+38
2.9170499 -1.4823955 1.1436588 -3.1044593e+38
2.917037 -1.4876013 1.1436588 -3.1838986e+38
2.9170239 -1.492807 1.1436588 -2.9711154e+38
2.917011 -1.4980127 1.1436588 -2.7570263e+38
2.9169979 -1.5032184 1.1436588 -2.3011319e+38
2.916985 -1.5084242 1.1436588 -1.8494548e+38
2.9169719 -1.5136298 1.1436588 -2.0742303e+38
2.8949883 -1.5071521 1.144434 -2.30186e+38
2.8949754 -1.5123159 1.144434 -2.3943863e+38
3.1514544 -1.3209753 1.1297616 nan
3.1514404 -1.3266265 1.1297616 nan
3.1514261 -1.332278 1.1297616 -3.2893965e+38
3.1773841 -1.349063 1.1287959 -2.5575966e+38
3.1773698 -1.354764 1.1287959 -2.6371449e+38
3.2033277 -1.3716974 1.1278301 -2.7168472e+38
3.1773415 -1.3661659 1.1287959 -2.6901594e+38
3.203299 -1.3831984 1.1278301 -2.6502828e+38
3.1773129 -1.3775678 1.1287959 -2.6502828e+38
3.1772985 -1.3832687 1.1287959 -2.6634195e+38
3.1513131 -1.3774893 1.1297616 -2.650387e+38
3.151299 -1.3831408 1.1297616 -2.6505953e+38
3.1512849 -1.3887922 1.1297616 -2.6509075e+38
3.1262987 -1.383262 1.1306902 -2.6643559e+38
3.1262846 -1.3888659 1.1306902 -2.6511158e+38
3.1262708 -1.3944697 1.1306902 -2.6512718e+38
3.1262567 -1.4000735 1.1306902 -2.7046488e+38
3.1512144 -1.4170492 1.1297616 -2.7579215e+38
3.1512001 -1.4227006 1.1297616 -2.8509673e+38
3.151186 -1.428352 1.1297616 -2.9440644e+38
3.1511719 -1.4340035 1.1297616 -3.0769344e+38
3.1511579 -1.4396549 1.1297616 -3.2232002e+38
3.1511436 -1.4453062 1.1297616 -3.3961023e+38
3.1511295 -1.4509577 1.1297616 nan
3.1261446 -1.4449037 1.1306902 nan
3.1261306 -1.4505075 1.1306902 nan
3.1261165 -1.4561114 1.1306902 nan
3.1011319 -1.449867 1.1316187 nan
3.1011181 -1.4554232 1.1316187 nan
3.0531616 -1.4380481 1.1334016 nan
3.0062039 -1.4209696 1.1351473 -3.0224632e+38
3.0061903 -1.4263449 1.1351473 -2.5033388e+38
3.0061769 -1.4317201 1.1351473 -2.5441514e+38
2.9831915 -1.4259322 1.1360016 -2.5980477e+38
2.961205 -1.4205439 1.1368188 -2.5849633e+38
2.9611919 -1.4258335 1.1368188 -2.5716201e+38
2.9611785 -1.431123 1.1368188 -2.6383421e+38
2.9381936 -1.425074 1.137673 -2.7045443e+38
2.9381804 -1.4303197 1.137673 -2.7312331e+38
2.9381673 -1.4355654 1.137673 -2.75787e+38
2.9381542 -1.4408109 1.137673 -2.7580781e+38
2.9381411 -1.4460567 1.137673 -2.7713708e+38
2.9171541 -1.44075 1.138453 -2.7980075e+38
2.917141 -1.4459556 1.138453 -2.8245929e+38
2.9171281 -1.4511614 1.138453 -2.851334e+38
2.917115 -1.4563671 1.138453 -2.8911589e+38
2.9171021 -1.4615728 1.138453 -2.9446915e+38
2.917089 -1.4667785 1.138453 -3.011205e+38
2.9170761 -1.4719843 1.138453 -3.0378417e+38
2.917063 -1.4771899 1.138453 -3.0775624e+38
2.9170499 -1.4823955 1.138453 -3.1837964e+38
2.917037 -1.4876013 1.138453 -3.2892485e+38
2.9170239 -1.492807 1.138453 -3.1432893e+38
2.917011 -1.4980127 1.138453 -3.0094198e+38
2.9169979 -1.5032184 1.138453 -2.5812506e+38
2.916985 -1.5084242 1.138453 -2.1667005e+38
2.8950012 -1.5019882 1.1392702 -2.3276645e+38
2.8949883 -1.5071521 1.1392702 -2.5005676e+38
2.8949754 -1.5123159 1.1392702 -2.5405479e+38
3.2033708 -1.3544462 1.1220797 -3.3684257e+38
3.2033565 -1.3601966 1.1220797 -2.4909809e+38
3.2033422 -1.365947 1.1220797 -2.6107165e+38
3.2033277 -1.3716974 1.1220797 -2.7301916e+38
3.2033134 -1.377448 1.1220797 -2.7034517e+38
3.203299 -1.3831984 1.1220797 -2.6768673e+38
3.1773129 -1.3775678 1.1230949 -2.69016e+38
3.1772985 -1.3832687 1.1230949 -2.6902122e+38
3.1513131 -1.3774893 1.1241102 -2.6904201e+38
3.151299 -1.3831408 1.1241102 -2.677388e+38
3.1512849 -1.3887922 1.1241102 -2.6645117e+38
3.1262987 -1.383262 1.1250864 -2.6511677e+38
3.1262846 -1.3888659 1.1250864 -2.6645642e+38
3.1262708 -1.3944697 1.1250864 -2.6646683e+38
3.1512284 -1.4113978 1.1241102 -2.7312857e+38
3.1512144 -1.4170492 1.1241102 -2.7845065e+38
3.1512001 -1.4227006 1.1241102 -2.86426e+38
3.151186 -1.428352 1.1241102 -2.9440648e+38
3.1771419 -1.4459789 1.1230949 -3.0902273e+38
3.1511579 -1.4396549 1.1241102 -3.2233043e+38
3.1771133 -1.4573809 1.1230949 -3.3961544e+38
3.1770992 -1.4630818 1.1230949 nan
3.1511154 -1.4566091 1.1241102 nan
3.1511014 -1.4622605 1.1241102 nan
3.1261165 -1.4561114 1.1250864 nan
3.1261027 -1.4617152 1.1250864 nan
3.1011181 -1.4554232 1.1260626 nan
3.0771327 -1.4495137 1.1269997 nan
3.0062039 -1.4209696 1.1297721 -3.1022187e+38
3.0061903 -1.4263449 1.1297721 -2.3842808e+38
3.0061769 -1.4317201 1.1297721 -2.5178796e+38
2.9831915 -1.4259322 1.1306702 -2.6380821e+38
2.961205 -1.4205439 1.1315292 -2.5987774e+38
2.9611919 -1.4258335 1.1315292 -2.5586416e+38
2.9611785 -1.431123 1.1315292 -2.6252594e+38
2.9611654 -1.4364125 1.1315292 -2.6783766e+38
2.9381804 -1.4303197 1.1324273 -2.705013e+38
2.9381673 -1.4355654 1.1324273 -2.7317017e+38
2.9381542 -1.4408109 1.1324273 -2.758598e+38
2.9381411 -1.4460567 1.1324273 -2.7850789e+38
2.938128 -1.4513024 1.1324273 -2.798579e+38
2.917141 -1.4459556 1.1332474 -2.8118719e+38
2.9171281 -1.4511614 1.1332474 -2.8653013e+38
2.917115 -1.4563671 1.1332474 -2.9183668e+38
2.9171021 -1.4615728 1.1332474 -2.9984322e+38
2.917089 -1.4667785 1.1332474 -3.0645822e+38
2.9170761 -1.4719843 1.1332474 -3.1044593e+38
2.917063 -1.4771899 1.1332474 -3.1309917e+38
2.9170499 -1.4823955 1.1332474 -3.2639664e+38
2.917037 -1.4876013 1.1332474 -3.3965747e+38
2.9170239 -1.492807 1.1332474 -3.3299544e+38
2.917011 -1.4980127 1.1332474 -3.2487354e+38
2.9169979 -1.5032184 1.1332474 -2.8611188e+38
2.916985 -1.5084242 1.1332474 -2.4751766e+38
2.9169719 -1.5136298 1.1332474 -2.5956393e+38
2.8949883 -1.5071521 1.1341064 -2.7012505e+38
2.8949754 -1.5123159 1.1341064 -2.687802e+38
3.2033565 -1.3601966 1.1163292 -2.397469e+38
3.2033422 -1.365947 1.1163292 -2.5307555e+38
3.2033277 -1.3716974 1.1163292 -2.6769708e+38
3.2033134 -1.377448 1.1163292 -2.6503345e+38
3.203299 -1.3831984 1.1163292 -2.6370426e+38
3.1773129 -1.3775678 1.117394 -2.6502834e+38
3.1772985 -1.3832687 1.117394 -2.6635759e+38
3.1513131 -1.3774893 1.1184587 -2.6638357e+38
3.151299 -1.3831408 1.1184587 -2.6641998e+38
3.1512849 -1.3887922 1.1184587 -2.6510119e+38
3.1262987 -1.383262 1.1194825 -2.6511681e+38
3.1262846 -1.3888659 1.1194825 -2.6645644e+38
3.1262708 -1.3944697 1.1194825 -2.6913569e+38
3.1512284 -1.4113978 1.1184587 -2.7444743e+38
3.1512144 -1.4170492 1.1184587 -2.7977471e+38
3.1512001 -1.4227006 1.1184587 -2.8509679e+38
3.151186 -1.428352 1.1184587 -2.9041883e+38
3.1771419 -1.4459789 1.117394 -2.9839933e+38
3.1771276 -1.4516798 1.117394 -3.0639531e+38
3.1771133 -1.4573809 1.117394 -3.3162971e+38
3.1770992 -1.4630818 1.117394 nan
3.1511154 -1.4566091 1.1184587 nan
3.1511014 -1.4622605 1.1184587 nan
3.151087 -1.467912 1.1184587 nan
3.1261027 -1.4617152 1.1194825 nan
3.1260886 -1.467319 1.1194825 nan
3.0771327 -1.4495137 1.1214893 -3.3824987e+38
3.0062039 -1.4209696 1.1243968 -2.9695573e+38
2.9832182 -1.4152694 1.1253388 -2.5568225e+38
3.0061769 -1.4317201 1.1243968 -2.6242191e+38
2.9831915 -1.4259322 1.1253388 -2.691409e+38
2.961205 -1.4205439 1.1262398 -2.6914104e+38
2.9611919 -1.4258335 1.1262398 -2.7047549e+38
2.9611785 -1.431123 1.1262398 -2.7049627e+38
2.9611654 -1.4364125 1.1262398 -2.705222e+38
2.9381804 -1.4303197 1.1271816 -2.7317023e+38
2.9381673 -1.4355654 1.1271816 -2.7585466e+38
2.9381542 -1.4408109 1.1271816 -2.7850274e+38
2.9381411 -1.4460567 1.1271816 -2.8117679e+38
2.938128 -1.4513024 1.1271816 -2.8384044e+38
2.917141 -1.4459556 1.1280416 -2.8653528e+38
2.9171281 -1.4511614 1.1280416 -2.891782e+38
2.917115 -1.4563671 1.1280416 -2.9318669e+38
2.9171021 -1.4615728 1.1280416 -2.9848288e+38
2.917089 -1.4667785 1.1280416 -3.0379462e+38
2.9170761 -1.4719843 1.1280416 -3.0512384e+38
2.917063 -1.4771899 1.1280416 -3.0778753e+38
2.9170499 -1.4823955 1.1280416 -3.1444927e+38
2.917037 -1.4876013 1.1280416 -3.2113149e+38
2.9170239 -1.492807 1.1280416 -3.290391e+38
2.917011 -1.4980127 1.1280416 -3.3823877e+38
2.9169979 -1.5032184 1.1280416 -3.0881293e+38
2.916985 -1.5084242 1.1280416 -2.782303e+38
2.8950012 -1.5019882 1.1289426 -2.7952316e+38
2.874016 -1.4959995 1.1298026 -2.8215564e+38
2.8740032 -1.5011233 1.1298026 -2.7814716e+38
3.2033565 -1.3601966 1.1105788 -2.3048904e+38
3.2033422 -1.365947 1.1105788 -2.4644497e+38
3.2033277 -1.3716974 1.1105788 -2.6105092e+38
3.2033134 -1.377448 1.1105788 -2.6103536e+38
3.203299 -1.3831984 1.1105788 -2.5971137e+38
3.1773129 -1.3775678 1.111693 -2.623595e+38
3.1772985 -1.3832687 1.111693 -2.6369915e+38
3.1513131 -1.3774893 1.1128073 -2.6371996e+38
3.151299 -1.3831408 1.1128073 -2.6374079e+38
3.1512849 -1.3887922 1.1128073 -2.6508047e+38
3.1262987 -1.383262 1.1138787 -2.6510123e+38
3.1262846 -1.3888659 1.1138787 -2.6777008e+38
3.1512425 -1.4057463 1.1128073 -2.7043894e+38
3.1512284 -1.4113978 1.1128073 -2.7575066e+38
3.1512144 -1.4170492 1.1128073 -2.7976428e+38
3.1512001 -1.4227006 1.1128073 -2.8375716e+38
3.151186 -1.428352 1.1128073 -2.8642596e+38
3.1771419 -1.4459789 1.111693 -2.8909476e+38
3.1771276 -1.4516798 1.111693 -2.9042891e+38
3.1771133 -1.4573809 1.111693 -3.2232495e+38
3.1770992 -1.4630818 1.111693 nan
3.1511154 -1.4566091 1.1128073 -3.3940633e+38
3.1511014 -1.4622605 1.1128073 -3.2348679e+38
3.151087 -1.467912 1.1128073 -3.2472777e+38
3.1261027 -1.4617152 1.1138787 -3.2482679e+38
3.1260886 -1.467319 1.1138787 -3.1022639e+38
3.0531616 -1.4380481 1.1170074 -2.956364e+38
2.9832315 -1.4099379 1.1200073 -2.8367374e+38
2.9832182 -1.4152694 1.1200073 -2.7170038e+38
2.9832048 -1.4206008 1.1200073 -2.7307644e+38
2.9831915 -1.4259322 1.1200073 -2.7308695e+38
2.961205 -1.4205439 1.1209502 -2.7971765e+38
2.9611919 -1.4258335 1.1209502 -2.8507095e+38
2.9611785 -1.431123 1.1209502 -2.7979043e+38
2.9611654 -1.4364125 1.1209502 -2.7313909e+38
2.9381804 -1.4303197 1.1219358 -2.7579755e+38
2.9381673 -1.4355654 1.1219358 -2.784716e+38
2.9381542 -1.4408109 1.1219358 -2.8112487e+38
2.9381411 -1.4460567 1.1219358 -2.8247488e+38
2.9171541 -1.44075 1.1228359 -2.8779701e+38
2.917141 -1.4459556 1.1228359 -2.9179508e+38
2.9171281 -1.4511614 1.1228359 -2.9311911e+38
2.917115 -1.4563671 1.1228359 -2.9312434e+38
2.9171021 -1.4615728 1.1228359 -2.9711209e+38
2.8951175 -1.4555141 1.1237788 -2.9979131e+38
2.8951046 -1.4606779 1.1237788 -3.0112576e+38
2.917063 -1.4771899 1.1228359 -3.0113614e+38
2.8950787 -1.4710054 1.1237788 -3.0114652e+38
2.917037 -1.4876013 1.1228359 -3.011776e+38
2.9170239 -1.492807 1.1228359 -3.2643802e+38
2.89504 -1.4864968 1.1237788 nan
2.9169979 -1.5032184 1.1228359 -3.3000237e+38
2.8950143 -1.4968244 1.1237788 -3.0874006e+38
2.8950012 -1.5019882 1.1237788 -3.0079079e+38
2.874016 -1.4959995 1.1246787 -2.9279463e+38
2.8740032 -1.5011233 1.1246787 -2.8749328e+38
2.8530183 -1.4950147 1.1255788 -2.8217117e+38
3.2033422 -1.365947 1.1048282 -2.5708914e+38
3.2033277 -1.3716974 1.1048282 -2.6503858e+38
3.2033134 -1.377448 1.1048282 -2.6237495e+38
3.203299 -1.3831984 1.1048282 -2.6104579e+38
3.1773129 -1.3775678 1.1059921 -2.6102506e+38
3.1772985 -1.3832687 1.1059921 -2.6102514e+38
3.1513131 -1.3774893 1.1071559 -2.5972193e+38
3.151299 -1.3831408 1.1071559 -2.5974276e+38
3.1512849 -1.3887922 1.1071559 -2.6241165e+38
3.1512709 -1.3944436 1.1071559 -2.6508566e+38
3.1262846 -1.3888659 1.1082749 -2.6642525e+38
3.1512425 -1.4057463 1.1071559 -2.690889e+38
3.1512284 -1.4113978 1.1071559 -2.7309216e+38
3.1512144 -1.4170492 1.1071559 -2.7577658e+38
3.1512001 -1.4227006 1.1071559 -2.8110385e+38
3.151186 -1.428352 1.1071559 -2.8509671e+38
3.1511719 -1.4340035 1.1071559 -2.8908437e+38
3.1511579 -1.4396549 1.1071559 -2.9440613e+38
3.1771133 -1.4573809 1.1059921 -3.1434421e+38
3.1770992 -1.4630818 1.1059921 -3.3425082e+38
3.1511154 -1.4566091 1.1071559 -3.3149307e+38
3.1511014 -1.4622605 1.1071559 -3.3015357e+38
3.151087 -1.467912 1.1071559 -3.3277059e+38
3.1261027 -1.4617152 1.1082749 -3.354344e+38
3.1260886 -1.467319 1.1082749 -3.2084938e+38
3.0771327 -1.4495137 1.1104683 -3.0622323e+38
3.0062039 -1.4209696 1.1136464 -2.916386e+38
3.0061903 -1.4263449 1.1136464 -2.770276e+38
3.0061769 -1.4317201 1.1136464 -2.7439003e+38
2.9831915 -1.4259322 1.1146759 -2.7173168e+38
2.9831781 -1.4312637 1.1146759 -2.7572465e+38
2.9611919 -1.4258335 1.1156607 -2.7839358e+38
2.9611785 -1.431123 1.1156607 -2.7442153e+38
2.9611654 -1.4364125 1.1156607 -2.7176311e+38
2.9381804 -1.4303197 1.1166902 -2.7444238e+38
2.9381673 -1.4355654 1.1166902 -2.7845085e+38
2.9381542 -1.4408109 1.1166902 -2.8245411e+38
2.9381411 -1.4460567 1.1166902 -2.8644701e+38
2.938128 -1.4513024 1.1166902 -2.9309836e+38
2.917141 -1.4459556 1.1176302 -2.9839449e+38
2.9171281 -1.4511614 1.1176302 -2.9708599e+38
2.917115 -1.4563671 1.1176302 -2.9573086e+38
2.9171021 -1.4615728 1.1176302 -2.9577763e+38
2.8951175 -1.4555141 1.1186149 -2.9579323e+38
2.8951046 -1.4606779 1.1186149 -2.9846726e+38
2.8950915 -1.4658417 1.1186149 -3.0113608e+38
2.8950787 -1.4710054 1.1186149 -3.038049e+38
2.8950658 -1.4761692 1.1186149 -3.0649978e+38
2.8950529 -1.481333 1.1186149 -3.2644348e+38
2.89504 -1.4864968 1.1186149 nan
2.8950272 -1.4916606 1.1186149 -3.2876626e+38
2.8740416 -1.4857519 1.119555 -3.1263929e+38
2.8740287 -1.4908756 1.119555 -3.0473172e+38
2.874016 -1.4959995 1.119555 -2.9675114e+38
2.8530312 -1.4899309 1.120495 -2.9012573e+38
2.8530183 -1.4950147 1.120495 -2.8348992e+38
3.2033422 -1.365947 1.0990778 -2.6772294e+38
3.2033277 -1.3716974 1.0990778 -2.6770736e+38
3.2033134 -1.377448 1.0990778 -2.6502816e+38
3.203299 -1.3831984 1.0990778 -2.6102496e+38
3.1773129 -1.3775678 1.1002911 -2.5967504e+38
3.1772985 -1.3832687 1.1002911 -2.5703742e+38
3.1513131 -1.3774893 1.1015044 -2.5705303e+38
3.151299 -1.3831408 1.1015044 -2.5573942e+38
3.1512849 -1.3887922 1.1015044 -2.5973236e+38
3.1512709 -1.3944436 1.1015044 -2.637356e+38
3.1262846 -1.3888659 1.1026711 -2.6640442e+38
3.1512425 -1.4057463 1.1015044 -2.6774922e+38
3.1512284 -1.4113978 1.1015044 -2.7042326e+38
3.1512144 -1.4170492 1.1015044 -2.7177843e+38
3.1512001 -1.4227006 1.1015044 -2.7845053e+38
3.151186 -1.428352 1.1015044 -2.837518e+38
3.1511719 -1.4340035 1.1015044 -2.9039271e+38
3.1511579 -1.4396549 1.1015044 -2.9705418e+38
3.1771133 -1.4573809 1.1002911 -3.063845e+38
3.1511295 -1.4509577 1.1015044 -3.1428656e+38
3.1511154 -1.4566091 1.1015044 -3.2481593e+38
3.1511014 -1.4622605 1.1015044 -3.3546004e+38
3.1261165 -1.4561114 1.1026711 nan
3.1261027 -1.4617152 1.1026711 nan
3.1260886 -1.467319 1.1026711 -3.3018014e+38
3.1260746 -1.4729228 1.1026711 -3.1555912e+38
3.0062039 -1.4209696 1.1082711 -2.9963486e+38
3.0061903 -1.4263449 1.1082711 -2.8234976e+38
3.0061769 -1.4317201 1.1082711 -2.7704329e+38
2.9831915 -1.4259322 1.1093445 -2.7039724e+38
2.961205 -1.4205439 1.1103711 -2.7173174e+38
2.9611919 -1.4258335 1.1103711 -2.7173701e+38
2.9611785 -1.431123 1.1103711 -2.7039748e+38
2.9611654 -1.4364125 1.1103711 -2.6908389e+38
2.9381804 -1.4303197 1.1114445 -2.7441125e+38
2.9381673 -1.4355654 1.1114445 -2.7845089e+38
2.9381542 -1.4408109 1.1114445 -2.8511265e+38
2.9381411 -1.4460567 1.1114445 -2.9045554e+38
2.938128 -1.4513024 1.1114445 -2.9843095e+38
2.917141 -1.4459556 1.1124245 -3.0509263e+38
2.9171281 -1.4511614 1.1124245 -3.0243413e+38
2.917115 -1.4563671 1.1124245 -2.9845164e+38
2.9171021 -1.4615728 1.1124245 -2.9447955e+38
2.8951175 -1.4555141 1.1134511 -2.9049704e+38
2.8951046 -1.4606779 1.1134511 -2.9581915e+38
2.8950915 -1.4658417 1.1134511 -3.0113604e+38
2.8950787 -1.4710054 1.1134511 -3.0644257e+38
2.8950658 -1.4761692 1.1134511 -3.1047181e+38
2.8950529 -1.481333 1.1134511 -3.264693e+38
2.89504 -1.4864968 1.1134511 nan
2.8950272 -1.4916606 1.1134511 -3.2871967e+38
2.8740416 -1.4857519 1.1144311 -3.1536528e+38
2.8740287 -1.4908756 1.1144311 -3.0742129e+38
2.8530438 -1.4848469 1.1154112 -2.9942501e+38
2.8530312 -1.4899309 1.1154112 -2.9277356e+38
2.8530183 -1.4950147 1.1154112 -2.8479823e+38
3.2033422 -1.365947 1.0933273 -2.7038137e+38
3.2033277 -1.3716974 1.0933273 -2.6904174e+38
3.2033134 -1.377448 1.0933273 -2.6369366e+38
3.203299 -1.3831984 1.0933273 -2.583405e+38
3.2032847 -1.3889489 1.0933273 -2.5569772e+38
3.1772985 -1.3832687 1.0945902 -2.530445e+38
3.1772845 -1.3889697 1.0945902 -2.5173087e+38
3.151299 -1.3831408 1.0958531 -2.5174129e+38
3.1512849 -1.3887922 1.0958531 -2.5706863e+38
3.1262987 -1.383262 1.0970674 -2.610667e+38
3.1512566 -1.400095 1.0958531 -2.6240629e+38
3.1512425 -1.4057463 1.0958531 -2.6508032e+38
3.1512284 -1.4113978 1.0958531 -2.6642513e+38
3.1512144 -1.4170492 1.0958531 -2.6910953e+38
3.1512001 -1.4227006 1.0958531 -2.7575565e+38
3.151186 -1.428352 1.0958531 -2.8239134e+38
3.1511719 -1.4340035 1.0958531 -2.890374e+38
3.1511579 -1.4396549 1.0958531 -2.9702301e+38
3.1771133 -1.4573809 1.0945902 -3.0368978e+38
3.1770992 -1.4630818 1.0945902 -3.1030939e+38
3.1511154 -1.4566091 1.0958531 -3.2086474e+38
3.1511014 -1.4622605 1.0958531 -3.3015867e+38
3.151087 -1.467912 1.0958531 -3.3412008e+38
3.1770422 -1.4858855 1.0945902 -3.3677396e+38
3.1770279 -1.4915864 1.0945902 -3.2484784e+38
3.1770136 -1.4972874 1.0945902 -3.1290083e+38
2.9832315 -1.4099379 1.1040131 -2.9962457e+38
2.9832182 -1.4152694 1.1040131 -2.8632712e+38
2.9832048 -1.4206008 1.1040131 -2.7969656e+38
2.9612181 -1.4152544 1.1050816 -2.7305048e+38
2.961205 -1.4205439 1.1050816 -2.7306612e+38
2.9382198 -1.4145825 1.1061988 -2.7440062e+38
2.9611785 -1.431123 1.1050816 -2.7307147e+38
2.9381936 -1.425074 1.1061988 -2.7173194e+38
2.9381804 -1.4303197 1.1061988 -2.7577163e+38
2.9381673 -1.4355654 1.1061988 -2.7980612e+38
2.9381542 -1.4408109 1.1061988 -2.8381466e+38
2.9381411 -1.4460567 1.1061988 -2.8783873e+38
2.938128 -1.4513024 1.1061988 -2.9449527e+38
2.917141 -1.4459556 1.1072187 -3.0116733e+38
2.9171281 -1.4511614 1.1072187 -3.0248092e+38
2.917115 -1.4563671 1.1072187 -3.0381532e+38
2.9171021 -1.4615728 1.1072187 -2.9982241e+38
2.8951175 -1.4555141 1.1082873 -2.958347e+38
2.8951046 -1.4606779 1.1082873 -2.9980679e+38
2.8950915 -1.4658417 1.1082873 -3.0379447e+38
2.8950787 -1.4710054 1.1082873 -3.0512368e+38
2.8950658 -1.4761692 1.1082873 -3.0778731e+38
2.8950529 -1.481333 1.1082873 -3.2112628e+38
2.89504 -1.4864968 1.1082873 -3.343912e+38
2.8950272 -1.4916606 1.1082873 -3.1813789e+38
2.8740416 -1.4857519 1.1093073 -3.0204191e+38
2.8740287 -1.4908756 1.1093073 -3.0074915e+38
2.874016 -1.4959995 1.1093073 -2.9941449e+38
2.8530312 -1.4899309 1.1103274 -2.9542656e+38
2.8330452 -1.4843171 1.1112988 -2.9009941e+38
3.2303133 -1.3775601 1.0862141 -2.7438468e+38
3.2033277 -1.3716974 1.0875769 -2.690314e+38
3.2033134 -1.377448 1.0875769 -2.6235408e+38
3.203299 -1.3831984 1.0875769 -2.5437358e+38
3.2032847 -1.3889489 1.0875769 -2.5172038e+38
3.1772985 -1.3832687 1.0888892 -2.4773274e+38
3.1772845 -1.3889697 1.0888892 -2.4774316e+38
3.151299 -1.3831408 1.0902016 -2.4774838e+38
3.1512849 -1.3887922 1.0902016 -2.5306533e+38
3.1512709 -1.3944436 1.0902016 -2.5839262e+38
3.1512566 -1.400095 1.0902016 -2.5973224e+38
3.1512425 -1.4057463 1.0902016 -2.6107183e+38
3.1512284 -1.4113978 1.0902016 -2.6373546e+38
3.1512144 -1.4170492 1.0902016 -2.6643026e+38
3.1512001 -1.4227006 1.0902016 -2.7307119e+38
3.151186 -1.428352 1.0902016 -2.7970686e+38
3.1511719 -1.4340035 1.0902016 -2.8766657e+38
3.1511579 -1.4396549 1.0902016 -2.956833e+38
3.1771133 -1.4573809 1.0888892 -3.0104158e+38
3.1770992 -1.4630818 1.0888892 -3.0629562e+38
3.1511154 -1.4566091 1.0902016 -3.155114e+38
3.1770706 -1.4744837 1.0888892 -3.24821e+38
3.1770563 -1.4801846 1.0888892 -3.2745851e+38
3.1770422 -1.4858855 1.0888892 -3.2881433e+38
3.0061903 -1.4263449 1.0975207 -2.9032511e+38
2.9832048 -1.4206008 1.0986816 -2.8236017e+38
2.9831915 -1.4259322 1.0986816 -2.7439005e+38
2.961205 -1.4205439 1.0997921 -2.7572974e+38
2.9382198 -1.4145825 1.1009531 -2.7706425e+38
2.9611785 -1.431123 1.0997921 -2.757455e+38
2.9381936 -1.425074 1.1009531 -2.7310788e+38
2.9381804 -1.4303197 1.1009531 -2.7713199e+38
2.9381673 -1.4355654 1.1009531 -2.8114052e+38
2.9381542 -1.4408109 1.1009531 -2.8250099e+38
2.9381411 -1.4460567 1.1009531 -2.838562e+38
2.938128 -1.4513024 1.1009531 -2.9053353e+38
2.917141 -1.4459556 1.1020131 -2.958504e+38
2.9171281 -1.4511614 1.1020131 -3.024965e+38
2.917115 -1.4563671 1.1020131 -3.091426e+38
2.9171021 -1.4615728 1.1020131 -3.051549e+38
2.8951175 -1.4555141 1.1031235 -3.0114123e+38
2.9170761 -1.4719843 1.1020131 -3.037789e+38
2.8950915 -1.4658417 1.1031235 -3.051237e+38
2.8950787 -1.4710054 1.1031235 -3.0512887e+38
2.8950658 -1.4761692 1.1031235 -3.0515486e+38
2.8950529 -1.481333 1.1031235 -3.158458e+38
2.89504 -1.4864968 1.1031235 -3.2633789e+38
2.8950272 -1.4916606 1.1031235 -3.0739485e+38
2.8740416 -1.4857519 1.1041836 -2.8743586e+38
2.8950012 -1.5019882 1.1031235 -2.9411855e+38
2.8949883 -1.5071521 1.1031235 -2.9942489e+38
2.8740032 -1.5011233 1.1041836 -2.9809031e+38
3.2303133 -1.3775601 1.0804121 -2.6771262e+38
3.2302988 -1.3833621 1.0804121 -2.6768663e+38
3.2302842 -1.389164 1.0804121 -2.6102488e+38
3.203299 -1.3831984 1.0818263 -2.5570279e+38
3.2032847 -1.3889489 1.0818263 -2.5304436e+38
3.2032702 -1.3946993 1.0818263 -2.4905673e+38
3.1772845 -1.3889697 1.0831883 -2.5039119e+38
3.1772702 -1.3946706 1.0831883 -2.5172563e+38
3.1772559 -1.4003716 1.0831883 -2.543893e+38
3.1512709 -1.3944436 1.0845501 -2.5705297e+38
3.1512566 -1.400095 1.0845501 -2.5838739e+38
3.1512425 -1.4057463 1.0845501 -2.5839256e+38
3.1512284 -1.4113978 1.0845501 -2.6108733e+38
3.1512144 -1.4170492 1.0845501 -2.6378213e+38
3.1512001 -1.4227006 1.0845501 -2.7040231e+38
3.151186 -1.428352 1.0845501 -2.770276e+38
3.1511719 -1.4340035 1.0845501 -2.8102037e+38
3.1511579 -1.4396549 1.0845501 -2.850442e+38
3.1511436 -1.4453062 1.0845501 -3.0235509e+38
3.1511295 -1.4509577 1.0845501 -3.1958261e+38
3.1511154 -1.4566091 1.0845501 -3.20849e+38
3.1511014 -1.4622605 1.0845501 -3.2350218e+38
3.151087 -1.467912 1.0845501 -3.2349172e+38
2.9832048 -1.4206008 1.0933502 -2.8900627e+38
2.9612181 -1.4152544 1.0945026 -2.8236021e+38
2.961205 -1.4205439 1.0945026 -2.797122e+38
2.9382198 -1.4145825 1.0957073 -2.7839345e+38
2.9382067 -1.4198283 1.0957073 -2.7709029e+38
2.9381936 -1.425074 1.0957073 -2.7578708e+38
2.9381804 -1.4303197 1.0957073 -2.7712676e+38
2.9381673 -1.4355654 1.0957073 -2.7980087e+38
2.9381542 -1.4408109 1.0957073 -2.8116653e+38
2.9171672 -1.4355444 1.0968074 -2.8253214e+38
2.9171541 -1.44075 1.0968074 -2.8786465e+38
2.917141 -1.4459556 1.0968074 -2.9318673e+38
2.9171281 -1.4511614 1.0968074 -2.9849843e+38
2.917115 -1.4563671 1.0968074 -3.0515492e+38
2.9171021 -1.4615728 1.0968074 -3.0380488e+38
2.917089 -1.4667785 1.0968074 -3.0112565e+38
2.9170761 -1.4719843 1.0968074 -3.0246005e+38
2.917063 -1.4771899 1.0968074 -3.0379967e+38
2.8950787 -1.4710054 1.0979598 -3.0379445e+38
2.8740928 -1.4652567 1.0990597 -3.0382048e+38
2.8950529 -1.481333 1.0979598 -3.1848356e+38
2.89504 -1.4864968 1.0979598 -3.3441704e+38
2.8950272 -1.4916606 1.0979598 -3.0082119e+38
2.8740416 -1.4857519 1.0990597 -2.6744539e+38
2.8950012 -1.5019882 1.0979598 -2.7947102e+38
2.8949883 -1.5071521 1.0979598 -2.9145476e+38
2.8949754 -1.5123159 1.0979598 -2.8875466e+38
2.8949625 -1.5174795 1.0979598 -2.8609107e+38
3.2303133 -1.3775601 1.0746102 -2.6106122e+38
3.2302988 -1.3833621 1.0746102 -2.6502292e+38
3.2302842 -1.389164 1.0746102 -2.6101966e+38
3.2302697 -1.3949659 1.0746102 -2.57032e+38
3.2032847 -1.3889489 1.0760759 -2.5437356e+38
3.2032702 -1.3946993 1.0760759 -2.5038071e+38
3.2032559 -1.4004499 1.0760759 -2.530444e+38
3.1772702 -1.3946706 1.0774873 -2.5437365e+38
3.1772559 -1.4003716 1.0774873 -2.5570291e+38
3.1512709 -1.3944436 1.0788988 -2.5571332e+38
3.1512566 -1.400095 1.0788988 -2.5571853e+38
3.1512425 -1.4057463 1.0788988 -2.5573928e+38
3.1512284 -1.4113978 1.0788988 -2.5843408e+38
3.1512144 -1.4170492 1.0788988 -2.5975291e+38
3.1512001 -1.4227006 1.0788988 -2.6638864e+38
3.151186 -1.428352 1.0788988 -2.7302429e+38
3.1511719 -1.4340035 1.0788988 -2.7301383e+38
3.1511579 -1.4396549 1.0788988 -2.7307595e+38
3.1511436 -1.4453062 1.0788988 -3.037415e+38
3.1511295 -1.4509577 1.0788988 -3.3288016e+38
3.1511154 -1.4566091 1.0788988 -3.2746409e+38
3.1511014 -1.4622605 1.0788988 -3.208335e+38
3.151087 -1.467912 1.0788988 -3.2081793e+38
3.0061769 -1.4317201 1.0867702 -2.9433358e+38
2.9831915 -1.4259322 1.0880188 -2.8900637e+38
2.961205 -1.4205439 1.089213 -2.8502396e+38
2.9382198 -1.4145825 1.0904616 -2.7972789e+38
2.9382067 -1.4198283 1.0904616 -2.784299e+38
2.9381936 -1.425074 1.0904616 -2.7711112e+38
2.9381804 -1.4303197 1.0904616 -2.7712156e+38
2.9381673 -1.4355654 1.0904616 -2.7714239e+38
2.9171801 -1.4303386 1.0916016 -2.7983206e+38
2.9171672 -1.4355444 1.0916016 -2.8118727e+38
2.9171541 -1.44075 1.0916016 -2.8520094e+38
2.917141 -1.4459556 1.0916016 -2.8917824e+38
2.9171281 -1.4511614 1.0916016 -2.9581402e+38
2.917115 -1.4563671 1.0916016 -3.0113087e+38
2.9171021 -1.4615728 1.0916016 -3.0111525e+38
2.917089 -1.4667785 1.0916016 -3.0111521e+38
2.9170761 -1.4719843 1.0916016 -3.024548e+38
2.8950915 -1.4658417 1.0927958 -3.024392e+38
2.8741057 -1.460133 1.093936 -3.0241841e+38
2.8740928 -1.4652567 1.093936 -3.0248084e+38
2.8740799 -1.4703805 1.093936 -3.2249725e+38
2.89504 -1.4864968 1.0927958 nan
2.8740544 -1.480628 1.093936 -2.9402515e+38
2.8740416 -1.4857519 1.093936 -2.462143e+38
2.8740287 -1.4908756 1.093936 -2.6487004e+38
2.8949883 -1.5071521 1.0927958 -2.8210333e+38
2.8949754 -1.5123159 1.0927958 -2.7938263e+38
2.8949625 -1.5174795 1.0927958 -2.7673466e+38
3.2303133 -1.3775601 1.0688083 -2.6102479e+38
3.2302988 -1.3833621 1.0688083 -2.6766576e+38
3.2302842 -1.389164 1.0688083 -2.6367289e+38
3.2302697 -1.3949659 1.0688083 -2.5968003e+38
3.2302551 -1.4007678 1.0688083 -2.5702159e+38
3.2032702 -1.3946993 1.0703254 -2.5435797e+38
3.2032559 -1.4004499 1.0703254 -2.5436318e+38
3.2032416 -1.4062002 1.0703254 -2.5569245e+38
3.1772559 -1.4003716 1.0717864 -2.5437362e+38
3.1512709 -1.3944436 1.0732473 -2.5438405e+38
3.1512566 -1.400095 1.0732473 -2.557133e+38
3.1512425 -1.4057463 1.0732473 -2.557237e+38
3.1512284 -1.4113978 1.0732473 -2.5839254e+38
3.1512144 -1.4170492 1.0732473 -2.5971137e+38
3.1512001 -1.4227006 1.0732473 -2.6503862e+38
3.151186 -1.428352 1.0732473 -2.7035543e+38
3.1511719 -1.4340035 1.0732473 -2.6769688e+38
3.1511579 -1.4396549 1.0732473 -2.663883e+38
3.1771133 -1.4573809 1.0717864 -2.9833636e+38
3.1770992 -1.4630818 1.0717864 -3.3154061e+38
3.1511154 -1.4566091 1.0732473 -3.3288493e+38
3.1511014 -1.4622605 1.0732473 -3.3547596e+38
3.1261165 -1.4561114 1.0746521 -3.3417795e+38
2.9832048 -1.4206008 1.0826874 -2.9166474e+38
2.9831915 -1.4259322 1.0826874 -2.8500313e+38
2.961205 -1.4205439 1.0839236 -2.7970706e+38
2.9382198 -1.4145825 1.0852159 -2.7574021e+38
2.9382067 -1.4198283 1.0852159 -2.7442662e+38
2.9381936 -1.425074 1.0852159 -2.7310784e+38
2.9381804 -1.4303197 1.0852159 -2.7578193e+38
2.9381673 -1.4355654 1.0852159 -2.7979045e+38
2.9171801 -1.4303386 1.0863959 -2.8113529e+38
2.9171672 -1.4355444 1.0863959 -2.824905e+38
2.9171541 -1.44075 1.0863959 -2.8515415e+38
2.917141 -1.4459556 1.0863959 -2.8782303e+38
2.9171281 -1.4511614 1.0863959 -2.9313996e+38
2.917115 -1.4563671 1.0863959 -2.9845164e+38
2.9171021 -1.4615728 1.0863959 -2.9711197e+38
2.917089 -1.4667785 1.0863959 -2.9711191e+38
2.9170761 -1.4719843 1.0863959 -2.9710665e+38
2.8950915 -1.4658417 1.0876321 -2.9709106e+38
2.8950787 -1.4710054 1.0876321 -2.9976507e+38
2.8950658 -1.4761692 1.0876321 -3.0246005e+38
2.8950529 -1.481333 1.0876321 -3.2112133e+38
2.89504 -1.4864968 1.0876321 nan
2.8950272 -1.4916606 1.0876321 -3.0484656e+38
2.8950143 -1.4968244 1.0876321 -2.7017178e+38
2.8950012 -1.5019882 1.0876321 -2.7681207e+38
2.8949883 -1.5071521 1.0876321 -2.8340132e+38
2.8949754 -1.5123159 1.0876321 -2.7806904e+38
2.8949625 -1.5174795 1.0876321 -2.7271594e+38
3.2303133 -1.3775601 1.0630064 -2.6102995e+38
3.2302988 -1.3833621 1.0630064 -2.7032418e+38
3.2302842 -1.389164 1.0630064 -2.6633134e+38
3.2302697 -1.3949659 1.0630064 -2.6233327e+38
3.2302551 -1.4007678 1.0630064 -2.6099368e+38
3.2032702 -1.3946993 1.064575 -2.5834044e+38
3.2032559 -1.4004499 1.064575 -2.5700604e+38
3.2032416 -1.4062002 1.064575 -2.5568724e+38
3.1772559 -1.4003716 1.0660855 -2.5436843e+38
3.1512709 -1.3944436 1.067596 -2.5304442e+38
3.1512566 -1.400095 1.067596 -2.5437369e+38
3.1512425 -1.4057463 1.067596 -2.557133e+38
3.1512284 -1.4113978 1.067596 -2.5836656e+38
3.1512144 -1.4170492 1.067596 -2.5970613e+38
3.1512001 -1.4227006 1.067596 -2.6369897e+38
3.151186 -1.428352 1.067596 -2.6768655e+38
3.1511719 -1.4340035 1.067596 -2.6369357e+38
3.1511579 -1.4396549 1.067596 -2.5840254e+38
3.1771133 -1.4573809 1.0660855 -2.9432279e+38
3.1770992 -1.4630818 1.0660855 -3.2896036e+38
3.1261446 -1.4449037 1.0690483 -3.3970819e+38
3.1261306 -1.4505075 1.0690483 nan
3.1261165 -1.4561114 1.0690483 nan
3.1261027 -1.4617152 1.0690483 nan
2.9832048 -1.4206008 1.0773559 -2.8900633e+38
2.9831915 -1.4259322 1.0773559 -2.7969662e+38
2.9831781 -1.4312637 1.0773559 -2.7571419e+38
2.9382198 -1.4145825 1.0799702 -2.7041289e+38
2.9611785 -1.431123 1.078634 -2.7041815e+38
2.9381936 -1.425074 1.0799702 -2.6910975e+38
2.9381804 -1.4303197 1.0799702 -2.7576633e+38
2.9381673 -1.4355654 1.0799702 -2.8109367e+38
2.9171801 -1.4303386 1.0811902 -2.8242815e+38
2.9171672 -1.4355444 1.0811902 -2.8377815e+38
2.9171541 -1.44075 1.0811902 -2.8510738e+38
2.917141 -1.4459556 1.0811902 -2.8646778e+38
2.9171281 -1.4511614 1.0811902 -2.9047623e+38
2.917115 -1.4563671 1.0811902 -2.9444311e+38
2.9171021 -1.4615728 1.0811902 -2.944223e+38
2.917089 -1.4667785 1.0811902 -2.9309822e+38
2.9170761 -1.4719843 1.0811902 -2.9309301e+38
2.917063 -1.4771899 1.0811902 -2.9176895e+38
2.8950787 -1.4710054 1.0824683 -2.9709106e+38
2.8950658 -1.4761692 1.0824683 -3.0246005e+38
2.8950529 -1.481333 1.0824683 -3.2113691e+38
2.917011 -1.4980127 1.0811902 -3.3964647e+38
2.8950272 -1.4916606 1.0824683 -3.1680461e+38
2.8950143 -1.4968244 1.0824683 -2.941709e+38
2.8950012 -1.5019882 1.0824683 -2.9012561e+38
2.9169588 -1.5188354 1.0811902 -2.847932e+38
2.9169459 -1.5240412 1.0811902 -2.7678155e+38
2.9169328 -1.5292468 1.0811902 -2.6879077e+38
3.2303133 -1.3775601 1.0572045 -2.6498124e+38
3.2302988 -1.3833621 1.0572045 -2.7030858e+38
3.2302842 -1.389164 1.0572045 -2.6366248e+38
3.2302697 -1.3949659 1.0572045 -2.5833521e+38
3.2302551 -1.4007678 1.0572045 -2.5701117e+38
3.2032702 -1.3946993 1.0588245 -2.5568715e+38
3.2032559 -1.4004499 1.0588245 -2.5568196e+38
3.2032416 -1.4062002 1.0588245 -2.5435799e+38
3.203227 -1.4119507 1.0588245 -2.530392e+38
3.1772416 -1.4060724 1.0603845 -2.5038596e+38
3.1512566 -1.400095 1.0619445 -2.517204e+38
3.1512425 -1.4057463 1.0619445 -2.5304963e+38
3.1262567 -1.4000735 1.0634445 -2.5438405e+38
3.1512144 -1.4170492 1.0619445 -2.5571841e+38
3.1512001 -1.4227006 1.0619445 -2.6103526e+38
3.151186 -1.428352 1.0619445 -2.6635728e+38
3.1511719 -1.4340035 1.0619445 -2.6368834e+38
3.1771276 -1.4516798 1.0603845 -2.6103506e+38
3.1771133 -1.4573809 1.0603845 -2.9435401e+38
3.1770992 -1.4630818 1.0603845 -3.27673e+38
3.1511154 -1.4566091 1.0619445 nan
3.1511014 -1.4622605 1.0619445 nan
3.1261165 -1.4561114 1.0634445 nan
3.1261027 -1.4617152 1.0634445 nan
2.9832048 -1.4206008 1.0720245 -2.81031e+38
2.9831915 -1.4259322 1.0720245 -2.783726e+38
2.9831781 -1.4312637 1.0720245 -2.7439015e+38
2.9611919 -1.4258335 1.0733445 -2.704077e+38
2.9611785 -1.431123 1.0733445 -2.7041811e+38
2.9381936 -1.425074 1.0747244 -2.7176297e+38
2.9381804 -1.4303197 1.0747244 -2.744163e+38
2.9381673 -1.4355654 1.0747244 -2.7840923e+38
2.9171801 -1.4303386 1.0759845 -2.7976446e+38
2.9171672 -1.4355444 1.0759845 -2.8242811e+38
2.9171541 -1.44075 1.0759845 -2.8377811e+38
2.917141 -1.4459556 1.0759845 -2.8512811e+38
2.9171281 -1.4511614 1.0759845 -2.8779173e+38
2.917115 -1.4563671 1.0759845 -2.9043977e+38
2.9171021 -1.4615728 1.0759845 -2.9043453e+38
2.917089 -1.4667785 1.0759845 -2.9175859e+38
2.9170761 -1.4719843 1.0759845 -2.9175859e+38
2.917063 -1.4771899 1.0759845 -2.9176897e+38
2.8950787 -1.4710054 1.0773045 -2.9842548e+38
2.8950658 -1.4761692 1.0773045 -3.0642697e+38
2.8950529 -1.481333 1.0773045 -3.2241941e+38
2.917011 -1.4980127 1.0759845 -3.3838485e+38
2.8950272 -1.4916606 1.0773045 -3.1957226e+38
2.8950143 -1.4968244 1.0773045 -2.9958679e+38
2.8950012 -1.5019882 1.0773045 -2.9687608e+38
2.8949883 -1.5071521 1.0773045 -2.9285199e+38
2.8949754 -1.5123159 1.0773045 -2.8750904e+38
2.8949625 -1.5174795 1.0773045 -2.8215596e+38
2.8949497 -1.5226433 1.0773045 -2.8880746e+38
3.2303133 -1.3775601 1.0514026 -2.7026185e+38
3.2302988 -1.3833621 1.0514026 -2.6896899e+38
3.2302842 -1.389164 1.0514026 -2.6099885e+38
3.2302697 -1.3949659 1.0514026 -2.5302349e+38
3.2032847 -1.3889489 1.053074 -2.5301831e+38
3.2032702 -1.3946993 1.053074 -2.530287e+38
3.2032559 -1.4004499 1.053074 -2.5302351e+38
3.2032416 -1.4062002 1.053074 -2.5303393e+38
3.1772559 -1.4003716 1.0546836 -2.5038588e+38
3.1772416 -1.4060724 1.0546836 -2.4772744e+38
3.1512566 -1.400095 1.056293 -2.4906191e+38
3.1262708 -1.3944697 1.0578407 -2.5038594e+38
3.1262567 -1.4000735 1.0578407 -2.5172036e+38
3.1512144 -1.4170492 1.056293 -2.5172551e+38
3.1512001 -1.4227006 1.056293 -2.5837159e+38
3.151186 -1.428352 1.056293 -2.6368844e+38
3.1771419 -1.4459789 1.0546836 -2.6367279e+38
3.1771276 -1.4516798 1.0546836 -2.6240065e+38
3.1771133 -1.4573809 1.0546836 -2.943748e+38
3.1770992 -1.4630818 1.0546836 -3.2634369e+38
3.1511154 -1.4566091 1.056293 nan
3.1511014 -1.4622605 1.056293 nan
3.1770563 -1.4801846 1.0546836 nan
3.151073 -1.4735633 1.056293 nan
2.9832048 -1.4206008 1.0666931 -2.7308161e+38
2.9831915 -1.4259322 1.0666931 -2.7572453e+38
2.961205 -1.4205439 1.0680549 -2.7306092e+38
2.9611919 -1.4258335 1.0680549 -2.6907845e+38
2.9611785 -1.431123 1.0680549 -2.7173693e+38
2.9381936 -1.425074 1.0694788 -2.7306103e+38
2.9381804 -1.4303197 1.0694788 -2.7439031e+38
2.9171932 -1.4251329 1.0707787 -2.744267e+38
2.9171801 -1.4303386 1.0707787 -2.7844039e+38
2.9171672 -1.4355444 1.0707787 -2.8110404e+38
2.9171541 -1.44075 1.0707787 -2.8243848e+38
2.917141 -1.4459556 1.0707787 -2.8378326e+38
2.9171281 -1.4511614 1.0707787 -2.8511766e+38
2.917115 -1.4563671 1.0707787 -2.8511762e+38
2.9171021 -1.4615728 1.0707787 -2.8777086e+38
2.917089 -1.4667785 1.0707787 -2.9042415e+38
2.9170761 -1.4719843 1.0707787 -2.9041896e+38
2.917063 -1.4771899 1.0707787 -2.9042934e+38
2.8950787 -1.4710054 1.0721407 -2.9973913e+38
2.8950658 -1.4761692 1.0721407 -3.0907494e+38
2.8950529 -1.481333 1.0721407 -3.2373283e+38
2.917011 -1.4980127 1.0707787 -3.3698268e+38
2.8950272 -1.4916606 1.0721407 -3.2085971e+38
2.8950143 -1.4968244 1.0721407 -3.0490881e+38
2.8950012 -1.5019882 1.0721407 -3.0360019e+38
2.8949883 -1.5071521 1.0721407 -3.0088977e+38
2.8949754 -1.5123159 1.0721407 -2.9823647e+38
2.8949625 -1.5174795 1.0721407 -2.9555732e+38
3.2572844 -1.3891734 1.0438778 -2.7560476e+38
3.2302988 -1.3833621 1.0456007 -2.7297229e+38
3.2302842 -1.389164 1.0456007 -2.636625e+38
3.2302697 -1.3949659 1.0456007 -2.5568196e+38
3.2032847 -1.3889489 1.0473235 -2.5434754e+38
3.2032702 -1.3946993 1.0473235 -2.5303389e+38
3.2032559 -1.4004499 1.0473235 -2.5036505e+38
3.2032416 -1.4062002 1.0473235 -2.4904101e+38
3.1772559 -1.4003716 1.0489826 -2.4771698e+38
3.1772416 -1.4060724 1.0489826 -2.4638779e+38
3.1512566 -1.400095 1.0506417 -2.4771704e+38
3.1772132 -1.4174743 1.0489826 -2.5037552e+38
3.1771989 -1.4231752 1.0489826 -2.5171513e+38
3.1512144 -1.4170492 1.0506417 -2.5438393e+38
3.1512001 -1.4227006 1.0506417 -2.5704754e+38
3.151186 -1.428352 1.0506417 -2.6104037e+38
3.1771419 -1.4459789 1.0489826 -2.5705782e+38
3.1771276 -1.4516798 1.0489826 -2.5178762e+38
3.1771133 -1.4573809 1.0489826 -2.8771827e+38
3.1770992 -1.4630818 1.0489826 -3.2232994e+38
3.1511154 -1.4566091 1.0506417 nan
3.1770706 -1.4744837 1.0489826 nan
3.1770563 -1.4801846 1.0489826 nan
3.1261027 -1.4617152 1.0522368 nan
3.1011181 -1.4554232 1.0538321 nan
3.0061903 -1.4263449 1.059894 -2.6904714e+38
2.9832048 -1.4206008 1.0613616 -2.7173162e+38
2.9831915 -1.4259322 1.0613616 -2.7439011e+38
2.961205 -1.4205439 1.0627654 -2.730609e+38
2.9611919 -1.4258335 1.0627654 -2.7040247e+38
2.9382067 -1.4198283 1.0642331 -2.7171614e+38
2.9381936 -1.425074 1.0642331 -2.7302466e+38
2.917206 -1.4199272 1.0655731 -2.7307145e+38
2.9171932 -1.4251329 1.0655731 -2.7311303e+38
2.9171801 -1.4303386 1.0655731 -2.7710073e+38
2.9171672 -1.4355444 1.0655731 -2.8243324e+38
2.9171541 -1.44075 1.0655731 -2.8376247e+38
2.917141 -1.4459556 1.0655731 -2.8509687e+38
2.9171281 -1.4511614 1.0655731 -2.8510722e+38
2.917115 -1.4563671 1.0655731 -2.8510722e+38
2.9171021 -1.4615728 1.0655731 -2.851072e+38
2.917089 -1.4667785 1.0655731 -2.8510202e+38
2.9170761 -1.4719843 1.0655731 -2.8643125e+38
2.917063 -1.4771899 1.0655731 -2.8776569e+38
2.8950787 -1.4710054 1.0669769 -2.9442741e+38
2.8950658 -1.4761692 1.0669769 -3.0108906e+38
2.8950529 -1.481333 1.0669769 -3.0644745e+38
2.917011 -1.4980127 1.0655731 -3.1310828e+38
2.8950272 -1.4916606 1.0669769 -3.0892757e+38
2.8950143 -1.4968244 1.0669769 -3.0488796e+38
2.8950012 -1.5019882 1.0669769 -3.022347e+38
2.8949883 -1.5071521 1.0669769 -3.0090026e+38
2.8949754 -1.5123159 1.0669769 -2.9956582e+38
2.8949625 -1.5174795 1.0669769 -2.9957101e+38
3.2303133 -1.3775601 1.0397987 -2.8093206e+38
3.2302988 -1.3833621 1.0397987 -2.7695478e+38
3.2302842 -1.389164 1.0397987 -2.6765023e+38
3.2302697 -1.3949659 1.0397987 -2.5700083e+38
3.2032847 -1.3889489 1.041573 -2.5433201e+38
3.2032702 -1.3946993 1.041573 -2.5168393e+38
3.2032559 -1.4004499 1.041573 -2.4769625e+38
3.2032416 -1.4062002 1.041573 -2.4371893e+38
3.1772559 -1.4003716 1.0432816 -2.4372412e+38
3.1772416 -1.4060724 1.0432816 -2.4372412e+38
3.1512566 -1.400095 1.0449902 -2.4770663e+38
3.1512425 -1.4057463 1.0449902 -2.5037548e+38
3.1512284 -1.4113978 1.0449902 -2.5303914e+38
3.1512144 -1.4170492 1.0449902 -2.5570792e+38
3.1512001 -1.4227006 1.0449902 -2.5704228e+38
3.151186 -1.428352 1.0449902 -2.5837147e+38
3.1771419 -1.4459789 1.0432816 -2.5040125e+38
3.1771276 -1.4516798 1.0432816 -2.4112254e+38
3.1771133 -1.4573809 1.0432816 -2.797168e+38
3.1770992 -1.4630818 1.0432816 -3.1838903e+38
3.1511154 -1.4566091 1.0449902 nan
3.1511014 -1.4622605 1.0449902 nan
3.1770563 -1.4801846 1.0432816 nan
3.151073 -1.4735633 1.0449902 nan
3.1510589 -1.4792147 1.0449902 nan
2.9832182 -1.4152694 1.0560302 -2.664043e+38
2.9612315 -1.4099649 1.0574759 -2.7041281e+38
2.9612181 -1.4152544 1.0574759 -2.730609e+38
2.961205 -1.4205439 1.0574759 -2.7305575e+38
2.9382198 -1.4145825 1.0589874 -2.7171616e+38
2.9382067 -1.4198283 1.0589874 -2.7302983e+38
2.9381936 -1.425074 1.0589874 -2.7304547e+38
2.917206 -1.4199272 1.0603673 -2.7174744e+38
2.9171932 -1.4251329 1.0603673 -2.704338e+38
2.9171801 -1.4303386 1.0603673 -2.7707996e+38
2.9171672 -1.4355444 1.0603673 -2.8241763e+38
2.9171541 -1.44075 1.0603673 -2.8375724e+38
2.917141 -1.4459556 1.0603673 -2.8509164e+38
2.9171281 -1.4511614 1.0603673 -2.8509681e+38
2.917115 -1.4563671 1.0603673 -2.8377275e+38
2.9171021 -1.4615728 1.0603673 -2.8244353e+38
2.917089 -1.4667785 1.0603673 -2.7978509e+38
2.9170761 -1.4719843 1.0603673 -2.8244359e+38
2.917063 -1.4771899 1.0603673 -2.837832e+38
2.8950787 -1.4710054 1.061813 -2.891105e+38
2.8950658 -1.4761692 1.061813 -2.9311897e+38
2.9170239 -1.492807 1.0603673 -2.9051246e+38
2.917011 -1.4980127 1.0603673 -2.8777522e+38
2.8950272 -1.4916606 1.061813 -2.9551605e+38
2.8950143 -1.4968244 1.061813 -3.0352249e+38
2.8950012 -1.5019882 1.061813 -3.0220358e+38
2.8949883 -1.5071521 1.061813 -2.995503e+38
2.8949754 -1.5123159 1.061813 -3.0087433e+38
2.8949625 -1.5174795 1.061813 -3.0221397e+38
3.2303133 -1.3775601 1.0339968 -2.6766574e+38
3.2302988 -1.3833621 1.0339968 -2.5436831e+38
3.2302842 -1.389164 1.0339968 -2.5435797e+38
3.2302697 -1.3949659 1.0339968 -2.5566125e+38
3.2032847 -1.3889489 1.0358226 -2.5433203e+38
3.2032702 -1.3946993 1.0358226 -2.530028e+38
3.2032559 -1.4004499 1.0358226 -2.490255e+38
3.2032416 -1.4062002 1.0358226 -2.4504299e+38
3.1772559 -1.4003716 1.0375807 -2.4372412e+38
3.1772416 -1.4060724 1.0375807 -2.4372412e+38
3.1512566 -1.400095 1.0393387 -2.4771698e+38
3.1512425 -1.4057463 1.0393387 -2.5170988e+38
3.1771989 -1.4231752 1.0375807 -2.5303912e+38
3.1512144 -1.4170492 1.0393387 -2.5304943e+38
3.1512001 -1.4227006 1.0393387 -2.557078e+38
3.151186 -1.428352 1.0393387 -2.5836105e+38
3.1771419 -1.4459789 1.0375807 -2.5304928e+38
3.1771276 -1.4516798 1.0375807 -2.4771665e+38
3.1771133 -1.4573809 1.0375807 -2.8772316e+38
3.1511295 -1.4509577 1.0393387 -3.2906962e+38
3.1511154 -1.4566091 1.0393387 nan
3.1511014 -1.4622605 1.0393387 nan
3.1770563 -1.4801846 1.0375807 nan
2.9612446 -1.4046754 1.0521864 -2.5977897e+38
2.9612315 -1.4099649 1.0521864 -2.6508554e+38
2.9612181 -1.4152544 1.0521864 -2.7040249e+38
2.9382329 -1.4093368 1.0537416 -2.6906292e+38
2.9382198 -1.4145825 1.0537416 -2.6905255e+38
2.9382067 -1.4198283 1.0537416 -2.6904738e+38
2.9381936 -1.425074 1.0537416 -2.7038703e+38
2.917206 -1.4199272 1.0551616 -2.6907862e+38
2.9381673 -1.4355654 1.0537416 -2.69089e+38
2.9171801 -1.4303386 1.0551616 -2.7176303e+38
2.9171672 -1.4355444 1.0551616 -2.7576627e+38
2.9171541 -1.44075 1.0551616 -2.7577145e+38
2.917141 -1.4459556 1.0551616 -2.7711104e+38
2.9171281 -1.4511614 1.0551616 -2.7578698e+38
2.917115 -1.4563671 1.0551616 -2.7446295e+38
2.9171021 -1.4615728 1.0551616 -2.7446295e+38
2.917089 -1.4667785 1.0551616 -2.7446299e+38
2.9170761 -1.4719843 1.0551616 -2.7446822e+38
