# .PCD v0.7 - Point Cloud Data file format
VERSION 0.7
FIELDS x y z rgb
SIZE 4 4 4 4
TYPE F F F F
COUNT 1 1 1 1
WIDTH 1174
HEIGHT 1
VIEWPOINT 0 0 0 1 0 0 0
POINTS 1174
DATA ascii
4.708961 0.036577903 2.4412589 nan
4.7089405 0.027966507 2.4412589 nan
4.70892 0.019355096 2.4412589 nan
4.7689023 0.011801787 2.4572017 nan
4.7688818 0.0030760914 2.4572017 nan
4.8942046 0.13949914 2.4814522 nan
4.8941836 0.13053535 2.4814522 nan
4.8311563 0.11902058 2.4648323 nan
4.8311353 0.11017679 2.4648323 nan
4.8311143 0.10133301 2.4648323 nan
4.8310933 0.092489228 2.4648323 nan
4.8310723 0.083645433 2.4648323 nan
4.7690468 0.072881609 2.4484758 nan
4.7690263 0.064155921 2.4484758 nan
4.7690058 0.055430248 2.4484758 nan
4.7689853 0.046704546 2.4484758 nan
4.7689643 0.037978858 2.4484758 nan
4.7089405 0.027966507 2.4326475 nan
4.70892 0.019355096 2.4326475 nan
4.7088995 0.010743693 2.4326475 nan
4.8308845 0.0040513575 2.4648323 nan
4.8942046 0.13949914 2.4724884 nan
4.8941836 0.13053535 2.4724884 nan
4.7691503 0.11651006 2.4397502 nan
4.8311353 0.11017679 2.4559884 nan
4.8311143 0.10133301 2.4559884 nan
4.8310933 0.092489228 2.4559884 nan
4.8310723 0.083645433 2.4559884 nan
4.7690468 0.072881609 2.4397502 nan
4.7690263 0.064155921 2.4397502 nan
4.7690058 0.055430248 2.4397502 nan
4.7689853 0.046704546 2.4397502 nan
4.7689643 0.037978858 2.4397502 nan
4.7689438 0.029253162 2.4397502 nan
4.7689233 0.020527475 2.4397502 nan
4.7689023 0.011801787 2.4397502 nan
4.8938866 0.0050423592 2.4724884 nan
4.7692122 0.14268714 2.4310246 nan
4.8311982 0.13670814 2.4471445 nan
4.8311772 0.12786436 2.4471445 nan
4.7691503 0.11651006 2.4310246 nan
4.8311353 0.11017679 2.4471445 nan
4.8311143 0.10133301 2.4471445 nan
4.8310933 0.092489228 2.4471445 nan
4.7690678 0.081607312 2.4310246 nan
4.7690468 0.072881609 2.4310246 nan
4.7690263 0.064155921 2.4310246 nan
4.7690058 0.055430248 2.4310246 nan
4.7689853 0.046704546 2.4310246 nan
4.7689643 0.037978858 2.4310246 nan
4.7689438 0.029253162 2.4310246 nan
4.7689233 0.020527475 2.4310246 nan
4.7689023 0.011801787 2.4310246 nan
4.8938866 0.0050423592 2.4635246 nan
4.8938656 -0.0039214268 2.4635246 nan
4.7692122 0.14268714 2.4222989 nan
4.7691913 0.13396145 2.4222989 nan
4.7691708 0.12523575 2.4222989 nan
4.7691503 0.11651006 2.4222989 nan
4.8311353 0.11017679 2.4383006 nan
4.8311143 0.10133301 2.4383006 nan
4.8310933 0.092489228 2.4383006 nan
4.8310723 0.083645433 2.4383006 nan
4.7690468 0.072881609 2.4222989 nan
4.7690263 0.064155921 2.4222989 nan
4.7690058 0.055430248 2.4222989 nan
4.7689853 0.046704546 2.4222989 nan
4.7689643 0.037978858 2.4222989 nan
4.7689438 0.029253162 2.4222989 nan
4.7689233 0.020527475 2.4222989 nan
4.7689023 0.011801787 2.4222989 nan
4.7688818 0.0030760914 2.4222989 nan
4.8308635 -0.0047924221 2.4383006 nan
4.7688408 -0.014375292 2.4222989 nan
4.8308215 -0.022479992 2.4383006 nan
4.7692327 0.15141284 2.4135733 nan
4.7692122 0.14268714 2.4135733 nan
4.7691913 0.13396145 2.4135733 nan
4.7691708 0.12523575 2.4135733 nan
4.7691503 0.11651006 2.4135733 nan
4.7691293 0.10778438 2.4135733 nan
4.8311143 0.10133301 2.4294569 nan
4.8310933 0.092489228 2.4294569 nan
4.7690678 0.081607312 2.4135733 nan
4.7690468 0.072881609 2.4135733 nan
4.7690263 0.064155921 2.4135733 nan
4.7690058 0.055430248 2.4135733 nan
4.7689853 0.046704546 2.4135733 nan
4.7689643 0.037978858 2.4135733 nan
4.7689438 0.029253162 2.4135733 nan
4.7689233 0.020527475 2.4135733 nan
4.7689023 0.011801787 2.4135733 nan
4.7688818 0.0030760914 2.4135733 nan
4.7688613 -0.0056495965 2.4135733 nan
4.7688408 -0.014375292 2.4135733 nan
4.8308215 -0.022479992 2.4294569 nan
4.7687993 -0.031826667 2.4135733 nan
4.7687788 -0.040552355 2.4135733 nan
4.7687578 -0.049278047 2.4135733 nan
4.7692327 0.15141284 2.4048474 nan
4.7692122 0.14268714 2.4048474 nan
4.7691913 0.13396145 2.4048474 nan
4.7691708 0.12523575 2.4048474 nan
4.7691503 0.11651006 2.4048474 nan
4.7691293 0.10778438 2.4048474 nan
4.8311143 0.10133301 2.4206133 nan
4.8310933 0.092489228 2.4206133 nan
4.8310723 0.083645433 2.4206133 nan
4.8310518 0.074801654 2.4206133 nan
4.7690263 0.064155921 2.4048474 nan
4.7690058 0.055430248 2.4048474 nan
4.7689853 0.046704546 2.4048474 nan
4.7689643 0.037978858 2.4048474 nan
4.7689438 0.029253162 2.4048474 nan
4.7689233 0.020527475 2.4048474 nan
4.7689023 0.011801787 2.4048474 nan
4.7688818 0.0030760914 2.4048474 nan
4.8308635 -0.0047924221 2.4206133 nan
4.7688408 -0.014375292 2.4048474 nan
4.8308215 -0.022479992 2.4206133 nan
4.7687993 -0.031826667 2.4048474 nan
4.7687788 -0.040552355 2.4048474 nan
4.7687578 -0.049278047 2.4048474 nan
4.7687373 -0.058003739 2.4048474 nan
4.7687168 -0.066729426 2.4048474 nan
4.7686963 -0.075455122 2.4048474 nan
4.7686753 -0.08418081 2.4048474 nan
4.7692533 0.16013852 2.3961217 nan
4.7692327 0.15141284 2.3961217 nan
4.7692122 0.14268714 2.3961217 nan
4.7691913 0.13396145 2.3961217 nan
4.7691708 0.12523575 2.3961217 nan
4.7691503 0.11651006 2.3961217 nan
4.7691293 0.10778438 2.3961217 nan
4.8311143 0.10133301 2.4117694 nan
4.8310933 0.092489228 2.4117694 nan
4.8310723 0.083645433 2.4117694 nan
4.8310518 0.074801654 2.4117694 nan
4.7690263 0.064155921 2.3961217 nan
4.7690058 0.055430248 2.3961217 nan
4.7689853 0.046704546 2.3961217 nan
4.7689643 0.037978858 2.3961217 nan
4.7689438 0.029253162 2.3961217 nan
4.7689233 0.020527475 2.3961217 nan
4.7689023 0.011801787 2.3961217 nan
4.8308845 0.0040513575 2.4117694 nan
4.8308635 -0.0047924221 2.4117694 nan
4.8308425 -0.013636205 2.4117694 nan
4.8938231 -0.021848992 2.4276693 nan
4.8938022 -0.030812774 2.4276693 nan
4.8307796 -0.040167563 2.4117694 nan
4.830759 -0.04901135 2.4117694 nan
4.7687373 -0.058003739 2.3961217 nan
4.7687168 -0.066729426 2.3961217 nan
4.7686963 -0.075455122 2.3961217 nan
4.7686753 -0.08418081 2.3961217 nan
4.7692533 0.16013852 2.3873959 nan
4.7692327 0.15141284 2.3873959 nan
4.7692122 0.14268714 2.3873959 nan
4.7691913 0.13396145 2.3873959 nan
4.7691708 0.12523575 2.3873959 nan
4.7691503 0.11651006 2.3873959 nan
4.8311353 0.11017679 2.4029255 nan
4.8311143 0.10133301 2.4029255 nan
4.8310933 0.092489228 2.4029255 nan
4.8310723 0.083645433 2.4029255 -3.142346e+38
4.8310518 0.074801654 2.4029255 -3.367586e+38
4.7690263 0.064155921 2.3873959 nan
4.7690058 0.055430248 2.3873959 nan
4.7689853 0.046704546 2.3873959 nan
4.7689643 0.037978858 2.3873959 nan
4.7689438 0.029253162 2.3873959 nan
4.7689233 0.020527475 2.3873959 nan
4.8309054 0.012895152 2.4029255 nan
4.8308845 0.0040513575 2.4029255 nan
4.8308635 -0.0047924221 2.4029255 nan
4.8308425 -0.013636205 2.4029255 nan
4.8308215 -0.022479992 2.4029255 nan
4.8938022 -0.030812774 2.4187055 nan
4.8937807 -0.03977656 2.4187055 nan
4.830759 -0.04901135 2.4029255 nan
4.8307381 -0.057855133 2.4029255 nan
4.8307171 -0.066698916 2.4029255 nan
4.8306961 -0.075542703 2.4029255 nan
4.8306751 -0.08438649 2.4029255 nan
4.8306541 -0.093230277 2.4029255 nan
4.8312397 0.15439571 2.3940816 nan
4.8312192 0.14555193 2.3940816 nan
4.8311982 0.13670814 2.3940816 nan
4.7691708 0.12523575 2.3786702 nan
4.8311563 0.11902058 2.3940816 nan
4.8311353 0.11017679 2.3940816 nan
4.8311143 0.10133301 2.3940816 nan
4.8310933 0.092489228 2.3940816 nan
4.8310723 0.083645433 2.3940816 -3.3934996e+38
4.8310518 0.074801654 2.3940816 -3.3672727e+38
4.8310308 0.065957874 2.3940816 -3.3540347e+38
4.8310099 0.05711408 2.3940816 nan
4.7689853 0.046704546 2.3786702 nan
4.7689643 0.037978858 2.3786702 nan
4.7689438 0.029253162 2.3786702 nan
4.7689233 0.020527475 2.3786702 nan
4.7689023 0.011801787 2.3786702 nan
4.8308845 0.0040513575 2.3940816 nan
4.8308635 -0.0047924221 2.3940816 nan
4.8308425 -0.013636205 2.3940816 nan
4.8308215 -0.022479992 2.3940816 nan
4.8308005 -0.031323779 2.3940816 nan
4.8307796 -0.040167563 2.3940816 -3.2242896e+38
4.830759 -0.04901135 2.3940816 nan
4.8307381 -0.057855133 2.3940816 nan
4.8307171 -0.066698916 2.3940816 nan
4.8306961 -0.075542703 2.3940816 nan
4.8936749 -0.084595487 2.4097419 nan
4.8936534 -0.093559273 2.4097419 nan
4.8306332 -0.10207406 2.3940816 nan
4.8312607 0.16323949 2.3852379 nan
4.8312397 0.15439571 2.3852379 nan
4.8312192 0.14555193 2.3852379 nan
4.8311982 0.13670814 2.3852379 nan
4.8311772 0.12786436 2.3852379 nan
4.8311563 0.11902058 2.3852379 nan
4.8311353 0.11017679 2.3852379 nan
4.8311143 0.10133301 2.3852379 nan
4.8310933 0.092489228 2.3852379 nan
4.8310723 0.083645433 2.3852379 nan
4.8310518 0.074801654 2.3852379 -3.3805653e+38
4.7690263 0.064155921 2.3699446 -3.1148763e+38
4.7690058 0.055430248 2.3699446 -3.1411504e+38
4.7689853 0.046704546 2.3699446 -3.1545447e+38
4.7689643 0.037978858 2.3699446 -3.3402196e+38
4.7689438 0.029253162 2.3699446 nan
4.7689233 0.020527475 2.3699446 nan
4.7689023 0.011801787 2.3699446 nan
4.8308845 0.0040513575 2.3852379 nan
4.8308635 -0.0047924221 2.3852379 nan
4.8308425 -0.013636205 2.3852379 nan
4.8308215 -0.022479992 2.3852379 nan
4.7687993 -0.031826667 2.3699446 -3.1906362e+38
4.8307796 -0.040167563 2.3852379 -1.9186326e+38
4.7687578 -0.049278047 2.3699446 nan
4.7687373 -0.058003739 2.3699446 nan
4.8307171 -0.066698916 2.3852379 nan
4.8306961 -0.075542703 2.3852379 nan
4.8306751 -0.08438649 2.3852379 nan
4.8306541 -0.093230277 2.3852379 nan
4.7686343 -0.10163219 2.3699446 nan
4.7686138 -0.11035788 2.3699446 nan
4.89359 -0.12045063 2.4007778 nan
4.8943319 0.19328181 2.3918142 nan
4.894311 0.18431805 2.3918142 nan
4.8312817 0.17208327 2.376394 nan
4.8942685 0.16639051 2.3918142 nan
4.8312397 0.15439571 2.376394 nan
4.8312192 0.14555193 2.376394 nan
4.8311982 0.13670814 2.376394 nan
4.8311772 0.12786436 2.376394 nan
4.8311563 0.11902058 2.376394 nan
4.8311353 0.11017679 2.376394 nan
4.8311143 0.10133301 2.376394 nan
4.8310933 0.092489228 2.376394 nan
4.8310723 0.083645433 2.376394 nan
4.8310518 0.074801654 2.376394 nan
4.7690263 0.064155921 2.3612189 nan
4.7690058 0.055430248 2.3612189 nan
4.7689853 0.046704546 2.3612189 nan
4.8309679 0.039426506 2.376394 nan
4.8309469 0.030582711 2.376394 nan
4.8309259 0.021738932 2.376394 nan
4.8309054 0.012895152 2.376394 nan
4.8308845 0.0040513575 2.376394 nan
4.8308635 -0.0047924221 2.376394 nan
4.8308425 -0.013636205 2.376394 nan
4.7688198 -0.02310098 2.3612189 nan
4.7687993 -0.031826667 2.3612189 -3.0601503e+38
4.7687788 -0.040552355 2.3612189 -2.113965e+38
4.7687578 -0.049278047 2.3612189 -3.2898192e+38
4.7687373 -0.058003739 2.3612189 nan
4.7687168 -0.066729426 2.3612189 nan
4.8306961 -0.075542703 2.376394 nan
4.8306751 -0.08438649 2.376394 nan
4.8306541 -0.093230277 2.376394 nan
4.7686343 -0.10163219 2.3612189 nan
4.7086148 -0.10981598 2.3465333 nan
4.83147 0.25167733 2.3675504 nan
4.831449 0.24283357 2.3675504 nan
4.8944378 0.23810075 2.3828502 nan
4.8314071 0.22514598 2.3675504 -3.2882423e+38
4.8943954 0.2201732 2.3828502 nan
4.8943744 0.21120943 2.3828502 nan
4.9593625 0.20599188 2.3986359 nan
4.959341 0.19690429 2.3986359 nan
4.894311 0.18431805 2.3828502 nan
4.8942895 0.17535427 2.3828502 nan
4.8942685 0.16639051 2.3828502 nan
4.8942471 0.15742671 2.3828502 nan
4.8312192 0.14555193 2.3675504 nan
4.8311982 0.13670814 2.3675504 nan
4.8941836 0.13053535 2.3828502 nan
4.8311563 0.11902058 2.3675504 nan
4.8941412 0.11260779 2.3828502 -3.1667482e+38
4.8311143 0.10133301 2.3675504 -1.9708551e+38
4.8310933 0.092489228 2.3675504 -2.7276813e+38
4.8310723 0.083645433 2.3675504 nan
4.8310518 0.074801654 2.3675504 nan
4.7690263 0.064155921 2.3524933 nan
4.7690058 0.055430248 2.3524933 nan
4.7689853 0.046704546 2.3524933 nan
4.8309679 0.039426506 2.3675504 nan
4.7689438 0.029253162 2.3524933 nan
4.7689233 0.020527475 2.3524933 nan
4.8309054 0.012895152 2.3675504 nan
4.8308845 0.0040513575 2.3675504 nan
4.8308635 -0.0047924221 2.3675504 nan
4.8308425 -0.013636205 2.3675504 nan
4.7688198 -0.02310098 2.3524933 nan
4.7687993 -0.031826667 2.3524933 -2.9402592e+38
4.7687788 -0.040552355 2.3524933 -2.3157338e+38
4.7687578 -0.049278047 2.3524933 -3.1424036e+38
4.7687373 -0.058003739 2.3524933 nan
4.7687168 -0.066729426 2.3524933 nan
4.8306961 -0.075542703 2.3675504 nan
4.8306751 -0.08438649 2.3675504 nan
4.8306541 -0.093230277 2.3675504 nan
4.7686343 -0.10163219 2.3524933 nan
4.7686138 -0.11035788 2.3524933 nan
4.7085943 -0.11842738 2.3379216 nan
4.7085738 -0.12703879 2.3379216 nan
4.83147 0.25167733 2.3587065 nan
4.831449 0.24283357 2.3587065 nan
4.8314281 0.23398976 2.3587065 nan
4.8314071 0.22514598 2.3587065 nan
4.8313861 0.2163022 2.3587065 nan
4.8943744 0.21120943 2.3738866 nan
4.8943529 0.20224561 2.3738866 nan
4.8943319 0.19328181 2.3738866 nan
4.894311 0.18431805 2.3738866 nan
4.8312817 0.17208327 2.3587065 nan
4.8312607 0.16323949 2.3587065 nan
4.8312397 0.15439571 2.3587065 nan
4.8312192 0.14555193 2.3587065 nan
4.8311982 0.13670814 2.3587065 nan
4.8311772 0.12786436 2.3587065 nan
4.8311563 0.11902058 2.3587065 nan
4.8311353 0.11017679 2.3587065 -3.2476286e+38
4.8311143 0.10133301 2.3587065 -1.8343436e+38
4.8310933 0.092489228 2.3587065 -2.6215018e+38
4.8310723 0.083645433 2.3587065 nan
4.8310518 0.074801654 2.3587065 nan
4.7690263 0.064155921 2.3437674 nan
4.7690058 0.055430248 2.3437674 nan
4.7689853 0.046704546 2.3437674 nan
4.7689643 0.037978858 2.3437674 nan
4.7689438 0.029253162 2.3437674 nan
4.7689233 0.020527475 2.3437674 nan
4.7689023 0.011801787 2.3437674 nan
4.8308845 0.0040513575 2.3587065 nan
4.7688613 -0.0056495965 2.3437674 nan
4.7688408 -0.014375292 2.3437674 nan
4.7688198 -0.02310098 2.3437674 -2.9293091e+38
4.7687993 -0.031826667 2.3437674 -2.6617951e+38
4.7687788 -0.040552355 2.3437674 -2.4088799e+38
4.7687578 -0.049278047 2.3437674 -2.862221e+38
4.7687373 -0.058003739 2.3437674 -3.328386e+38
4.7687168 -0.066729426 2.3437674 nan
4.8306961 -0.075542703 2.3587065 nan
4.8306751 -0.08438649 2.3587065 nan
4.7686548 -0.092906497 2.3437674 nan
4.7086349 -0.10120457 2.3293104 nan
4.7086148 -0.10981598 2.3293104 nan
4.7085943 -0.11842738 2.3293104 nan
4.7085738 -0.12703879 2.3293104 nan
4.7085533 -0.13565019 2.3293104 nan
4.7085333 -0.1442616 2.3293104 nan
4.7085128 -0.15287301 2.3293104 nan
4.7084923 -0.16148441 2.3293104 nan
4.7084723 -0.17009582 2.3293104 nan
4.8945227 0.27395588 2.3649225 nan
4.8945017 0.26499212 2.3649225 nan
4.8944802 0.25602829 2.3649225 nan
4.8944592 0.24706455 2.3649225 nan
4.8944378 0.23810075 2.3649225 nan
4.8944168 0.22913699 2.3649225 nan
4.8943954 0.2201732 2.3649225 nan
4.8313656 0.20745842 2.3498626 nan
4.8313446 0.19861464 2.3498626 nan
4.8313236 0.18977086 2.3498626 nan
4.8313026 0.18092705 2.3498626 nan
4.8312817 0.17208327 2.3498626 nan
4.8312607 0.16323949 2.3498626 nan
4.8312397 0.15439571 2.3498626 nan
4.8312192 0.14555193 2.3498626 nan
4.8311982 0.13670814 2.3498626 nan
4.8941836 0.13053535 2.3649225 nan
4.8941622 0.12157157 2.3649225 nan
4.8311353 0.11017679 2.3498626 -3.3266667e+38
4.8311143 0.10133301 2.3498626 -1.7037104e+38
4.8940988 0.09468022 2.3649225 -2.5155263e+38
4.8310723 0.083645433 2.3498626 -3.3147818e+38
4.8310518 0.074801654 2.3498626 nan
4.7690263 0.064155921 2.3350415 nan
4.7690058 0.055430248 2.3350415 nan
4.7689853 0.046704546 2.3350415 nan
4.7689643 0.037978858 2.3350415 nan
4.7689438 0.029253162 2.3350415 nan
4.7689233 0.020527475 2.3350415 nan
4.7689023 0.011801787 2.3350415 nan
4.8308845 0.0040513575 2.3498626 nan
4.7688613 -0.0056495965 2.3350415 nan
4.7688408 -0.014375292 2.3350415 -3.0200666e+38
4.7688198 -0.02310098 2.3350415 -2.2894052e+38
4.7687993 -0.031826667 2.3350415 -2.3953266e+38
4.7687788 -0.040552355 2.3350415 -2.4888417e+38
4.7687578 -0.049278047 2.3350415 -2.5957531e+38
4.7687373 -0.058003739 2.3350415 -2.6899941e+38
4.7687168 -0.066729426 2.3350415 -3.183523e+38
4.8306961 -0.075542703 2.3498626 nan
4.8306751 -0.08438649 2.3498626 nan
4.8306541 -0.093230277 2.3498626 nan
4.7686343 -0.10163219 2.3350415 nan
4.8306122 -0.11091784 2.3498626 nan
4.7685928 -0.11908357 2.3350415 nan
4.7085738 -0.12703879 2.3206987 nan
4.7085533 -0.13565019 2.3206987 nan
4.7685308 -0.14526063 2.3350415 nan
4.7685103 -0.15398633 2.3350415 nan
4.7084923 -0.16148441 2.3206987 nan
4.7084723 -0.17009582 2.3206987 nan
4.8945441 0.2829197 2.3559589 nan
4.8945227 0.27395588 2.3559589 nan
4.8945017 0.26499212 2.3559589 nan
4.8944802 0.25602829 2.3559589 nan
4.8944592 0.24706455 2.3559589 nan
4.8944378 0.23810075 2.3559589 nan
4.8314071 0.22514598 2.3410187 nan
4.8943954 0.2201732 2.3559589 nan
4.8313656 0.20745842 2.3410187 nan
4.8313446 0.19861464 2.3410187 nan
4.7693152 0.18631558 2.3263159 nan
4.7692947 0.17758991 2.3263159 nan
4.7692738 0.16886421 2.3263159 nan
4.8312607 0.16323949 2.3410187 nan
4.8312397 0.15439571 2.3410187 nan
4.8312192 0.14555193 2.3410187 nan
4.8311982 0.13670814 2.3410187 nan
4.8311772 0.12786436 2.3410187 nan
4.8311563 0.11902058 2.3410187 nan
4.8311353 0.11017679 2.3410187 -3.3952161e+38
4.8311143 0.10133301 2.3410187 -2.1557052e+38
4.8310933 0.092489228 2.3410187 -2.4618888e+38
4.8310723 0.083645433 2.3410187 -2.7688122e+38
4.8310518 0.074801654 2.3410187 -3.2889832e+38
4.7690263 0.064155921 2.3263159 nan
4.7690058 0.055430248 2.3263159 nan
4.7689853 0.046704546 2.3263159 nan
4.7689643 0.037978858 2.3263159 nan
4.7689438 0.029253162 2.3263159 nan
4.7689233 0.020527475 2.3263159 nan
4.7689023 0.011801787 2.3263159 nan
4.7688818 0.0030760914 2.3263159 nan
4.7688613 -0.0056495965 2.3263159 -2.9567212e+38
4.7688408 -0.014375292 2.3263159 -2.7015087e+38
4.7688198 -0.02310098 2.3263159 -2.4478688e+38
4.7687993 -0.031826667 2.3263159 -2.515061e+38
4.7687788 -0.040552355 2.3263159 -2.5952842e+38
4.7687578 -0.049278047 2.3263159 -2.6089422e+38
4.7687373 -0.058003739 2.3263159 -2.6227032e+38
4.7687168 -0.066729426 2.3263159 -2.8896925e+38
4.7686963 -0.075455122 2.3263159 -3.1432309e+38
4.8306751 -0.08438649 2.3410187 nan
4.7686548 -0.092906497 2.3263159 nan
4.7686343 -0.10163219 2.3263159 nan
4.7686138 -0.11035788 2.3263159 nan
4.7685928 -0.11908357 2.3263159 nan
4.7085738 -0.12703879 2.3120875 nan
4.7085533 -0.13565019 2.3120875 nan
4.7685308 -0.14526063 2.3263159 nan
4.7685103 -0.15398633 2.3263159 nan
4.7684898 -0.16271202 2.3263159 nan
4.7684693 -0.17143771 2.3263159 nan
4.7684484 -0.18016341 2.3263159 nan
4.8945651 0.29188347 2.3469949 nan
4.8945441 0.2829197 2.3469949 nan
4.831512 0.26936489 2.332175 nan
4.8945017 0.26499212 2.3469949 nan
4.83147 0.25167733 2.332175 nan
4.831449 0.24283357 2.332175 nan
4.8314281 0.23398976 2.332175 nan
4.8314071 0.22514598 2.332175 nan
4.7693772 0.21249269 2.3175902 nan
4.7693567 0.20376696 2.3175902 nan
4.7693357 0.19504128 2.3175902 nan
4.7693152 0.18631558 2.3175902 nan
4.7692947 0.17758991 2.3175902 nan
4.7692738 0.16886421 2.3175902 nan
4.7692533 0.16013852 2.3175902 nan
4.8312397 0.15439571 2.332175 nan
4.8312192 0.14555193 2.332175 nan
4.8311982 0.13670814 2.332175 nan
4.8941836 0.13053535 2.3469949 nan
4.8941622 0.12157157 2.3469949 nan
4.8941412 0.11260779 2.3469949 nan
4.8311143 0.10133301 2.332175 -2.6078986e+38
4.8310933 0.092489228 2.332175 -2.4074723e+38
4.8310723 0.083645433 2.332175 -2.2096509e+38
4.7690468 0.072881609 2.3175902 -2.8356395e+38
4.7690263 0.064155921 2.3175902 nan
4.7690058 0.055430248 2.3175902 nan
4.7689853 0.046704546 2.3175902 nan
4.7689643 0.037978858 2.3175902 nan
4.7689438 0.029253162 2.3175902 nan
4.7689233 0.020527475 2.3175902 nan
4.7689023 0.011801787 2.3175902 nan
4.7688818 0.0030760914 2.3175902 -3.1934899e+38
4.7688613 -0.0056495965 2.3175902 -2.1562727e+38
4.7688408 -0.014375292 2.3175902 -2.3814587e+38
4.7688198 -0.02310098 2.3175902 -2.6078966e+38
4.7687993 -0.031826667 2.3175902 -2.6482428e+38
4.7687788 -0.040552355 2.3175902 -2.6882768e+38
4.830759 -0.04901135 2.332175 -2.6219207e+38
4.8307381 -0.057855133 2.332175 -2.5559795e+38
4.8307171 -0.066698916 2.332175 -2.5959612e+38
4.7686963 -0.075455122 2.3175902 -2.6237404e+38
4.7686753 -0.08418081 2.3175902 -2.9834629e+38
4.7686548 -0.092906497 2.3175902 -3.3430837e+38
4.7086349 -0.10120457 2.3034759 nan
4.7686138 -0.11035788 2.3175902 nan
4.7685928 -0.11908357 2.3175902 nan
4.7685723 -0.12780926 2.3175902 nan
4.7685518 -0.13653496 2.3175902 nan
4.7685308 -0.14526063 2.3175902 nan
4.7685103 -0.15398633 2.3175902 nan
4.7684898 -0.16271202 2.3175902 nan
4.7084723 -0.17009582 2.3034759 nan
4.7684484 -0.18016341 2.3175902 nan
4.7684278 -0.18888909 2.3175902 nan
4.9595776 0.29686785 2.3531981 nan
4.8945441 0.2829197 2.3380313 nan
4.8945227 0.27395588 2.3380313 nan
4.8945017 0.26499212 2.3380313 nan
4.83147 0.25167733 2.3233314 nan
4.831449 0.24283357 2.3233314 nan
4.8314281 0.23398976 2.3233314 nan
4.7693977 0.22121836 2.3088646 nan
4.7693772 0.21249269 2.3088646 nan
4.7693567 0.20376696 2.3088646 nan
4.7693357 0.19504128 2.3088646 nan
4.7693152 0.18631558 2.3088646 nan
4.7692947 0.17758991 2.3088646 nan
4.7692738 0.16886421 2.3088646 nan
4.7692533 0.16013852 2.3088646 nan
4.8312397 0.15439571 2.3233314 nan
4.8312192 0.14555193 2.3233314 nan
4.8311982 0.13670814 2.3233314 nan
4.8311772 0.12786436 2.3233314 nan
4.8311563 0.11902058 2.3233314 nan
4.8311353 0.11017679 2.3233314 -2.9950862e+38
4.8311143 0.10133301 2.3233314 -2.4615763e+38
4.8310933 0.092489228 2.3233314 -2.421542e+38
4.8310723 0.083645433 2.3233314 -2.3818246e+38
4.8310518 0.074801654 2.3233314 -2.528926e+38
4.7690263 0.064155921 2.3088646 -2.676343e+38
4.7690058 0.055430248 2.3088646 -3.3429895e+38
4.7689853 0.046704546 2.3088646 nan
4.7689643 0.037978858 2.3088646 nan
4.7689438 0.029253162 2.3088646 nan
4.7689233 0.020527475 2.3088646 nan
4.7689023 0.011801787 2.3088646 nan
4.7688818 0.0030760914 2.3088646 -2.9011523e+38
4.7688613 -0.0056495965 2.3088646 -2.23353e+38
4.7688408 -0.014375292 2.3088646 -2.4081502e+38
4.7688198 -0.02310098 2.3088646 -2.5951769e+38
4.7687993 -0.031826667 2.3088646 -2.648346e+38
4.7687788 -0.040552355 2.3088646 -2.6883273e+38
4.7687578 -0.049278047 2.3088646 -2.662003e+38
4.8307381 -0.057855133 2.3233314 -2.6358863e+38
4.7687168 -0.066729426 2.3088646 -2.6358869e+38
4.7686963 -0.075455122 2.3088646 -2.6495447e+38
4.7686753 -0.08418081 2.3088646 -2.8894309e+38
4.7686548 -0.092906497 2.3088646 -3.1292129e+38
4.7086349 -0.10120457 2.2948647 -3.2363317e+38
4.7686138 -0.11035788 2.3088646 -3.3435035e+38
4.7685928 -0.11908357 2.3088646 nan
4.7685723 -0.12780926 2.3088646 nan
4.7685518 -0.13653496 2.3088646 nan
4.7685308 -0.14526063 2.3088646 nan
4.7685103 -0.15398633 2.3088646 nan
4.7084923 -0.16148441 2.2948647 nan
4.7084723 -0.17009582 2.2948647 nan
4.7084517 -0.17870721 2.2948647 nan
4.7084312 -0.18731862 2.2948647 nan
4.7084107 -0.19593002 2.2948647 nan
4.9595776 0.29686785 2.3441103 nan
4.8945441 0.2829197 2.3290675 nan
4.8945227 0.27395588 2.3290675 nan
4.8945017 0.26499212 2.3290675 nan
4.8944802 0.25602829 2.3290675 nan
4.831449 0.24283357 2.3144875 nan
4.8314281 0.23398976 2.3144875 nan
4.7693977 0.22121836 2.300139 nan
4.7693772 0.21249269 2.300139 nan
4.7693567 0.20376696 2.300139 nan
4.7693357 0.19504128 2.300139 nan
4.7693152 0.18631558 2.300139 nan
4.7692947 0.17758991 2.300139 nan
4.7692738 0.16886421 2.300139 nan
4.7692533 0.16013852 2.300139 nan
4.8312397 0.15439571 2.3144875 nan
4.8312192 0.14555193 2.3144875 nan
4.8311982 0.13670814 2.3144875 -2.7838214e+38
4.8941836 0.13053535 2.3290675 -2.7550524e+38
4.8311563 0.11902058 2.3144875 -2.7296077e+38
4.8311353 0.11017679 2.3144875 -2.528923e+38
4.8311143 0.10133301 2.3144875 -2.3157782e+38
4.8310933 0.092489228 2.3144875 -2.4352521e+38
4.8310723 0.083645433 2.3144875 -2.5547273e+38
4.8310518 0.074801654 2.3144875 -2.2219536e+38
4.7690263 0.064155921 2.300139 -1.8777098e+38
4.7690058 0.055430248 2.300139 -2.7966997e+38
4.7689853 0.046704546 2.300139 nan
4.7689643 0.037978858 2.300139 nan
4.7689438 0.029253162 2.300139 nan
4.7689233 0.020527475 2.300139 nan
4.7689023 0.011801787 2.300139 -2.9423884e+38
4.7688818 0.0030760914 2.300139 -2.6203015e+38
4.7688613 -0.0056495965 2.300139 -2.3016012e+38
4.7688408 -0.014375292 2.300139 -2.4489095e+38
4.7688198 -0.02310098 2.300139 -2.5818844e+38
4.7687993 -0.031826667 2.300139 -2.6351055e+38
4.7687788 -0.040552355 2.300139 -2.6883788e+38
4.7687578 -0.049278047 2.300139 -2.7018271e+38
4.7687373 -0.058003739 2.300139 -2.7020354e+38
4.7687168 -0.066729426 2.300139 -2.6887956e+38
4.7686963 -0.075455122 2.300139 -2.6757127e+38
4.7686753 -0.08418081 2.300139 -2.7953969e+38
4.7686548 -0.092906497 2.300139 -2.9157037e+38
4.7086349 -0.10120457 2.286253 -2.7962301e+38
4.7686138 -0.11035788 2.300139 -2.6638284e+38
4.7085943 -0.11842738 2.286253 -3.0757869e+38
4.7085738 -0.12703879 2.286253 nan
4.7685518 -0.13653496 2.300139 nan
4.7685308 -0.14526063 2.300139 nan
4.7685103 -0.15398633 2.300139 nan
4.7684898 -0.16271202 2.300139 nan
4.7684693 -0.17143771 2.300139 nan
4.7684484 -0.18016341 2.300139 nan
4.7084312 -0.18731862 2.286253 nan
4.7084107 -0.19593002 2.286253 nan
4.959599 0.30595541 2.3350227 nan
4.9595776 0.29686785 2.3350227 nan
4.8945441 0.2829197 2.3201036 nan
4.8945227 0.27395588 2.3201036 nan
4.8945017 0.26499212 2.3201036 nan
4.83147 0.25167733 2.3056436 nan
4.831449 0.24283357 2.3056436 nan
4.7694182 0.22994404 2.2914131 nan
4.7693977 0.22121836 2.2914131 nan
4.7693772 0.21249269 2.2914131 nan
4.7693567 0.20376696 2.2914131 nan
4.7693357 0.19504128 2.2914131 nan
4.7693152 0.18631558 2.2914131 nan
4.7692947 0.17758991 2.2914131 nan
4.7692738 0.16886421 2.2914131 nan
4.7692533 0.16013852 2.2914131 nan
4.7692327 0.15141284 2.2914131 nan
4.7692122 0.14268714 2.2914131 -3.1550686e+38
4.8311982 0.13670814 2.3056436 -2.8757749e+38
4.8311772 0.12786436 2.3056436 -2.8486711e+38
4.8311563 0.11902058 2.3056436 -2.8222916e+38
4.8311353 0.11017679 2.3056436 -2.6620547e+38
4.8311143 0.10133301 2.3056436 -2.5152681e+38
4.8310933 0.092489228 2.3056436 -2.5418522e+38
4.8310723 0.083645433 2.3056436 -2.5817266e+38
4.8310518 0.074801654 2.3056436 -2.355236e+38
4.7690263 0.064155921 2.2914131 -2.1420435e+38
4.7690058 0.055430248 2.2914131 -2.5429438e+38
4.7689853 0.046704546 2.2914131 -2.9572988e+38
4.7689643 0.037978858 2.2914131 nan
4.7689438 0.029253162 2.2914131 nan
4.7689233 0.020527475 2.2914131 -3.3948486e+38
4.7689023 0.011801787 2.2914131 -2.6745156e+38
4.7688818 0.0030760914 2.2914131 -2.5680157e+38
4.7688613 -0.0056495965 2.2914131 -2.4619914e+38
4.7688408 -0.014375292 2.2914131 -2.528611e+38
4.7688198 -0.02310098 2.2914131 -2.5951765e+38
4.7687993 -0.031826667 2.2914131 -2.621813e+38
4.7687788 -0.040552355 2.2914131 -2.6616898e+38
4.7687578 -0.049278047 2.2914131 -2.6750859e+38
4.7687373 -0.058003739 2.2914131 -2.701775e+38
4.7687168 -0.066729426 2.2914131 -2.7018794e+38
4.7686963 -0.075455122 2.2914131 -2.7019847e+38
4.7686753 -0.08418081 2.2914131 -2.7553627e+38
4.7686548 -0.092906497 2.2914131 -2.8089999e+38
4.7686343 -0.10163219 2.2914131 -2.7557797e+38
4.7686138 -0.11035788 2.2914131 -2.7157479e+38
4.7685928 -0.11908357 2.2914131 -2.9023597e+38
4.7685723 -0.12780926 2.2914131 -3.1024736e+38
4.7685518 -0.13653496 2.2914131 -3.2628665e+38
4.7685308 -0.14526063 2.2914131 nan
4.7685103 -0.15398633 2.2914131 nan
4.7084923 -0.16148441 2.2776418 nan
4.7084723 -0.17009582 2.2776418 nan
4.7084517 -0.17870721 2.2776418 nan
4.7084312 -0.18731862 2.2776418 nan
4.7084107 -0.19593002 2.2776418 nan
4.959599 0.30595541 2.3259349 nan
4.9595776 0.29686785 2.3259349 nan
4.8945441 0.2829197 2.3111398 nan
4.8945227 0.27395588 2.3111398 nan
4.8945017 0.26499212 2.3111398 nan
4.83147 0.25167733 2.2967997 nan
4.831449 0.24283357 2.2967997 nan
4.7694182 0.22994404 2.2826874 nan
4.7693977 0.22121836 2.2826874 nan
4.7693772 0.21249269 2.2826874 nan
4.7693567 0.20376696 2.2826874 nan
4.7693357 0.19504128 2.2826874 nan
4.7693152 0.18631558 2.2826874 -3.2761562e+38
4.7692947 0.17758991 2.2826874 -3.0598449e+38
4.7692738 0.16886421 2.2826874 -2.836211e+38
4.7692533 0.16013852 2.2826874 -2.7012618e+38
4.7692327 0.15141284 2.2826874 -2.5564996e+38
4.7692122 0.14268714 2.2826874 -2.7689675e+38
4.8311982 0.13670814 2.2967997 -2.9683507e+38
4.8311772 0.12786436 2.2967997 -2.9414538e+38
4.8311563 0.11902058 2.2967997 -2.9148684e+38
4.8311353 0.11017679 2.2967997 -2.8082698e+38
4.8311143 0.10133301 2.2967997 -2.7016194e+38
4.8310933 0.092489228 2.2967997 -2.6617941e+38
4.8310723 0.083645433 2.2967997 -2.6083639e+38
4.8310518 0.074801654 2.2967997 -2.5018166e+38
4.7690263 0.064155921 2.2826874 -2.3953238e+38
4.7690058 0.055430248 2.2826874 -2.2890387e+38
4.7689853 0.046704546 2.2826874 -2.1849928e+38
4.7689643 0.037978858 2.2826874 -2.8919319e+38
4.7689438 0.029253162 2.2826874 nan
4.7689233 0.020527475 2.2826874 -2.9930143e+38
4.7689023 0.011801787 2.2826874 -2.408514e+38
4.7688818 0.0030760914 2.2826874 -2.5152642e+38
4.7688613 -0.0056495965 2.2826874 -2.6083114e+38
4.7688408 -0.014375292 2.2826874 -2.6084164e+38
4.7688198 -0.02310098 2.2826874 -2.6084684e+38
4.7687993 -0.031826667 2.2826874 -2.6218128e+38
4.7687788 -0.040552355 2.2826874 -2.621813e+38
4.7687578 -0.049278047 2.2826874 -2.66169e+38
4.7687373 -0.058003739 2.2826874 -2.6883267e+38
4.7687168 -0.066729426 2.2826874 -2.7015675e+38
4.7686963 -0.075455122 2.2826874 -2.7150683e+38
4.7686753 -0.08418081 2.2826874 -2.7017249e+38
4.7686548 -0.092906497 2.2826874 -2.6887451e+38
4.7686343 -0.10163219 2.2826874 -2.728727e+38
4.7686138 -0.11035788 2.2826874 -2.7685515e+38
4.7685928 -0.11908357 2.2826874 -2.7419147e+38
4.7685723 -0.12780926 2.2826874 -2.7025585e+38
4.7685518 -0.13653496 2.2826874 -2.649391e+38
4.7685308 -0.14526063 2.2826874 -2.5837102e+38
4.7685103 -0.15398633 2.2826874 -2.6892715e+38
4.7084923 -0.16148441 2.2690301 -2.7845501e+38
4.7084723 -0.17009582 2.2690301 nan
4.7084517 -0.17870721 2.2690301 nan
4.7084312 -0.18731862 2.2690301 nan
4.7084107 -0.19593002 2.2690301 nan
4.8945866 0.30084723 2.302176 nan
4.8945651 0.29188347 2.302176 nan
4.8315325 0.27820873 2.287956 nan
4.831512 0.26936489 2.287956 nan
4.831491 0.26052111 2.287956 nan
4.7694597 0.24739541 2.2739615 nan
4.7694392 0.23866974 2.2739615 nan
4.7694182 0.22994404 2.2739615 nan
4.7693977 0.22121836 2.2739615 nan
4.7693772 0.21249269 2.2739615 nan
4.7693567 0.20376696 2.2739615 nan
4.7693357 0.19504128 2.2739615 -3.1821661e+38
4.7693152 0.18631558 2.2739615 -2.8749366e+38
4.7692947 0.17758991 2.2739615 -2.8211432e+38
4.7692738 0.16886421 2.2739615 -2.7680802e+38
4.7692533 0.16013852 2.2739615 -2.6487115e+38
4.8312397 0.15439571 2.287956 -2.5425292e+38
4.7692122 0.14268714 2.2739615 -2.7154329e+38
4.8311982 0.13670814 2.287956 -2.8883867e+38
4.8311772 0.12786436 2.287956 -2.8747811e+38
4.8311563 0.11902058 2.287956 -2.861386e+38
4.8311353 0.11017679 2.287956 -2.768185e+38
4.8311143 0.10133301 2.287956 -2.6882231e+38
4.8310933 0.092489228 2.287956 -2.6482937e+38
4.7690678 0.081607312 2.2739615 -2.6215532e+38
4.7690468 0.072881609 2.2739615 -2.5684358e+38
4.7690263 0.064155921 2.2739615 -2.5154218e+38
4.7690058 0.055430248 2.2739615 -2.4489596e+38
4.7689853 0.046704546 2.2739615 -2.3961598e+38
4.7689643 0.037978858 2.2739615 -2.796232e+38
4.7689438 0.029253162 2.2739615 -3.2076655e+38
4.7689233 0.020527475 2.2739615 -2.8872965e+38
4.7689023 0.011801787 2.2739615 -2.5678654e+38
4.7088795 0.0021322817 2.2604189 -2.5948124e+38
4.7688613 -0.0056495965 2.2739615 -2.6216047e+38
4.7088385 -0.015090525 2.2604189 -2.6083641e+38
4.7688198 -0.02310098 2.2739615 -2.595124e+38
4.7687993 -0.031826667 2.2739615 -2.5951759e+38
4.7687788 -0.040552355 2.2739615 -2.5952801e+38
4.7687578 -0.049278047 2.2739615 -2.6218651e+38
4.7687373 -0.058003739 2.2739615 -2.6483979e+38
4.7687168 -0.066729426 2.2739615 -2.6617421e+38
4.7686963 -0.075455122 2.2739615 -2.688431e+38
4.7686753 -0.08418081 2.2739615 -2.6883273e+38
4.7686548 -0.092906497 2.2739615 -2.701621e+38
4.7686343 -0.10163219 2.2739615 -2.7283106e+38
4.7686138 -0.11035788 2.2739615 -2.7548938e+38
4.8305917 -0.11976163 2.287956 -2.7417556e+38
4.8305707 -0.12860541 2.287956 -2.7285157e+38
4.8305497 -0.1374492 2.287956 -2.702139e+38
4.7685308 -0.14526063 2.2739615 -2.6755054e+38
4.7685103 -0.15398633 2.2739615 -2.6888003e+38
4.7084923 -0.16148441 2.2604189 -2.7156443e+38
4.7084723 -0.17009582 2.2604189 -2.9298261e+38
4.7084517 -0.17870721 2.2604189 -3.1579302e+38
4.7084312 -0.18731862 2.2604189 nan
4.7084107 -0.19593002 2.2604189 nan
4.7083907 -0.20454143 2.2604189 nan
4.8945866 0.30084723 2.2932122 nan
4.8945651 0.29188347 2.2932122 nan
4.8315325 0.27820873 2.2791123 nan
4.831512 0.26936489 2.2791123 nan
4.831491 0.26052111 2.2791123 nan
4.7694597 0.24739541 2.2652359 nan
4.7694392 0.23866974 2.2652359 nan
4.7694182 0.22994404 2.2652359 nan
4.7693977 0.22121836 2.2652359 -3.1563192e+38
4.7693772 0.21249269 2.2652359 -2.7412981e+38
4.7693567 0.20376696 2.2652359 -2.3302698e+38
4.7693357 0.19504128 2.2652359 -2.4081999e+38
4.7693152 0.18631558 2.2652359 -2.4755448e+38
4.7692947 0.17758991 2.2652359 -2.5817798e+38
4.7692738 0.16886421 2.2652359 -2.6886393e+38
4.7692533 0.16013852 2.2652359 -2.6094586e+38
4.7692327 0.15141284 2.2652359 -2.5292374e+38
4.7692122 0.14268714 2.2652359 -2.6751926e+38
4.8311982 0.13670814 2.2791123 -2.8082181e+38
4.8311772 0.12786436 2.2791123 -2.8079053e+38
4.8311563 0.11902058 2.2791123 -2.7946651e+38
4.8311353 0.11017679 2.2791123 -2.7413924e+38
4.8311143 0.10133301 2.2791123 -2.6749304e+38
4.8310933 0.092489228 2.2791123 -2.6482414e+38
4.8310723 0.083645433 2.2791123 -2.6216566e+38
4.8310518 0.074801654 2.2791123 -2.6217085e+38
4.7690263 0.064155921 2.2652359 -2.6217085e+38
4.7690058 0.055430248 2.2652359 -2.6084162e+38
4.7689853 0.046704546 2.2652359 -2.5954909e+38
4.7689643 0.037978858 2.2652359 -2.7156439e+38
4.7689438 0.029253162 2.2652359 -2.8349083e+38
4.7689233 0.020527475 2.2652359 -2.7806464e+38
4.7689023 0.011801787 2.2652359 -2.714288e+38
4.7088795 0.0021322817 2.2518075 -2.6744623e+38
4.7688613 -0.0056495965 2.2652359 -2.6215528e+38
4.7088385 -0.015090525 2.2518075 -2.595072e+38
4.7688198 -0.02310098 2.2652359 -2.5685396e+38
4.7687993 -0.031826667 2.2652359 -2.5685396e+38
4.7687788 -0.040552355 2.2652359 -2.5686437e+38
4.7687578 -0.049278047 2.2652359 -2.5819883e+38
4.7687373 -0.058003739 2.2652359 -2.5952286e+38
4.7687168 -0.066729426 2.2652359 -2.6217615e+38
4.7686963 -0.075455122 2.2652359 -2.6483979e+38
4.7686753 -0.08418081 2.2652359 -2.6747748e+38
4.7686548 -0.092906497 2.2652359 -2.7014642e+38
4.7686343 -0.10163219 2.2652359 -2.7147575e+38
4.7686138 -0.11035788 2.2652359 -2.7282567e+38
4.7685928 -0.11908357 2.2652359 -2.7417039e+38
4.8305707 -0.12860541 2.2791123 -2.7418082e+38
4.8305497 -0.1374492 2.2791123 -2.7551528e+38
4.7685308 -0.14526063 2.2652359 -2.754998e+38
4.7685103 -0.15398633 2.2652359 -2.7013628e+38
4.7684898 -0.16271202 2.2652359 -2.6350564e+38
4.7084723 -0.17009582 2.2518075 -2.2753334e+38
4.7084517 -0.17870721 2.2518075 -1.9052835e+38
4.7084312 -0.18731862 2.2518075 -2.6102467e+38
4.7084107 -0.19593002 2.2518075 -3.3170749e+38
4.7083907 -0.20454143 2.2518075 nan
4.8315535 0.28705251 2.2702684 nan
4.8315325 0.27820873 2.2702684 nan
4.831512 0.26936489 2.2702684 nan
4.831491 0.26052111 2.2702684 nan
4.7694597 0.24739541 2.2565103 nan
4.7694392 0.23866974 2.2565103 nan
4.7694182 0.22994404 2.2565103 nan
4.7693977 0.22121836 2.2565103 -2.7560403e+38
4.7693772 0.21249269 2.2565103 -2.6219215e+38
4.7693567 0.20376696 2.2565103 -2.4753385e+38
4.7693357 0.19504128 2.2565103 -2.5417952e+38
4.8313236 0.18977086 2.2702684 -2.6087266e+38
4.8313026 0.18092705 2.2702684 -2.6619502e+38
4.7692738 0.16886421 2.2565103 -2.7021922e+38
4.7692533 0.16013852 2.2565103 -2.6489208e+38
4.7692327 0.15141284 2.2565103 -2.6088357e+38
4.7692122 0.14268714 2.2565103 -2.6752444e+38
4.7691913 0.13396145 2.2565103 -2.7549455e+38
4.7691708 0.12523575 2.2565103 -2.7414966e+38
4.7691503 0.11651006 2.2565103 -2.7414443e+38
4.7691293 0.10778438 2.2565103 -2.6882227e+38
4.7691088 0.099058688 2.2565103 -2.6483452e+38
4.8310933 0.092489228 2.2702684 -2.6350004e+38
4.8310723 0.083645433 2.2702684 -2.6216562e+38
4.8310518 0.074801654 2.2702684 -2.6084158e+38
4.7690263 0.064155921 2.2565103 -2.5951244e+38
4.7690058 0.055430248 2.2565103 -2.5951771e+38
4.7689853 0.046704546 2.2565103 -2.5953339e+38
4.7689643 0.037978858 2.2565103 -2.6752961e+38
4.7689438 0.029253162 2.2565103 -2.7552564e+38
4.7689233 0.020527475 2.2565103 -2.7146517e+38
4.7689023 0.011801787 2.2565103 -2.6745665e+38
4.7088795 0.0021322817 2.243196 -2.634741e+38
4.7688613 -0.0056495965 2.2565103 -2.5816759e+38
4.7088385 -0.015090525 2.243196 -2.5684877e+38
4.7688198 -0.02310098 2.2565103 -2.5419553e+38
4.7687993 -0.031826667 2.2565103 -2.5420591e+38
4.7687788 -0.040552355 2.2565103 -2.5421112e+38
4.7687578 -0.049278047 2.2565103 -2.5554035e+38
4.7687373 -0.058003739 2.2565103 -2.5819363e+38
4.7687168 -0.066729426 2.2565103 -2.5952286e+38
4.7686963 -0.075455122 2.2565103 -2.621813e+38
4.7686753 -0.08418081 2.2565103 -2.6482935e+38
4.7686548 -0.092906497 2.2565103 -2.6748789e+38
4.7686343 -0.10163219 2.2565103 -2.6749314e+38
4.7686138 -0.11035788 2.2565103 -2.6883794e+38
4.7685928 -0.11908357 2.2565103 -2.6751908e+38
4.8305707 -0.12860541 2.2702684 -2.675347e+38
4.7685518 -0.13653496 2.2565103 -2.7018281e+38
4.7685308 -0.14526063 2.2565103 -2.71512e+38
4.7685103 -0.15398633 2.2565103 -2.6883271e+38
4.7684898 -0.16271202 2.2565103 -2.6617935e+38
4.7684693 -0.17143771 2.2565103 -2.4088237e+38
4.7684484 -0.18016341 2.2565103 -2.1430337e+38
4.7684278 -0.18888909 2.2565103 -2.3701484e+38
4.7684073 -0.19761479 2.2565103 -2.6108678e+38
4.7683864 -0.20634048 2.2565103 nan
4.8315744 0.29589629 2.2614245 nan
4.8315535 0.28705251 2.2614245 nan
4.8315325 0.27820873 2.2614245 nan
4.831512 0.26936489 2.2614245 nan
4.831491 0.26052111 2.2614245 nan
4.83147 0.25167733 2.2614245 nan
4.7694392 0.23866974 2.2477846 nan
4.8314281 0.23398976 2.2614245 -2.9937402e+38
4.7693977 0.22121836 2.2477846 -2.3558136e+38
4.8313861 0.2163022 2.2614245 -2.48832e+38
4.8313656 0.20745842 2.2614245 -2.6216047e+38
4.7693357 0.19504128 2.2477846 -2.6882724e+38
4.8313236 0.18977086 2.2614245 -2.7415987e+38
4.7692947 0.17758991 2.2477846 -2.7284638e+38
4.7692738 0.16886421 2.2477846 -2.7152242e+38
4.7692533 0.16013852 2.2477846 -2.7018291e+38
4.7692327 0.15141284 2.2477846 -2.6752439e+38
4.7692122 0.14268714 2.2477846 -2.6884837e+38
4.7691913 0.13396145 2.2477846 -2.7017236e+38
4.7691708 0.12523575 2.2477846 -2.6883271e+38
4.7691503 0.11651006 2.2477846 -2.6749823e+38
4.7691293 0.10778438 2.2477846 -2.6483454e+38
4.7691088 0.099058688 2.2477846 -2.6217602e+38
4.8310933 0.092489228 2.2614245 -2.6217598e+38
4.8310723 0.083645433 2.2614245 -2.6084156e+38
4.8310518 0.074801654 2.2614245 -2.5951234e+38
4.7690263 0.064155921 2.2477846 -2.5685392e+38
4.7690058 0.055430248 2.2477846 -2.5818319e+38
4.7689853 0.046704546 2.2477846 -2.5818846e+38
4.7689643 0.037978858 2.2477846 -2.6350026e+38
4.7689438 0.029253162 2.2477846 -2.6750344e+38
4.7689233 0.020527475 2.2477846 -2.66143e+38
4.7689023 0.011801787 2.2477846 -2.634845e+38
4.7088795 0.0021322817 2.2345846 -2.594968e+38
4.708859 -0.0064791217 2.2345846 -2.5418508e+38
4.7088385 -0.015090525 2.2345846 -2.5285587e+38
4.7688198 -0.02310098 2.2477846 -2.5154224e+38
4.7687993 -0.031826667 2.2477846 -2.5155784e+38
4.7687788 -0.040552355 2.2477846 -2.5155263e+38
4.7687578 -0.049278047 2.2477846 -2.5421108e+38
4.7687373 -0.058003739 2.2477846 -2.5553512e+38
4.7687168 -0.066729426 2.2477846 -2.5686437e+38
4.7686963 -0.075455122 2.2477846 -2.5819359e+38
4.7686753 -0.08418081 2.2477846 -2.6084686e+38
4.7686548 -0.092906497 2.2477846 -2.6350016e+38
4.7686343 -0.10163219 2.2477846 -2.6349501e+38
4.7686138 -0.11035788 2.2477846 -2.6351059e+38
4.7685928 -0.11908357 2.2477846 -2.6218655e+38
4.7685723 -0.12780926 2.2477846 -2.6086252e+38
4.7685518 -0.13653496 2.2477846 -2.6483984e+38
4.7685308 -0.14526063 2.2477846 -2.6750864e+38
4.7685103 -0.15398633 2.2477846 -2.6883263e+38
4.7684898 -0.16271202 2.2477846 -2.688274e+38
4.7684693 -0.17143771 2.2477846 -2.5417989e+38
4.7684484 -0.18016341 2.2477846 -2.382137e+38
4.7684278 -0.18888909 2.2477846 -2.1430848e+38
4.7684073 -0.19761479 2.2477846 -1.8924068e+38
4.7683864 -0.20634048 2.2477846 -3.2918927e+38
4.8315535 0.28705251 2.2525806 nan
4.8315325 0.27820873 2.2525806 nan
4.7695007 0.2648468 2.239059 nan
4.831491 0.26052111 2.2525806 nan
4.7694597 0.24739541 2.239059 nan
4.7694392 0.23866974 2.239059 -2.8098295e+38
4.7694182 0.22994404 2.239059 -2.6749799e+38
4.7693977 0.22121836 2.239059 -2.5277261e+38
4.8313861 0.2163022 2.2525806 -2.5815181e+38
4.8313656 0.20745842 2.2525806 -2.6350002e+38
4.7693357 0.19504128 2.239059 -2.6750342e+38
4.8313236 0.18977086 2.2525806 -2.7017232e+38
4.7692947 0.17758991 2.239059 -2.7017756e+38
4.7692738 0.16886421 2.239059 -2.6885354e+38
4.7692533 0.16013852 2.239059 -2.6751912e+38
4.7692327 0.15141284 2.239059 -2.6619504e+38
4.7692122 0.14268714 2.239059 -2.6751385e+38
4.7691913 0.13396145 2.239059 -2.6883269e+38
4.7691708 0.12523575 2.239059 -2.6750344e+38
4.7691503 0.11651006 2.239059 -2.6616896e+38
4.7691293 0.10778438 2.239059 -2.6351044e+38
4.7691088 0.099058688 2.239059 -2.6085195e+38
4.8310933 0.092489228 2.2525806 -2.5952268e+38
4.7690678 0.081607312 2.239059 -2.5951749e+38
4.8310518 0.074801654 2.2525806 -2.5818826e+38
4.7690263 0.064155921 2.239059 -2.5685903e+38
4.7690058 0.055430248 2.239059 -2.5685384e+38
4.7689853 0.046704546 2.239059 -2.5684873e+38
4.7689643 0.037978858 2.239059 -2.5951244e+38
4.7689438 0.029253162 2.239059 -2.6217604e+38
4.7689233 0.020527475 2.239059 -2.6083639e+38
4.7689023 0.011801787 2.239059 -2.6083639e+38
4.7088795 0.0021322817 2.2259731 -2.5684871e+38
4.708859 -0.0064791217 2.2259731 -2.5419027e+38
4.7088385 -0.015090525 2.2259731 -2.5286104e+38
4.7688198 -0.02310098 2.239059 -2.5154222e+38
4.7687993 -0.031826667 2.239059 -2.5287147e+38
4.7687788 -0.040552355 2.239059 -2.5419548e+38
4.7687578 -0.049278047 2.239059 -2.5420064e+38
4.7687373 -0.058003739 2.239059 -2.5420066e+38
4.7687168 -0.066729426 2.239059 -2.5685911e+38
4.7686963 -0.075455122 2.239059 -2.5818838e+38
4.7686753 -0.08418081 2.239059 -2.6084167e+38
4.7686548 -0.092906497 2.239059 -2.6217089e+38
4.7686343 -0.10163219 2.239059 -2.621657e+38
4.7686138 -0.11035788 2.239059 -2.6350014e+38
4.7685928 -0.11908357 2.239059 -2.6084688e+38
4.7685723 -0.12780926 2.239059 -2.5951765e+38
4.8305497 -0.1374492 2.2525806 -2.6085205e+38
4.7685308 -0.14526063 2.239059 -2.6352087e+38
4.7685103 -0.15398633 2.239059 -2.6617409e+38
4.7684898 -0.16271202 2.239059 -2.6882738e+38
4.7684693 -0.17143771 2.239059 -2.6082088e+38
4.7684484 -0.18016341 2.239059 -2.5278827e+38
4.7684278 -0.18888909 2.239059 -2.3553932e+38
4.7684073 -0.19761479 2.239059 -2.1689976e+38
4.7683864 -0.20634048 2.239059 -3.2899703e+38
4.7695422 0.28229821 2.2303331 nan
4.7695217 0.2735725 2.2303331 nan
4.7695007 0.2648468 2.2303331 nan
4.7694802 0.2561211 2.2303331 nan
4.7694597 0.24739541 2.2303331 -3.2877297e+38
4.7694392 0.23866974 2.2303331 -1.9836292e+38
4.8314281 0.23398976 2.243737 -2.3419466e+38
4.7693977 0.22121836 2.2303331 -2.7010979e+38
4.8313861 0.2163022 2.243737 -2.6749811e+38
4.8313656 0.20745842 2.243737 -2.6484491e+38
4.7693357 0.19504128 2.2303331 -2.661846e+38
4.8313236 0.18977086 2.243737 -2.6617943e+38
4.7692947 0.17758991 2.2303331 -2.6617945e+38
4.7692738 0.16886421 2.2303331 -2.6618464e+38
4.7692533 0.16013852 2.2303331 -2.6617947e+38
4.7692327 0.15141284 2.2303331 -2.6485539e+38
4.7692122 0.14268714 2.2303331 -2.6617939e+38
4.7691913 0.13396145 2.2303331 -2.6617417e+38
4.7691708 0.12523575 2.2303331 -2.6616896e+38
4.7691503 0.11651006 2.2303331 -2.6483967e+38
4.7691293 0.10778438 2.2303331 -2.6218118e+38
4.7691088 0.099058688 2.2303331 -2.595227e+38
4.7690883 0.090333 2.2303331 -2.5819347e+38
4.7690678 0.081607312 2.2303331 -2.5686424e+38
4.8310518 0.074801654 2.243737 -2.5686424e+38
4.7690263 0.064155921 2.2303331 -2.5553502e+38
4.7690058 0.055430248 2.2303331 -2.5552463e+38
4.7689853 0.046704546 2.2303331 -2.5419544e+38
4.7689643 0.037978858 2.2303331 -2.5552993e+38
4.7689438 0.029253162 2.2303331 -2.555299e+38
4.7689233 0.020527475 2.2303331 -2.5685392e+38
4.7689023 0.011801787 2.2303331 -2.5684873e+38
4.7088795 0.0021322817 2.2173617 -2.555195e+38
4.708859 -0.0064791217 2.2173617 -2.5419027e+38
4.7088385 -0.015090525 2.2173617 -2.5286106e+38
4.7088184 -0.023701929 2.2173617 -2.502078e+38
4.7687993 -0.031826667 2.2303331 -2.541955e+38
4.7687788 -0.040552355 2.2303331 -2.5685394e+38
4.7687578 -0.049278047 2.2303331 -2.5552988e+38
4.7687373 -0.058003739 2.2303331 -2.5287143e+38
4.7687168 -0.066729426 2.2303331 -2.555299e+38
4.7686963 -0.075455122 2.2303331 -2.5818317e+38
4.7686753 -0.08418081 2.2303331 -2.5950203e+38
4.7686548 -0.092906497 2.2303331 -2.6083126e+38
4.7686343 -0.10163219 2.2303331 -2.6216049e+38
4.7686138 -0.11035788 2.2303331 -2.621657e+38
4.7085943 -0.11842738 2.2173617 -2.5950727e+38
4.7685723 -0.12780926 2.2303331 -2.5685917e+38
4.7685518 -0.13653496 2.2303331 -2.5819357e+38
4.7685308 -0.14526063 2.2303331 -2.5952276e+38
4.7685103 -0.15398633 2.2303331 -2.6350523e+38
4.7684898 -0.16271202 2.2303331 -2.6748774e+38
4.8304658 -0.17282434 2.243737 -2.6747738e+38
4.8304453 -0.18166813 2.243737 -2.6746168e+38
4.8304243 -0.19051191 2.243737 -2.5682252e+38
4.8304033 -0.19935569 2.243737 -2.4491208e+38
4.7683864 -0.20634048 2.2303331 -3.3034681e+38
4.7695422 0.28229821 2.2216074 nan
4.7695217 0.2735725 2.2216074 nan
4.7695007 0.2648468 2.2216074 nan
4.7694802 0.2561211 2.2216074 nan
4.7694597 0.24739541 2.2216074 -3.2736022e+38
4.7694392 0.23866974 2.2216074 -2.087006e+38
4.7694182 0.22994404 2.2216074 -2.3815125e+38
4.7693977 0.22121836 2.2216074 -2.6881703e+38
4.8313861 0.2163022 2.2348931 -2.6616902e+38
4.7693567 0.20376696 2.2216074 -2.6351576e+38
4.7693357 0.19504128 2.2216074 -2.6352095e+38
4.7693152 0.18631558 2.2216074 -2.6351576e+38
4.7692947 0.17758991 2.2216074 -2.6351576e+38
4.7692738 0.16886421 2.2216074 -2.6351576e+38
4.7692533 0.16013852 2.2216074 -2.6352095e+38
4.7692327 0.15141284 2.2216074 -2.6485016e+38
4.7692122 0.14268714 2.2216074 -2.6484493e+38
4.7691913 0.13396145 2.2216074 -2.6617411e+38
4.7691708 0.12523575 2.2216074 -2.6483965e+38
4.7691503 0.11651006 2.2216074 -2.6350521e+38
4.7691293 0.10778438 2.2216074 -2.6085191e+38
4.7691088 0.099058688 2.2216074 -2.5952789e+38
4.7690883 0.090333 2.2216074 -2.5819866e+38
4.7690678 0.081607312 2.2216074 -2.5686426e+38
4.8310518 0.074801654 2.2348931 -2.5553504e+38
4.7690263 0.064155921 2.2216074 -2.5554023e+38
4.7690058 0.055430248 2.2216074 -2.542006e+38
4.7689853 0.046704546 2.2216074 -2.5419544e+38
4.7689643 0.037978858 2.2216074 -2.5419548e+38
4.7689438 0.029253162 2.2216074 -2.5552471e+38
4.7689233 0.020527475 2.2216074 -2.5552471e+38
4.7689023 0.011801787 2.2216074 -2.5684875e+38
4.7088795 0.0021322817 2.2087502 -2.5551431e+38
4.708859 -0.0064791217 2.2087502 -2.541851e+38
4.7088385 -0.015090525 2.2087502 -2.5285587e+38
4.7688198 -0.02310098 2.2216074 -2.5285589e+38
4.7687993 -0.031826667 2.2216074 -2.5419031e+38
4.7687788 -0.040552355 2.2216074 -2.5685394e+38
4.7687578 -0.049278047 2.2216074 -2.5552988e+38
4.7687373 -0.058003739 2.2216074 -2.5420068e+38
4.7687168 -0.066729426 2.2216074 -2.5685394e+38
4.7686963 -0.075455122 2.2216074 -2.5817798e+38
4.7686753 -0.08418081 2.2216074 -2.5950201e+38
4.8306541 -0.093230277 2.2348931 -2.6082605e+38
4.7686343 -0.10163219 2.2216074 -2.6082605e+38
4.7686138 -0.11035788 2.2216074 -2.6083126e+38
4.7085943 -0.11842738 2.2087502 -2.5950724e+38
4.7685723 -0.12780926 2.2216074 -2.5818319e+38
4.7685518 -0.13653496 2.2216074 -2.5818315e+38
4.7685308 -0.14526063 2.2216074 -2.5950716e+38
4.8305078 -0.15513678 2.2348931 -2.6217079e+38
4.8304868 -0.16398056 2.2348931 -2.6482927e+38
4.8304658 -0.17282434 2.2348931 -2.6615852e+38
4.8304453 -0.18166813 2.2348931 -2.675032e+38
4.8304243 -0.19051191 2.2348931 -2.5679654e+38
4.8304033 -0.19935569 2.2348931 -2.4734715e+38
4.8303823 -0.20819949 2.2348931 -3.168518e+38
4.7695837 0.29974955 2.2128816 nan
4.7695627 0.29102385 2.2128816 nan
4.7695422 0.28229821 2.2128816 nan
4.7695217 0.2735725 2.2128816 nan
4.7695007 0.2648468 2.2128816 nan
4.7694802 0.2561211 2.2128816 nan
4.7694597 0.24739541 2.2128816 -3.2568806e+38
4.7694392 0.23866974 2.2128816 -2.1943817e+38
4.8314281 0.23398976 2.2260494 -2.435513e+38
4.7693977 0.22121836 2.2128816 -2.6616377e+38
