# .PCD v0.7 - Point Cloud Data file format
VERSION 0.7
FIELDS x y z rgb
SIZE 4 4 4 4
TYPE F F F F
COUNT 1 1 1 1
WIDTH 1070
HEIGHT 1
VIEWPOINT 0 0 0 1 0 0 0
POINTS 1070
DATA ascii
7.6282091 -1.4826664 2.1403341 nan
7.4724975 -0.96701926 2.1074646 -2.3421019e+38
7.3225098 -0.96209574 2.0896075 -2.4757019e+38
7.3224759 -0.97569007 2.0896075 -2.6220203e+38
7.3224416 -0.98928428 2.0896075 -2.5953313e+38
7.3224077 -1.0028785 2.0896075 -2.5819347e+38
7.3223739 -1.0164728 2.0896075 -2.5685382e+38
7.3223395 -1.0300671 2.0896075 -2.5685384e+38
7.3223057 -1.0436612 2.0896075 -2.5685386e+38
7.3222718 -1.0572555 2.0896075 -2.5685388e+38
7.1772881 -1.0504637 2.0723455 -2.5686428e+38
7.3222036 -1.084444 2.0896075 -2.5687467e+38
7.1772213 -1.0770997 2.0723455 -2.5555061e+38
7.1771879 -1.0904177 2.0723455 -2.5422656e+38
7.1771545 -1.1037358 2.0723455 -2.5688499e+38
7.1771216 -1.1170537 2.0723455 -2.5820909e+38
7.1770883 -1.1303719 2.0723455 -2.568799e+38
7.1764889 -1.3700969 2.0723455 nan
7.3213882 -1.4107059 2.0896075 nan
7.471283 -1.4528178 2.1074646 nan
7.4724975 -0.96701926 2.0935845 -2.3555496e+38
7.3225098 -0.96209574 2.0760131 -2.4893054e+38
7.3224759 -0.97569007 2.0760131 -2.6220199e+38
7.3224416 -0.98928428 2.0760131 -2.5952787e+38
7.3224077 -1.0028785 2.0760131 -2.5686418e+38
7.3223739 -1.0164728 2.0760131 -2.5685376e+38
7.3223395 -1.0300671 2.0760131 -2.5552976e+38
7.3223057 -1.0436612 2.0760131 -2.5685384e+38
7.3222718 -1.0572555 2.0760131 -2.5685388e+38
7.322238 -1.0708498 2.0760131 -2.5685911e+38
7.3222036 -1.084444 2.0760131 -2.568695e+38
7.1772213 -1.0770997 2.0590274 -2.5555065e+38
7.1771879 -1.0904177 2.0590274 -2.542266e+38
7.1771545 -1.1037358 2.0590274 -2.5687984e+38
7.1771216 -1.1170537 2.0590274 -2.5953313e+38
7.1770883 -1.1303719 2.0590274 -2.582039e+38
7.1764889 -1.3700969 2.0590274 nan
7.3213882 -1.4107059 2.0760131 nan
7.471283 -1.4528178 2.0935845 -3.3935432e+38
7.4724975 -0.96701926 2.0797045 -2.4215952e+38
7.3225098 -0.96209574 2.0624189 -2.5287664e+38
7.3224759 -0.97569007 2.0624189 -2.6485e+38
7.3224416 -0.98928428 2.0624189 -2.6085704e+38
7.3224077 -1.0028785 2.0624189 -2.5686412e+38
7.3223739 -1.0164728 2.0624189 -2.5553485e+38
7.3223395 -1.0300671 2.0624189 -2.5420569e+38
7.3223057 -1.0436612 2.0624189 -2.5552978e+38
7.3222718 -1.0572555 2.0624189 -2.5685388e+38
7.322238 -1.0708498 2.0624189 -2.5685913e+38
7.3222036 -1.084444 2.0624189 -2.555351e+38
7.3221698 -1.0980383 2.0624189 -2.5422145e+38
7.1771879 -1.0904177 2.0457094 -2.5422664e+38
7.1771545 -1.1037358 2.0457094 -2.5555065e+38
7.3220677 -1.138821 2.0624189 -2.5686948e+38
7.1770883 -1.1303719 2.0457094 -2.5686944e+38
7.176589 -1.3301427 2.0457094 nan
7.1765223 -1.3567787 2.0457094 nan
7.1764889 -1.3700969 2.0457094 nan
7.3213882 -1.4107059 2.0624189 nan
7.4724975 -0.96701926 2.0658245 -2.4751803e+38
7.4724627 -0.98089916 2.0658245 -2.5689546e+38
7.3224759 -0.97569007 2.0488245 -2.6618442e+38
7.3224416 -0.98928428 2.0488245 -2.6218112e+38
7.3224077 -1.0028785 2.0488245 -2.5686933e+38
7.3223739 -1.0164728 2.0488245 -2.5553487e+38
7.3223395 -1.0300671 2.0488245 -2.5287648e+38
7.3223057 -1.0436612 2.0488245 -2.55535e+38
7.3222718 -1.0572555 2.0488245 -2.5685905e+38
7.322238 -1.0708498 2.0488245 -2.5552986e+38
7.3222036 -1.084444 2.0488245 -2.5421102e+38
7.3221698 -1.0980383 2.0488245 -2.542266e+38
7.3221359 -1.1116325 2.0488245 -2.5289735e+38
7.3221021 -1.1252267 2.0488245 -2.5422656e+38
7.3220677 -1.138821 2.0488245 -2.5422134e+38
7.1770883 -1.1303719 2.0323911 -2.5421613e+38
7.1770549 -1.1436899 2.0323911 -2.54211e+38
7.1770215 -1.1570079 2.0323911 -2.5288183e+38
7.1767883 -1.2502344 2.0323911 -2.5815727e+38
7.1767554 -1.2635523 2.0323911 -2.5679693e+38
7.176722 -1.2768705 2.0323911 -2.555825e+38
7.1766887 -1.2901886 2.0323911 -2.9550662e+38
7.176589 -1.3301427 2.0323911 nan
7.1765556 -1.3434607 2.0323911 nan
7.1765223 -1.3567787 2.0323911 nan
7.1764889 -1.3700969 2.0323911 nan
7.3213882 -1.4107059 2.0488245 nan
7.471283 -1.4528178 2.0658245 nan
7.4724975 -0.96701926 2.0519445 -2.4753884e+38
7.4724627 -0.98089916 2.0519445 -2.5555583e+38
7.3224759 -0.97569007 2.0352302 -2.6485002e+38
7.3224416 -0.98928428 2.0352302 -2.608571e+38
7.3224077 -1.0028785 2.0352302 -2.5687457e+38
7.3223739 -1.0164728 2.0352302 -2.5554009e+38
7.3223395 -1.0300671 2.0352302 -2.5553496e+38
7.3223057 -1.0436612 2.0352302 -2.555298e+38
7.3222718 -1.0572555 2.0352302 -2.5685905e+38
7.322238 -1.0708498 2.0352302 -2.5553502e+38
7.3222036 -1.084444 2.0352302 -2.5554021e+38
7.3221698 -1.0980383 2.0352302 -2.5288692e+38
7.3221359 -1.1116325 2.0352302 -2.5156287e+38
7.3221021 -1.1252267 2.0352302 -2.5289206e+38
7.3220677 -1.138821 2.0352302 -2.5422128e+38
7.3220339 -1.1524153 2.0352302 -2.5288686e+38
7.1770549 -1.1436899 2.019073 -2.5288173e+38
7.1770215 -1.1570079 2.019073 -2.5155256e+38
7.1769881 -1.170326 2.019073 -2.5155256e+38
7.1769552 -1.1836441 2.019073 -2.5155776e+38
7.1769218 -1.1969621 2.019073 -2.5288179e+38
7.1768885 -1.2102802 2.019073 -2.5420583e+38
7.1768551 -1.2235982 2.019073 -2.5552986e+38
7.1768217 -1.2369163 2.019073 -2.5684869e+38
7.3217282 -1.2747635 2.0352302 -2.56828e+38
7.3216944 -1.2883577 2.0352302 -2.5682289e+38
7.176722 -1.2768705 2.019073 -2.5681788e+38
7.3216262 -1.3155462 2.0352302 -2.7016744e+38
7.1766553 -1.3035065 2.019073 -2.8345444e+38
7.1766219 -1.3168247 2.019073 -2.9014721e+38
7.3215241 -1.356329 2.0352302 -2.9680903e+38
7.1765556 -1.3434607 2.019073 -2.8885453e+38
7.3214564 -1.3835174 2.0352302 -2.8099335e+38
7.3214221 -1.3971117 2.0352302 -3.1822725e+38
7.4713178 -1.4389379 2.0519445 nan
7.6282091 -1.4826664 2.0694389 nan
7.4724975 -0.96701926 2.0380645 -2.4625626e+38
7.4724627 -0.98089916 2.0380645 -2.5558696e+38
7.3224759 -0.97569007 2.021636 -2.6353635e+38
7.3224416 -0.98928428 2.021636 -2.6085712e+38
7.3224077 -1.0028785 2.021636 -2.5686422e+38
7.3223739 -1.0164728 2.021636 -2.568694e+38
7.3223395 -1.0300671 2.021636 -2.568642e+38
7.3223057 -1.0436612 2.021636 -2.5685384e+38
7.3222718 -1.0572555 2.021636 -2.555298e+38
7.322238 -1.0708498 2.021636 -2.5553502e+38
7.3222036 -1.084444 2.021636 -2.5554019e+38
7.3221698 -1.0980383 2.021636 -2.5287654e+38
7.3221359 -1.1116325 2.021636 -2.5022845e+38
7.3221021 -1.1252267 2.021636 -2.5288171e+38
7.3220677 -1.138821 2.021636 -2.5421615e+38
7.3220339 -1.1524153 2.021636 -2.5288173e+38
7.1770549 -1.1436899 2.0057549 -2.502233e+38
7.1770215 -1.1570079 2.0057549 -2.5022853e+38
7.1769881 -1.170326 2.0057549 -2.5022853e+38
7.1769552 -1.1836441 2.0057549 -2.5156297e+38
7.1769218 -1.1969621 2.0057549 -2.5156297e+38
7.1768885 -1.2102802 2.0057549 -2.5422143e+38
7.1768551 -1.2235982 2.0057549 -2.5686948e+38
7.1768217 -1.2369163 2.0057549 -2.568539e+38
7.3217282 -1.2747635 2.021636 -2.5552471e+38
7.3216944 -1.2883577 2.021636 -2.56854e+38
7.32166 -1.3019519 2.021636 -2.5817816e+38
7.1766887 -1.2901886 2.0057549 -2.4489119e+38
7.1766553 -1.3035065 2.0057549 -2.3158839e+38
7.1766219 -1.3168247 2.0057549 -2.3820842e+38
7.176589 -1.3301427 2.0057549 -2.4353051e+38
7.1765556 -1.3434607 2.0057549 -2.2081421e+38
7.3214564 -1.3835174 2.021636 -1.9836284e+38
7.3214221 -1.3971117 2.021636 -2.5826649e+38
7.4713178 -1.4389379 2.0380645 -3.169811e+38
7.6294851 -0.97222215 2.0410807 -3.0345436e+38
7.4724975 -0.96701926 2.0241845 -2.515835e+38
7.3225098 -0.96209574 2.0080416 -2.5690057e+38
7.3224759 -0.97569007 2.0080416 -2.6353635e+38
7.3224416 -0.98928428 2.0080416 -2.5819866e+38
7.3224077 -1.0028785 2.0080416 -2.5419023e+38
7.3223739 -1.0164728 2.0080416 -2.5420062e+38
7.3223395 -1.0300671 2.0080416 -2.542006e+38
7.3223057 -1.0436612 2.0080416 -2.5420058e+38
7.3222718 -1.0572555 2.0080416 -2.5552461e+38
7.322238 -1.0708498 2.0080416 -2.5420577e+38
7.3222036 -1.084444 2.0080416 -2.5288173e+38
7.3221698 -1.0980383 2.0080416 -2.5155248e+38
7.3221359 -1.1116325 2.0080416 -2.5022847e+38
7.3221021 -1.1252267 2.0080416 -2.5155252e+38
7.3220677 -1.138821 2.0080416 -2.5288696e+38
7.3220339 -1.1524153 2.0080416 -2.5155256e+38
7.322 -1.1660095 2.0080416 -2.5155256e+38
7.3219662 -1.1796038 2.0080416 -2.5155774e+38
7.3219318 -1.193198 2.0080416 -2.5289218e+38
7.321898 -1.2067922 2.0080416 -2.5156297e+38
7.3218641 -1.2203864 2.0080416 -2.5156297e+38
7.3218303 -1.2339807 2.0080416 -2.528922e+38
7.3217959 -1.247575 2.0080416 -2.5422143e+38
7.3217621 -1.2611692 2.0080416 -2.5554025e+38
7.3217282 -1.2747635 2.0080416 -2.5686952e+38
7.3216944 -1.2883577 2.0080416 -2.5686435e+38
7.32166 -1.3019519 2.0080416 -2.5686443e+38
7.3216262 -1.3155462 2.0080416 -2.5020796e+38
7.3215923 -1.3291404 2.0080416 -2.4354604e+38
7.1766219 -1.3168247 1.9924369 -2.462043e+38
7.3215241 -1.356329 2.0080416 -2.4885744e+38
7.3214903 -1.3699232 2.0080416 -2.3284427e+38
7.3214564 -1.3835174 2.0080416 -2.1547115e+38
7.4713526 -1.4250579 2.0241845 -2.7021901e+38
7.4713178 -1.4389379 2.0241845 -3.2495641e+38
7.4724975 -0.96701926 2.0103045 -2.5552966e+38
7.3225098 -0.96209574 1.9944475 -2.5955387e+38
7.3224759 -0.97569007 1.9944475 -2.6219675e+38
7.3224416 -0.98928428 1.9944475 -2.5685907e+38
7.3224077 -1.0028785 1.9944475 -2.5154214e+38
7.3223739 -1.0164728 1.9944475 -2.5154733e+38
7.3223395 -1.0300671 1.9944475 -2.5021808e+38
7.3223057 -1.0436612 1.9944475 -2.5287654e+38
7.3222718 -1.0572555 1.9944475 -2.55535e+38
7.322238 -1.0708498 1.9944475 -2.5287656e+38
7.3222036 -1.084444 1.9944475 -2.4888888e+38
7.3221698 -1.0980383 1.9944475 -2.4889407e+38
7.3221359 -1.1116325 1.9944475 -2.4889409e+38
7.3221021 -1.1252267 1.9944475 -2.5021816e+38
7.3220677 -1.138821 1.9944475 -2.5155261e+38
7.3220339 -1.1524153 1.9944475 -2.5154743e+38
7.322 -1.1660095 1.9944475 -2.5155261e+38
7.3219662 -1.1796038 1.9944475 -2.5288699e+38
7.3219318 -1.193198 1.9944475 -2.5421621e+38
7.321898 -1.2067922 1.9944475 -2.5289218e+38
7.3218641 -1.2203864 1.9944475 -2.5155776e+38
7.3218303 -1.2339807 1.9944475 -2.5155259e+38
7.471734 -1.2723783 2.0103045 -2.5155776e+38
7.3217621 -1.2611692 1.9944475 -2.5421102e+38
7.3217282 -1.2747635 1.9944475 -2.5686952e+38
7.3216944 -1.2883577 1.9944475 -2.5552993e+38
7.32166 -1.3019519 1.9944475 -2.5420593e+38
7.3216262 -1.3155462 1.9944475 -2.555352e+38
7.3215923 -1.3291404 1.9944475 -2.555299e+38
7.3215585 -1.3427347 1.9944475 -2.55535e+38
7.3215241 -1.356329 1.9944475 -2.5420053e+38
7.3214903 -1.3699232 1.9944475 -2.4356669e+38
7.3214564 -1.3835174 1.9944475 -2.3291745e+38
7.4713526 -1.4250579 2.0103045 -2.8218732e+38
7.6282444 -1.4684874 2.0269017 -3.3158188e+38
7.6282091 -1.4826664 2.0269017 nan
7.4724975 -0.96701926 1.9964246 -2.5950698e+38
7.4724627 -0.98089916 1.9964246 -2.6086755e+38
7.3224759 -0.97569007 1.9808531 -2.6219158e+38
7.3224416 -0.98928428 1.9808531 -2.5686948e+38
7.3224077 -1.0028785 1.9808531 -2.5155252e+38
7.3223739 -1.0164728 1.9808531 -2.5155248e+38
7.3223395 -1.0300671 1.9808531 -2.528869e+38
7.3223057 -1.0436612 1.9808531 -2.5420575e+38
7.3222718 -1.0572555 1.9808531 -2.5554019e+38
7.322238 -1.0708498 1.9808531 -2.5287137e+38
7.1772547 -1.0637816 1.9658008 -2.5021293e+38
7.3221698 -1.0980383 1.9808531 -2.5021293e+38
7.3221359 -1.1116325 1.9808531 -2.5021299e+38
7.3221021 -1.1252267 1.9808531 -2.5021823e+38
7.3220677 -1.138821 1.9808531 -2.5021825e+38
7.3220339 -1.1524153 1.9808531 -2.5154749e+38
7.322 -1.1660095 1.9808531 -2.5288187e+38
7.3219662 -1.1796038 1.9808531 -2.5288701e+38
7.3219318 -1.193198 1.9808531 -2.5421102e+38
7.321898 -1.2067922 1.9808531 -2.5288694e+38
7.3218641 -1.2203864 1.9808531 -2.5288177e+38
7.3218303 -1.2339807 1.9808531 -2.5154737e+38
7.471734 -1.2723783 1.9964246 -2.5155256e+38
7.3217621 -1.2611692 1.9808531 -2.5288179e+38
7.3217282 -1.2747635 1.9808531 -2.5288183e+38
7.3216944 -1.2883577 1.9808531 -2.5287666e+38
7.32166 -1.3019519 1.9808531 -2.5287668e+38
7.3216262 -1.3155462 1.9808531 -2.5287149e+38
7.3215923 -1.3291404 1.9808531 -2.5287668e+38
7.3215585 -1.3427347 1.9808531 -2.5421108e+38
7.3215241 -1.356329 1.9808531 -2.5554558e+38
7.3214903 -1.3699232 1.9808531 -2.4491701e+38
7.3214564 -1.3835174 1.9808531 -2.3429879e+38
7.4713526 -1.4250579 1.9964246 -2.9020427e+38
7.4713178 -1.4389379 1.9964246 nan
7.4724975 -0.96701926 1.9825445 -2.6217588e+38
7.4724627 -0.98089916 1.9825445 -2.6221241e+38
7.3224759 -0.97569007 1.9672588 -2.6086761e+38
7.3224416 -0.98928428 1.9672588 -2.5555069e+38
7.3224077 -1.0028785 1.9672588 -2.502233e+38
7.3223739 -1.0164728 1.9672588 -2.5288165e+38
7.3223395 -1.0300671 1.9672588 -2.5419534e+38
7.3223057 -1.0436612 1.9672588 -2.5552461e+38
7.3222718 -1.0572555 1.9672588 -2.5552467e+38
7.1772881 -1.0504637 1.9524827 -2.5419029e+38
7.1772547 -1.0637816 1.9524827 -2.5153705e+38
7.3221698 -1.0980383 1.9672588 -2.515319e+38
7.3221359 -1.1116325 1.9672588 -2.5020786e+38
7.3221021 -1.1252267 1.9672588 -2.5021305e+38
7.3220677 -1.138821 1.9672588 -2.4888383e+38
7.3220339 -1.1524153 1.9672588 -2.5153188e+38
7.322 -1.1660095 1.9672588 -2.5287666e+38
7.3219662 -1.1796038 1.9672588 -2.5288701e+38
7.3219318 -1.193198 1.9672588 -2.5288179e+38
7.321898 -1.2067922 1.9672588 -2.5288696e+38
7.3218641 -1.2203864 1.9672588 -2.5287656e+38
7.3218303 -1.2339807 1.9672588 -2.5286618e+38
7.3217959 -1.247575 1.9672588 -2.5155256e+38
7.3217621 -1.2611692 1.9672588 -2.5021819e+38
7.3217282 -1.2747635 1.9672588 -2.48889e+38
7.3216944 -1.2883577 1.9672588 -2.5020786e+38
7.32166 -1.3019519 1.9672588 -2.5020784e+38
7.3216262 -1.3155462 1.9672588 -2.5020263e+38
7.3215923 -1.3291404 1.9672588 -2.5021301e+38
7.3215585 -1.3427347 1.9672588 -2.5288705e+38
7.3215241 -1.356329 1.9672588 -2.5555593e+38
7.3214903 -1.3699232 1.9672588 -2.4493253e+38
7.4713874 -1.411178 1.9825445 -2.3429347e+38
7.4713526 -1.4250579 1.9825445 -2.981327e+38
7.4713178 -1.4389379 1.9825445 nan
7.471283 -1.4528178 1.9825445 nan
7.4724975 -0.96701926 1.9686645 -2.4619407e+38
7.4724627 -0.98089916 1.9686645 -2.4356693e+38
7.3224759 -0.97569007 1.9536645 -2.4092405e+38
7.3224416 -0.98928428 1.9536645 -2.6350533e+38
7.3224077 -1.0028785 1.9536645 -2.8742091e+38
7.1774211 -0.99719137 1.9391645 -2.6618425e+38
7.3223395 -1.0300671 1.9536645 -2.4618361e+38
7.3223057 -1.0436612 1.9536645 -2.5286618e+38
7.177321 -1.0371455 1.9391645 -2.5817278e+38
7.1772881 -1.0504637 1.9391645 -2.5819883e+38
7.1772547 -1.0637816 1.9391645 -2.5819367e+38
7.3221698 -1.0980383 1.9536645 -2.5554564e+38
7.3221359 -1.1116325 1.9536645 -2.5419561e+38
7.3221021 -1.1252267 1.9536645 -2.5422153e+38
7.3220677 -1.138821 1.9536645 -2.5420591e+38
7.3220339 -1.1524153 1.9536645 -2.5421625e+38
7.322 -1.1660095 1.9536645 -2.5420587e+38
7.3219662 -1.1796038 1.9536645 -2.5421623e+38
7.3219318 -1.193198 1.9536645 -2.5553506e+38
7.321898 -1.2067922 1.9536645 -2.5421619e+38
7.3218641 -1.2203864 1.9536645 -2.5420579e+38
7.3218303 -1.2339807 1.9536645 -2.528869e+38
7.3217959 -1.247575 1.9536645 -2.5289218e+38
7.3217621 -1.2611692 1.9536645 -2.5288707e+38
7.3217282 -1.2747635 1.9536645 -2.5287153e+38
7.3216944 -1.2883577 1.9536645 -2.5287155e+38
7.32166 -1.3019519 1.9536645 -2.5417995e+38
7.3216262 -1.3155462 1.9536645 -2.5419027e+38
7.3215923 -1.3291404 1.9536645 -2.5419029e+38
7.3215585 -1.3427347 1.9536645 -2.5156301e+38
7.3215241 -1.356329 1.9536645 -2.4890977e+38
7.3214903 -1.3699232 1.9536645 -2.4357209e+38
7.3214564 -1.3835174 1.9536645 -2.3822909e+38
7.4713526 -1.4250579 1.9686645 -3.0483056e+38
7.4713178 -1.4389379 1.9686645 nan
7.471283 -1.4528178 1.9686645 nan
7.4724975 -0.96701926 1.9547845 -2.2889314e+38
7.4724627 -0.98089916 1.9547845 -2.2492659e+38
7.3224759 -0.97569007 1.9400703 -2.1960962e+38
7.3224416 -0.98928428 1.9400703 -2.7145983e+38
7.1774545 -0.98387331 1.9258465 -3.2337246e+38
7.1774211 -0.99719137 1.9258465 -2.8090472e+38
7.1773877 -1.0105095 1.9258465 -2.3828639e+38
7.1773543 -1.0238276 1.9258465 -2.5024946e+38
7.177321 -1.0371455 1.9258465 -2.6089373e+38
7.1772881 -1.0504637 1.9258465 -2.6223858e+38
7.1772547 -1.0637816 1.9258465 -2.6356265e+38
7.1772213 -1.0770997 1.9258465 -2.6090941e+38
7.3221359 -1.1116325 1.9400703 -2.5824574e+38
7.3221021 -1.1252267 1.9400703 -2.582613e+38
7.1771216 -1.1170537 1.9258465 -2.5824566e+38
7.3220339 -1.1524153 1.9400703 -2.5691637e+38
7.322 -1.1660095 1.9400703 -2.5557156e+38
7.3219662 -1.1796038 1.9400703 -2.5688524e+38
7.3219318 -1.193198 1.9400703 -2.5688522e+38
7.321898 -1.2067922 1.9400703 -2.5555599e+38
7.3218641 -1.2203864 1.9400703 -2.5422674e+38
7.3218303 -1.2339807 1.9400703 -2.5423708e+38
7.3217959 -1.247575 1.9400703 -2.5423195e+38
7.3217621 -1.2611692 1.9400703 -2.5555607e+38
7.3217282 -1.2747635 1.9400703 -2.5555609e+38
7.3216944 -1.2883577 1.9400703 -2.5688536e+38
7.32166 -1.3019519 1.9400703 -2.5820937e+38
7.3216262 -1.3155462 1.9400703 -2.5819378e+38
7.3215923 -1.3291404 1.9400703 -2.5821469e+38
7.3215585 -1.3427347 1.9400703 -2.5027064e+38
7.3215241 -1.356329 1.9400703 -2.4093994e+38
7.3214903 -1.3699232 1.9400703 -2.4222229e+38
7.3214564 -1.3835174 1.9400703 -2.4227417e+38
7.3214221 -1.3971117 1.9400703 -3.1289976e+38
7.3213882 -1.4107059 1.9400703 nan
7.4724975 -0.96701926 1.9409046 -2.3815601e+38
7.4724627 -0.98089916 1.9409046 -2.6747746e+38
7.4724278 -0.99477917 1.9409046 -2.9664247e+38
7.3224416 -0.98928428 1.926476 -3.2204826e+38
7.3224077 -1.0028785 1.926476 nan
7.3223739 -1.0164728 1.926476 -2.9414019e+38
7.1773877 -1.0105095 1.9125283 -2.4226393e+38
7.1773543 -1.0238276 1.9125283 -2.5430485e+38
7.177321 -1.0371455 1.9125283 -2.6627311e+38
7.1772881 -1.0504637 1.9125283 -2.7292966e+38
7.1772547 -1.0637816 1.9125283 -2.7954986e+38
7.1772213 -1.0770997 1.9125283 -2.7423816e+38
7.3221359 -1.1116325 1.926476 -2.6891086e+38
7.3221021 -1.1252267 1.926476 -2.6625238e+38
7.3220677 -1.138821 1.926476 -2.6491788e+38
7.3220339 -1.1524153 1.926476 -2.6093012e+38
7.322 -1.1660095 1.926476 -2.569269e+38
7.3219662 -1.1796038 1.926476 -2.5691653e+38
7.3219318 -1.193198 1.926476 -2.5557694e+38
7.321898 -1.2067922 1.926476 -2.5557175e+38
7.3218641 -1.2203864 1.926476 -2.5556653e+38
7.3218303 -1.2339807 1.926476 -2.5823014e+38
7.3217959 -1.247575 1.926476 -2.6088347e+38
7.3217621 -1.2611692 1.926476 -2.6090947e+38
7.3217282 -1.2747635 1.926476 -2.6090432e+38
7.3216944 -1.2883577 1.926476 -2.6224395e+38
7.32166 -1.3019519 1.926476 -2.6489723e+38
7.3216262 -1.3155462 1.926476 -2.6755052e+38
7.3215923 -1.3291404 1.926476 -2.7019887e+38
7.3215585 -1.3427347 1.926476 -2.6493417e+38
7.3215241 -1.356329 1.926476 -2.6090985e+38
7.3214903 -1.3699232 1.926476 -2.7287779e+38
7.3214564 -1.3835174 1.926476 -2.8606108e+38
7.3214221 -1.3971117 1.926476 nan
7.3213882 -1.4107059 1.926476 nan
7.4724278 -0.99477917 1.9270246 nan
7.3224416 -0.98928428 1.9128816 nan
7.3224077 -1.0028785 1.9128816 nan
7.3223739 -1.0164728 1.9128816 -3.0735984e+38
7.3223395 -1.0300671 1.9128816 -2.4496417e+38
7.1773543 -1.0238276 1.8992102 -2.5842278e+38
7.177321 -1.0371455 1.8992102 -2.7035474e+38
7.1772881 -1.0504637 1.8992102 -2.8232305e+38
7.1772547 -1.0637816 1.8992102 -2.9424971e+38
7.3221698 -1.0980383 1.9128816 -2.8757759e+38
7.3221359 -1.1116325 1.9128816 -2.7960218e+38
7.1771545 -1.1037358 1.8992102 -2.7557294e+38
7.3220677 -1.138821 1.9128816 -2.7027146e+38
7.3220339 -1.1524153 1.9128816 -2.6495962e+38
7.322 -1.1660095 1.9128816 -2.5829269e+38
7.3219662 -1.1796038 1.9128816 -2.5695308e+38
7.3219318 -1.193198 1.9128816 -2.5426864e+38
7.321898 -1.2067922 1.9128816 -2.5558749e+38
7.3218641 -1.2203864 1.9128816 -2.5690633e+38
7.3218303 -1.2339807 1.9128816 -2.6222324e+38
7.3217959 -1.247575 1.9128816 -2.6623178e+38
7.3217621 -1.2611692 1.9128816 -2.6629934e+38
7.3217282 -1.2747635 1.9128816 -2.6494936e+38
7.3216944 -1.2883577 1.9128816 -2.6894745e+38
7.32166 -1.3019519 1.9128816 -2.7160073e+38
7.3216262 -1.3155462 1.9128816 -2.7691769e+38
7.3215923 -1.3291404 1.9128816 -2.809419e+38
7.3215585 -1.3427347 1.9128816 -2.8100439e+38
7.3215241 -1.356329 1.9128816 -2.8099398e+38
7.3214903 -1.3699232 1.9128816 -3.0497718e+38
7.3214564 -1.3835174 1.9128816 -3.2886668e+38
7.3214221 -1.3971117 1.9128816 nan
7.1764555 -1.3834149 1.8992102 nan
7.629343 -1.0289382 1.9276483 nan
7.4723587 -1.0225391 1.9131446 nan
7.4723239 -1.036419 1.9131446 -3.2606253e+38
7.3223395 -1.0300671 1.8992875 -2.4358847e+38
7.3223057 -1.0436612 1.8992875 -2.6635706e+38
7.177321 -1.0371455 1.8858922 -2.9034557e+38
7.322238 -1.0708498 1.8992875 -2.9701256e+38
7.3222036 -1.084444 1.8992875 -3.0361189e+38
7.3221698 -1.0980383 1.8992875 -3.0096893e+38
7.3221359 -1.1116325 1.8992875 -2.9697082e+38
7.3221021 -1.1252267 1.8992875 -2.8896945e+38
7.3220677 -1.138821 1.8992875 -2.8095236e+38
7.3220339 -1.1524153 1.8992875 -2.7295602e+38
7.322 -1.1660095 1.8992875 -2.6628388e+38
7.3219662 -1.1796038 1.8992875 -2.636046e+38
7.3219318 -1.193198 1.8992875 -2.5959093e+38
7.321898 -1.2067922 1.8992875 -2.6090973e+38
7.3218641 -1.2203864 1.8992875 -2.6355784e+38
7.3218303 -1.2339807 1.8992875 -2.6621634e+38
7.3217959 -1.247575 1.8992875 -2.6886971e+38
7.3217621 -1.2611692 1.8992875 -2.6760806e+38
7.3217282 -1.2747635 1.8992875 -2.6763404e+38
7.3216944 -1.2883577 1.8992875 -2.7030807e+38
7.32166 -1.3019519 1.8992875 -2.7430618e+38
7.3216262 -1.3155462 1.8992875 -2.8498157e+38
7.3215923 -1.3291404 1.8992875 -2.9696547e+38
7.3215585 -1.3427347 1.8992875 -2.9567786e+38
7.3215241 -1.356329 1.8992875 -2.9436447e+38
7.3214903 -1.3699232 1.8992875 -3.1032584e+38
7.3214564 -1.3835174 1.8992875 -3.2761566e+38
7.3214221 -1.3971117 1.8992875 nan
7.6293077 -1.0431172 1.9134693 nan
7.4723239 -1.036419 1.8992646 nan
7.3223395 -1.0300671 1.8856931 -2.4099245e+38
7.3223057 -1.0436612 1.8856931 -2.7573451e+38
7.3222718 -1.0572555 1.8856931 -3.0901204e+38
7.322238 -1.0708498 1.8856931 -3.1176927e+38
7.3222036 -1.084444 1.8856931 -3.1304137e+38
7.3221698 -1.0980383 1.8856931 -3.1437577e+38
7.3221359 -1.1116325 1.8856931 -3.1434972e+38
7.3221021 -1.1252267 1.8856931 -3.0238659e+38
7.3220677 -1.138821 1.8856931 -2.9033505e+38
7.3220339 -1.1524153 1.8856931 -2.8229196e+38
7.322 -1.1660095 1.8856931 -2.742801e+38
7.3219662 -1.1796038 1.8856931 -2.7026633e+38
7.3219318 -1.193198 1.8856931 -2.6491823e+38
7.321898 -1.2067922 1.8856931 -2.6755589e+38
7.3218641 -1.2203864 1.8856931 -2.6887999e+38
7.3218303 -1.2339807 1.8856931 -2.7020926e+38
7.3217959 -1.247575 1.8856931 -2.7024575e+38
7.1768217 -1.2369163 1.8725741 -2.702926e+38
7.3217282 -1.2747635 1.8856931 -2.6899461e+38
7.3216944 -1.2883577 1.8856931 -2.7300831e+38
7.32166 -1.3019519 1.8856931 -2.7704285e+38
7.3216262 -1.3155462 1.8856931 -2.9440084e+38
7.3215923 -1.3291404 1.8856931 -3.1167048e+38
7.3215585 -1.3427347 1.8856931 -3.0904843e+38
7.3215241 -1.356329 1.8856931 -3.0636399e+38
7.3214903 -1.3699232 1.8856931 -3.156634e+38
7.1765223 -1.3567787 1.8725741 -3.2500902e+38
7.1764889 -1.3700969 1.8725741 nan
7.6292725 -1.0572962 1.8992903 -3.3280236e+38
7.4722891 -1.050299 1.8853846 -2.5024526e+38
7.3223057 -1.0436612 1.8720988 -2.7836715e+38
7.3222718 -1.0572555 1.8720988 -3.0635896e+38
7.322238 -1.0708498 1.8720988 -3.1041427e+38
7.3222036 -1.084444 1.8720988 -3.1310913e+38
7.3221698 -1.0980383 1.8720988 -3.1574686e+38
7.3221359 -1.1116325 1.8720988 -3.1973961e+38
7.3221021 -1.1252267 1.8720988 -3.1569986e+38
7.3220677 -1.138821 1.8720988 -3.1166521e+38
7.3220339 -1.1524153 1.8720988 -2.9428632e+38
7.322 -1.1660095 1.8720988 -2.7561462e+38
7.3219662 -1.1796038 1.8720988 -2.729144e+38
7.3219318 -1.193198 1.8720988 -2.7022997e+38
7.321898 -1.2067922 1.8720988 -2.6889553e+38
7.3218641 -1.2203864 1.8720988 -2.6888001e+38
7.3218303 -1.2339807 1.8720988 -2.7023526e+38
7.3217959 -1.247575 1.8720988 -2.7160621e+38
7.1768217 -1.2369163 1.859256 -2.7432194e+38
7.1767883 -1.2502344 1.859256 -2.7701169e+38
7.1767554 -1.2635523 1.859256 -2.7970662e+38
7.32166 -1.3019519 1.8720988 -2.8373087e+38
7.3216262 -1.3155462 1.8720988 -2.9574088e+38
7.3215923 -1.3291404 1.8720988 -3.0905397e+38
7.3215585 -1.3427347 1.8720988 -3.1170727e+38
7.3215241 -1.356329 1.8720988 -3.1303104e+38
7.3214903 -1.3699232 1.8720988 -3.1832173e+38
7.1765223 -1.3567787 1.859256 -3.2362777e+38
7.1764889 -1.3700969 1.859256 nan
7.6292367 -1.0714753 1.8851112 -2.5966928e+38
7.4722548 -1.0641789 1.8715045 -2.8244839e+38
7.3222718 -1.0572555 1.8585045 -3.0373689e+38
7.322238 -1.0708498 1.8585045 -3.0907987e+38
7.3222036 -1.084444 1.8585045 -3.1308317e+38
7.3221698 -1.0980383 1.8585045 -3.1841051e+38
7.3221359 -1.1116325 1.8585045 -3.2371693e+38
7.1771545 -1.1037358 1.8459378 -3.2901299e+38
7.3220677 -1.138821 1.8585045 -3.3293813e+38
7.3220339 -1.1524153 1.8585045 -3.0492023e+38
7.322 -1.1660095 1.8585045 -2.7694381e+38
7.4719076 -1.2029786 1.8715045 -2.7687598e+38
7.4718728 -1.2168586 1.8715045 -2.7556235e+38
7.4718385 -1.2307385 1.8715045 -2.715799e+38
7.4718037 -1.2446185 1.8715045 -2.6757668e+38
7.4717689 -1.2584984 1.8715045 -2.7024037e+38
7.3217959 -1.247575 1.8585045 -2.7296661e+38
7.3217621 -1.2611692 1.8585045 -2.7970648e+38
7.3217282 -1.2747635 1.8585045 -2.8503389e+38
7.3216944 -1.2883577 1.8585045 -2.8772882e+38
7.32166 -1.3019519 1.8585045 -2.8909453e+38
7.3216262 -1.3155462 1.8585045 -2.9842523e+38
7.3215923 -1.3291404 1.8585045 -3.0639541e+38
7.3215585 -1.3427347 1.8585045 -3.1303636e+38
7.3215241 -1.356329 1.8585045 -3.1966146e+38
7.3214903 -1.3699232 1.8585045 -3.209593e+38
7.3214564 -1.3835174 1.8585045 -3.2236075e+38
7.3214221 -1.3971117 1.8585045 nan
7.6292367 -1.0714753 1.8709321 -2.6232774e+38
7.4722548 -1.0641789 1.8576245 -2.8242251e+38
7.4722199 -1.078059 1.8576245 -3.0110446e+38
7.4721851 -1.091939 1.8576245 -3.0642141e+38
7.3222036 -1.084444 1.8449103 -3.1040914e+38
7.3221698 -1.0980383 1.8449103 -3.1574165e+38
7.3221359 -1.1116325 1.8449103 -3.2239294e+38
7.1771545 -1.1037358 1.8326198 -3.2503578e+38
7.3220677 -1.138821 1.8449103 -3.2899725e+38
7.4719772 -1.1752187 1.8576245 -3.0228782e+38
7.4719424 -1.1890986 1.8576245 -2.7694377e+38
7.4719076 -1.2029786 1.8576245 -2.7955505e+38
7.4718728 -1.2168586 1.8576245 -2.8089476e+38
7.6287761 -1.2558024 1.8709321 -2.7557274e+38
7.4718037 -1.2446185 1.8576245 -2.7022989e+38
7.4717689 -1.2584984 1.8576245 -2.7291432e+38
7.3217959 -1.247575 1.8449103 -2.7694912e+38
7.3217621 -1.2611692 1.8449103 -2.797066e+38
7.1767883 -1.2502344 1.8326198 -2.8239114e+38
7.1767554 -1.2635523 1.8326198 -2.8776007e+38
7.32166 -1.3019519 1.8449103 -2.9312897e+38
7.3216262 -1.3155462 1.8449103 -2.9975957e+38
7.3215923 -1.3291404 1.8449103 -3.0772452e+38
7.3215585 -1.3427347 1.8449103 -3.0903813e+38
7.3215241 -1.356329 1.8449103 -3.1034115e+38
7.3214903 -1.3699232 1.8449103 -3.3160855e+38
7.3214564 -1.3835174 1.8449103 nan
7.4713526 -1.4250579 1.8576245 nan
7.6292367 -1.0714753 1.8567531 -2.6502248e+38
7.4722548 -1.0641789 1.8437445 -2.8248474e+38
7.4722199 -1.078059 1.8437445 -2.9844594e+38
7.4721851 -1.091939 1.8437445 -3.0375774e+38
7.3222036 -1.084444 1.831316 -3.0775064e+38
7.3221698 -1.0980383 1.831316 -3.1440199e+38
7.3221359 -1.1116325 1.831316 -3.1972929e+38
7.3221021 -1.1252267 1.831316 -3.2239294e+38
7.3220677 -1.138821 1.831316 -3.2364917e+38
7.4719772 -1.1752187 1.8437445 -3.0093778e+38
7.4719424 -1.1890986 1.8437445 -2.7694381e+38
7.4719076 -1.2029786 1.8437445 -2.8218249e+38
7.4718728 -1.2168586 1.8437445 -2.8622735e+38
7.4718385 -1.2307385 1.8437445 -2.7958127e+38
7.4718037 -1.2446185 1.8437445 -2.7156966e+38
7.4717689 -1.2584984 1.8437445 -2.7555745e+38
7.3217959 -1.247575 1.831316 -2.7963885e+38
7.3217621 -1.2611692 1.831316 -2.7976893e+38
7.1767883 -1.2502344 1.8193016 -2.7844497e+38
7.1767554 -1.2635523 1.8193016 -2.877964e+38
7.32166 -1.3019519 1.831316 -2.9577181e+38
7.3216262 -1.3155462 1.831316 -3.0240758e+38
7.3215923 -1.3291404 1.831316 -3.0772445e+38
7.3215585 -1.3427347 1.831316 -3.0372635e+38
7.3215241 -1.356329 1.831316 -2.9969684e+38
7.3214903 -1.3699232 1.831316 nan
7.3214564 -1.3835174 1.831316 nan
7.4713526 -1.4250579 1.8437445 nan
7.6292367 -1.0714753 1.8425741 -2.5698995e+38
7.4722548 -1.0641789 1.8298645 -2.7709503e+38
7.3222718 -1.0572555 1.8177216 -2.9712185e+38
7.322238 -1.0708498 1.8177216 -3.037577e+38
7.3222036 -1.084444 1.8177216 -3.1041425e+38
7.3221698 -1.0980383 1.8177216 -3.1440714e+38
7.1771879 -1.0904177 1.8059835 -3.1973448e+38
7.1771545 -1.1037358 1.8059835 -3.1572605e+38
7.3220677 -1.138821 1.8177216 -3.1302573e+38
7.4719772 -1.1752187 1.8298645 -2.9429677e+38
7.4719424 -1.1890986 1.8298645 -2.7563022e+38
7.4719076 -1.2029786 1.8298645 -3.0621778e+38
7.4718728 -1.2168586 1.8298645 -3.3680045e+38
7.4718385 -1.2307385 1.8298645 -2.9817497e+38
7.4718037 -1.2446185 1.8298645 -2.582412e+38
7.4717689 -1.2584984 1.8298645 -2.6760826e+38
7.3217959 -1.247575 1.8177216 -2.7697533e+38
7.3217621 -1.2611692 1.8177216 -2.7840335e+38
7.3217282 -1.2747635 1.8177216 -2.7976901e+38
7.3216944 -1.2883577 1.8177216 -2.8644638e+38
7.32166 -1.3019519 1.8177216 -2.9442696e+38
7.3216262 -1.3155462 1.8177216 -3.0107829e+38
7.3215923 -1.3291404 1.8177216 -3.0905881e+38
7.3215585 -1.3427347 1.8177216 -3.0769839e+38
7.3215241 -1.356329 1.8177216 -3.0765653e+38
7.3214903 -1.3699232 1.8177216 nan
7.3214564 -1.3835174 1.8177216 nan
7.4713526 -1.4250579 1.8298645 nan
7.4722891 -1.050299 1.8159845 -2.4904065e+38
7.3223057 -1.0436612 1.8041275 -2.7177301e+38
7.3222718 -1.0572555 1.8041275 -2.9442708e+38
7.322238 -1.0708498 1.8041275 -3.0374213e+38
7.3222036 -1.084444 1.8041275 -3.1173826e+38
7.1772213 -1.0770997 1.7926655 -3.1574152e+38
7.1771879 -1.0904177 1.7926655 -3.1838962e+38
7.1771545 -1.1037358 1.7926655 -3.1039871e+38
7.3220677 -1.138821 1.8041275 -3.0103146e+38
7.3220339 -1.1524153 1.8041275 -2.8759867e+38
7.322 -1.1660095 1.8041275 -2.7432172e+38
7.3219662 -1.1796038 1.8041275 -3.315873e+38
7.3219318 -1.193198 1.8041275 nan
7.321898 -1.2067922 1.8041275 -3.167479e+38
7.3218641 -1.2203864 1.8041275 -2.4495924e+38
7.3218303 -1.2339807 1.8041275 -2.5966387e+38
7.3217959 -1.247575 1.8041275 -2.730187e+38
7.3217621 -1.2611692 1.8041275 -2.7709491e+38
7.3217282 -1.2747635 1.8041275 -2.797742e+38
7.3216944 -1.2883577 1.8041275 -2.8644115e+38
7.32166 -1.3019519 1.8041275 -2.9309769e+38
7.3216262 -1.3155462 1.8041275 -3.0108345e+38
7.3215923 -1.3291404 1.8041275 -3.0904837e+38
7.3215585 -1.3427347 1.8041275 -3.1301522e+38
7.3215241 -1.356329 1.8041275 -3.1565265e+38
7.3214903 -1.3699232 1.8041275 nan
7.3214564 -1.3835174 1.8041275 nan
7.3214221 -1.3971117 1.8041275 nan
7.4722891 -1.050299 1.8021045 -2.6627918e+38
7.3223057 -1.0436612 1.7905331 -2.8105692e+38
7.3222718 -1.0572555 1.7905331 -2.9709597e+38
7.322238 -1.0708498 1.7905331 -3.0375251e+38
7.1772547 -1.0637816 1.7793474 -3.1041421e+38
7.1772213 -1.0770997 1.7793474 -3.1440187e+38
7.1771879 -1.0904177 1.7793474 -3.1837919e+38
7.1771545 -1.1037358 1.7793474 -3.1571556e+38
7.1771216 -1.1170537 1.7793474 -3.1170678e+38
7.1770883 -1.1303719 1.7793474 -2.9161746e+38
7.322 -1.1660095 1.7905331 -2.7159053e+38
7.3219662 -1.1796038 1.7905331 -3.3689898e+38
7.3219318 -1.193198 1.7905331 nan
7.4718385 -1.2307385 1.8021045 -3.221272e+38
7.3218641 -1.2203864 1.7905331 -2.4222284e+38
7.3218303 -1.2339807 1.7905331 -2.5565521e+38
7.3217959 -1.247575 1.7905331 -2.7036535e+38
7.3217621 -1.2611692 1.7905331 -2.7575532e+38
7.3217282 -1.2747635 1.7905331 -2.8244302e+38
7.3216944 -1.2883577 1.7905331 -2.8777034e+38
7.32166 -1.3019519 1.7905331 -2.9442688e+38
7.3216262 -1.3155462 1.7905331 -3.0107821e+38
7.3215923 -1.3291404 1.7905331 -3.0771389e+38
7.3215585 -1.3427347 1.7905331 -3.0768265e+38
7.3215241 -1.356329 1.7905331 -3.0631688e+38
7.4714217 -1.397298 1.8021045 nan
7.6283154 -1.4401294 1.8142159 nan
7.4722891 -1.050299 1.7882245 -2.8234422e+38
7.3223057 -1.0436612 1.7769388 -2.9173743e+38
7.3222718 -1.0572555 1.7769388 -2.9974402e+38
7.322238 -1.0708498 1.7769388 -3.0507655e+38
7.1772547 -1.0637816 1.7660294 -3.0907983e+38
7.1772213 -1.0770997 1.7660294 -3.1440195e+38
7.1771879 -1.0904177 1.7660294 -3.1838966e+38
7.1771545 -1.1037358 1.7660294 -3.2104813e+38
7.3220677 -1.138821 1.7769388 -3.2230422e+38
7.4719772 -1.1752187 1.7882245 -2.9556864e+38
7.322 -1.1660095 1.7769388 -2.6768059e+38
7.3219662 -1.1796038 1.7769388 nan
7.4718728 -1.2168586 1.7882245 nan
7.4718385 -1.2307385 1.7882245 -3.2873166e+38
7.4718037 -1.2446185 1.7882245 -2.3962673e+38
7.3218303 -1.2339807 1.7769388 -2.5301777e+38
7.3217959 -1.247575 1.7769388 -2.6638298e+38
7.3217621 -1.2611692 1.7769388 -2.757709e+38
7.3217282 -1.2747635 1.7769388 -2.8376706e+38
7.3216944 -1.2883577 1.7769388 -2.9042362e+38
7.32166 -1.3019519 1.7769388 -2.9575609e+38
7.3216262 -1.3155462 1.7769388 -3.0108858e+38
7.3215923 -1.3291404 1.7769388 -3.0637425e+38
7.3215585 -1.3427347 1.7769388 -3.0235012e+38
7.4714565 -1.383418 1.7882245 -2.9700699e+38
7.4714217 -1.397298 1.7882245 nan
7.6292725 -1.0572962 1.7858579 nan
7.4722891 -1.050299 1.7743444 -2.8763526e+38
7.3223057 -1.0436612 1.7633445 -2.9571469e+38
7.3222718 -1.0572555 1.7633445 -3.0373168e+38
7.322238 -1.0708498 1.7633445 -3.0640577e+38
7.1772547 -1.0637816 1.7527112 -3.0909025e+38
7.1772213 -1.0770997 1.7527112 -3.1308317e+38
7.1771879 -1.0904177 1.7527112 -3.1707609e+38
7.1771545 -1.1037358 1.7527112 -3.1572611e+38
7.3220677 -1.138821 1.7633445 -3.1569958e+38
7.3220339 -1.1524153 1.7633445 -2.9559963e+38
7.322 -1.1660095 1.7633445 -2.7558312e+38
7.3219662 -1.1796038 1.7633445 nan
7.3219318 -1.193198 1.7633445 nan
7.4718385 -1.2307385 1.7743444 -3.3277629e+38
7.4718037 -1.2446185 1.7743444 -2.4352099e+38
7.4717689 -1.2584984 1.7743444 -2.5830894e+38
7.3217959 -1.247575 1.7633445 -2.7302403e+38
7.3217621 -1.2611692 1.7633445 -2.8106183e+38
7.3217282 -1.2747635 1.7633445 -2.8908397e+38
7.3216944 -1.2883577 1.7633445 -2.944165e+38
7.32166 -1.3019519 1.7633445 -2.9974377e+38
7.3216262 -1.3155462 1.7633445 -3.0240221e+38
7.3215923 -1.3291404 1.7633445 -3.050346e+38
7.3215585 -1.3427347 1.7633445 -3.0363258e+38
7.4714565 -1.383418 1.7743444 -3.0228228e+38
7.6283507 -1.4259503 1.7858579 -3.3957822e+38
7.6292725 -1.0572962 1.7716788 nan
7.4722891 -1.050299 1.7604645 -2.9304042e+38
7.3223057 -1.0436612 1.7497503 -2.9974909e+38
7.3222718 -1.0572555 1.7497503 -3.063901e+38
7.322238 -1.0708498 1.7497503 -3.0772979e+38
7.1772547 -1.0637816 1.7393931 -3.0907983e+38
7.1772213 -1.0770997 1.7393931 -3.1308832e+38
7.1771879 -1.0904177 1.7393931 -3.1573124e+38
7.1771545 -1.1037358 1.7393931 -3.1173319e+38
7.3220677 -1.138821 1.7497503 -3.0767223e+38
7.4719772 -1.1752187 1.7604645 -2.9555282e+38
7.322 -1.1660095 1.7497503 -2.8232782e+38
7.3219662 -1.1796038 1.7497503 nan
7.3219318 -1.193198 1.7497503 nan
7.4718385 -1.2307385 1.7604645 -3.3539857e+38
7.4718037 -1.2446185 1.7604645 -2.462834e+38
7.4717689 -1.2584984 1.7604645 -2.6366743e+38
7.3217959 -1.247575 1.7497503 -2.7967538e+38
7.3217621 -1.2611692 1.7497503 -2.8769237e+38
7.3217282 -1.2747635 1.7497503 -2.9439565e+38
7.3216944 -1.2883577 1.7497503 -2.9840414e+38
7.32166 -1.3019519 1.7497503 -3.0239702e+38
7.3216262 -1.3155462 1.7497503 -3.0240742e+38
7.3215923 -1.3291404 1.7497503 -3.0233442e+38
7.3215585 -1.3427347 1.7497503 -3.0486275e+38
7.4714565 -1.383418 1.7604645 -3.0626449e+38
7.4714217 -1.397298 1.7604645 -3.3559559e+38
7.6292725 -1.0572962 1.7574997 nan
7.4722891 -1.050299 1.7465845 -2.8903192e+38
7.3223057 -1.0436612 1.736156 -2.9971791e+38
7.3222718 -1.0572555 1.736156 -3.0903295e+38
7.1772881 -1.0504637 1.7260749 -3.0904859e+38
7.1772547 -1.0637816 1.7260749 -3.0906421e+38
7.1772213 -1.0770997 1.7260749 -3.1173828e+38
7.1771879 -1.0904177 1.7260749 -3.1438639e+38
7.1771545 -1.1037358 1.7260749 -3.1305199e+38
7.1771216 -1.1170537 1.7260749 -3.116962e+38
7.3220339 -1.1524153 1.736156 -3.0756771e+38
7.322 -1.1660095 1.736156 -3.0220385e+38
7.3219662 -1.1796038 1.736156 nan
7.3219318 -1.193198 1.736156 nan
7.4718385 -1.2307385 1.7465845 -3.3545584e+38
7.4718037 -1.2446185 1.7465845 -2.4887965e+38
7.4717689 -1.2584984 1.7465845 -2.6631554e+38
7.3217959 -1.247575 1.736156 -2.8500787e+38
7.3217621 -1.2611692 1.736156 -2.9038196e+38
7.3217282 -1.2747635 1.736156 -2.9707485e+38
7.3216944 -1.2883577 1.736156 -2.9973331e+38
7.32166 -1.3019519 1.736156 -3.010626e+38
7.3216262 -1.3155462 1.736156 -2.9705938e+38
7.3215923 -1.3291404 1.736156 -2.9437962e+38
7.3215585 -1.3427347 1.736156 -3.1421886e+38
7.4714565 -1.383418 1.7465845 -3.3415724e+38
7.6280675 -1.5393823 1.7574997 nan
7.4722891 -1.050299 1.7327045 -2.850702e+38
7.3223057 -1.0436612 1.7225616 -2.9838868e+38
7.3222718 -1.0572555 1.7225616 -3.1169141e+38
7.322238 -1.0708498 1.7225616 -3.1037263e+38
7.1772547 -1.0637816 1.7127569 -3.0906421e+38
7.3221698 -1.0980383 1.7225616 -3.1174348e+38
7.1771879 -1.0904177 1.7127569 -3.1306755e+38
7.1771545 -1.1037358 1.7127569 -3.1439163e+38
7.1771216 -1.1170537 1.7127569 -3.1564242e+38
7.3220339 -1.1524153 1.7225616 -3.1948937e+38
7.322 -1.1660095 1.7225616 -3.22241e+38
7.3219662 -1.1796038 1.7225616 nan
7.3219318 -1.193198 1.7225616 nan
7.4718385 -1.2307385 1.7327045 -3.3541432e+38
7.4718037 -1.2446185 1.7327045 -2.516368e+38
7.4717689 -1.2584984 1.7327045 -2.7036562e+38
7.3217959 -1.247575 1.7225616 -2.8903198e+38
7.3217621 -1.2611692 1.7225616 -2.9441126e+38
7.3217282 -1.2747635 1.7225616 -2.9973854e+38
7.3216944 -1.2883577 1.7225616 -2.9973854e+38
7.32166 -1.3019519 1.7225616 -2.9971773e+38
7.3216262 -1.3155462 1.7225616 -2.9305078e+38
7.3215923 -1.3291404 1.7225616 -2.8500753e+38
7.3215585 -1.3427347 1.7225616 -3.2347168e+38
7.4714565 -1.383418 1.7327045 nan
7.4722891 -1.050299 1.7188245 -3.0229826e+38
7.4722548 -1.0641789 1.7188245 -3.0767768e+38
7.3222718 -1.0572555 1.7089674 -3.1433946e+38
7.322238 -1.0708498 1.7089674 -3.1169664e+38
7.1772547 -1.0637816 1.6994388 -3.1038822e+38
7.1772213 -1.0770997 1.6994388 -3.1306749e+38
7.1771879 -1.0904177 1.6994388 -3.1440716e+38
7.1771545 -1.1037358 1.6994388 -3.1571047e+38
7.1771216 -1.1170537 1.6994388 -3.169925e+38
7.3220339 -1.1524153 1.7089674 -3.2490508e+38
7.322 -1.1660095 1.7089674 -3.3290089e+38
7.4719076 -1.2029786 1.7188245 nan
7.4718728 -1.2168586 1.7188245 nan
7.4718385 -1.2307385 1.7188245 -3.3148895e+38
7.4718037 -1.2446185 1.7188245 -2.502453e+38
7.4717689 -1.2584984 1.7188245 -2.6768126e+38
7.3217959 -1.247575 1.7089674 -2.8640995e+38
7.3217621 -1.2611692 1.7089674 -2.9042366e+38
7.3217282 -1.2747635 1.7089674 -2.9575611e+38
7.3216944 -1.2883577 1.7089674 -2.9574049e+38
7.32166 -1.3019519 1.7089674 -2.957196e+38
7.3216262 -1.3155462 1.7089674 -2.8636296e+38
7.3215923 -1.3291404 1.7089674 -2.756562e+38
7.3215585 -1.3427347 1.7089674 -3.168672e+38
7.4714565 -1.383418 1.7188245 nan
7.6292367 -1.0714753 1.7149626 -3.1830092e+38
7.4722548 -1.0641789 1.7049445 -3.1700305e+38
7.3222718 -1.0572555 1.6953731 -3.1566869e+38
7.322238 -1.0708498 1.6953731 -3.1433952e+38
7.3222036 -1.084444 1.6953731 -3.1171743e+38
7.3221698 -1.0980383 1.6953731 -3.1440187e+38
7.1771879 -1.0904177 1.6861207 -3.1572589e+38
7.1771545 -1.1037358 1.6861207 -3.1704471e+38
7.1771216 -1.1170537 1.6861207 -3.1698189e+38
7.4719772 -1.1752187 1.7049445 -3.3022694e+38
7.4719424 -1.1890986 1.7049445 nan
7.4719076 -1.2029786 1.7049445 nan
7.4718728 -1.2168586 1.7049445 nan
7.6287761 -1.2558024 1.7149626 -3.2613561e+38
7.4718037 -1.2446185 1.7049445 -2.4766465e+38
7.4717689 -1.2584984 1.7049445 -2.6503832e+38
7.471734 -1.2723783 1.7049445 -2.8240665e+38
7.3217621 -1.2611692 1.6953731 -2.8644117e+38
7.3217282 -1.2747635 1.6953731 -2.9042889e+38
7.3216944 -1.2883577 1.6953731 -2.9174778e+38
7.32166 -1.3019519 1.6953731 -2.9172153e+38
7.3216262 -1.3155462 1.6953731 -2.7969589e+38
7.3215923 -1.3291404 1.6953731 -2.6636187e+38
7.3215585 -1.3427347 1.6953731 -3.1023136e+38
7.4714565 -1.383418 1.7049445 nan
7.6292367 -1.0714753 1.7007835 -3.0495672e+38
7.4722548 -1.0641789 1.6910645 -3.0899651e+38
7.3222718 -1.0572555 1.6817788 -3.1432908e+38
7.322238 -1.0708498 1.6817788 -3.1303106e+38
7.1772547 -1.0637816 1.6728026 -3.117226e+38
7.1772213 -1.0770997 1.6728026 -3.1173299e+38
7.1771879 -1.0904177 1.6728026 -3.1305173e+38
7.1771216 -1.1170537 1.6728026 -3.0099459e+38
7.4719772 -1.1752187 1.6910645 -3.2890264e+38
7.4719424 -1.1890986 1.6910645 nan
7.6288471 -1.2274443 1.7007835 nan
7.6288118 -1.2416233 1.7007835 nan
7.6287761 -1.2558024 1.7007835 -3.2617185e+38
7.4718037 -1.2446185 1.6910645 -2.4893668e+38
7.4717689 -1.2584984 1.6910645 -2.6636227e+38
7.3217959 -1.247575 1.6817788 -2.837618e+38
7.3217621 -1.2611692 1.6817788 -2.8774963e+38
7.3217282 -1.2747635 1.6817788 -2.917582e+38
7.3216944 -1.2883577 1.6817788 -2.8909466e+38
7.32166 -1.3019519 1.6817788 -2.864202e+38
7.3216262 -1.3155462 1.6817788 -2.7566131e+38
7.3215923 -1.3291404 1.6817788 -2.6498579e+38
7.3215585 -1.3427347 1.6817788 -3.1556896e+38
7.4714565 -1.383418 1.6910645 nan
7.4722891 -1.050299 1.6771846 -2.9037679e+38
7.4722548 -1.0641789 1.6771846 -3.0103156e+38
7.3222718 -1.0572555 1.6681845 -3.116862e+38
7.322238 -1.0708498 1.6681845 -3.117226e+38
7.1772547 -1.0637816 1.6594845 -3.1039855e+38
7.1772213 -1.0770997 1.6594845 -3.1040891e+38
7.1771879 -1.0904177 1.6594845 -3.0906401e+38
7.1771545 -1.1037358 1.6594845 -2.970697e+38
7.3220677 -1.138821 1.6681845 -2.8505432e+38
7.6289182 -1.1990863 1.6866045 -3.2757882e+38
7.6288118 -1.2416233 1.6866045 nan
7.6287761 -1.2558024 1.6866045 -3.2742853e+38
7.4718037 -1.2446185 1.6771846 -2.4899388e+38
7.4717689 -1.2584984 1.6771846 -2.6771229e+38
7.3217959 -1.247575 1.6681845 -2.8503907e+38
7.3217621 -1.2611692 1.6681845 -2.8904241e+38
7.3217282 -1.2747635 1.6681845 -2.930665e+38
7.3216944 -1.2883577 1.6681845 -2.877704e+38
7.32166 -1.3019519 1.6681845 -2.8101994e+38
7.3216262 -1.3155462 1.6681845 -2.7154873e+38
7.3215923 -1.3291404 1.6681845 -2.6230636e+38
7.6284218 -1.3975923 1.6866045 -3.2225652e+38
7.4722891 -1.050299 1.6633046 -2.9168529e+38
7.4722548 -1.0641789 1.6633046 -2.9836274e+38
7.3222718 -1.0572555 1.6545902 -3.0504527e+38
7.1772881 -1.0504637 1.6461664 -3.0639529e+38
7.1772547 -1.0637816 1.6461664 -3.0773486e+38
7.1772213 -1.0770997 1.6461664 -3.0907962e+38
7.3220677 -1.138821 1.6545902 -2.8635249e+38
7.3220339 -1.1524153 1.6545902 -3.2758943e+38
7.6287761 -1.2558024 1.6724255 -3.2216888e+38
7.4718037 -1.2446185 1.6633046 -2.4892127e+38
7.3218303 -1.2339807 1.6545902 -2.6633633e+38
7.3217959 -1.247575 1.6545902 -2.8234942e+38
7.3217621 -1.2611692 1.6545902 -2.8637866e+38
7.3217282 -1.2747635 1.6545902 -2.903975e+38
7.3216944 -1.2883577 1.6545902 -2.8772344e+38
7.32166 -1.3019519 1.6545902 -2.8632104e+38
7.4715605 -1.3417782 1.6633046 -2.7556728e+38
7.4715261 -1.3556582 1.6633046 -2.6354712e+38
7.4722891 -1.050299 1.6494246 -2.9168008e+38
7.4722548 -1.0641789 1.6494246 -2.9568873e+38
7.3222718 -1.0572555 1.640996 -2.9838879e+38
7.1772881 -1.0504637 1.6328483 -3.0106807e+38
7.1772547 -1.0637816 1.6328483 -3.0376281e+38
7.1772213 -1.0770997 1.6328483 -3.0777121e+38
7.1771879 -1.0904177 1.6328483 -3.10414e+38
7.1771545 -1.1037358 1.6328483 -2.9843008e+38
7.1771216 -1.1170537 1.6328483 -2.8639405e+38
7.4718037 -1.2446185 1.6494246 -2.4897834e+38
7.3218303 -1.2339807 1.640996 -2.6502268e+38
7.3217959 -1.247575 1.640996 -2.7972209e+38
7.3217621 -1.2611692 1.640996 -2.8373057e+38
7.3217282 -1.2747635 1.640996 -2.8639937e+38
7.3216944 -1.2883577 1.640996 -2.8905257e+38
7.32166 -1.3019519 1.640996 -2.9162239e+38
7.4715605 -1.3417782 1.6494246 -2.7819473e+38
7.6284571 -1.3834133 1.6582464 -2.6494384e+38
7.4722891 -1.050299 1.6355445 -2.9826391e+38
7.3223057 -1.0436612 1.6274016 -3.023297e+38
7.3222718 -1.0572555 1.6274016 -3.0769862e+38
7.1772881 -1.0504637 1.6195302 -3.0509216e+38
7.1772547 -1.0637816 1.6195302 -3.0245961e+38
7.1772213 -1.0770997 1.6195302 -3.0511279e+38
7.1771879 -1.0904177 1.6195302 -3.0776078e+38
7.1771545 -1.1037358 1.6195302 -2.9974377e+38
7.4718037 -1.2446185 1.6355445 -2.5025041e+38
7.4717689 -1.2584984 1.6355445 -2.6504864e+38
7.3217959 -1.247575 1.6274016 -2.7979998e+38
7.3217621 -1.2611692 1.6274016 -2.8109286e+38
7.3217282 -1.2747635 1.6274016 -2.8374604e+38
7.4716301 -1.3140182 1.6355445 -2.8903689e+38
7.4715953 -1.3278983 1.6355445 -2.9430683e+38
7.6284928 -1.3692343 1.6440674 -2.8488255e+38
7.6284571 -1.3834133 1.6440674 -2.7549459e+38
7.4722891 -1.050299 1.6216645 -3.0497231e+38
7.4722548 -1.0641789 1.6216645 -3.1032058e+38
7.3222718 -1.0572555 1.6138074 -3.1567396e+38
7.322238 -1.0708498 1.6138074 -3.0913698e+38
7.3222036 -1.084444 1.6138074 -3.0115117e+38
7.1772213 -1.0770997 1.6062121 -3.0379397e+38
7.1771879 -1.0904177 1.6062121 -3.0510232e+38
7.1771545 -1.1037358 1.6062121 -3.0107817e+38
7.6287408 -1.2699813 1.6298883 -2.5165233e+38
7.4717689 -1.2584984 1.6216645 -2.6512127e+38
7.3217959 -1.247575 1.6138074 -2.7842394e+38
7.3217621 -1.2611692 1.6138074 -2.7974799e+38
7.3217282 -1.2747635 1.6138074 -2.8108755e+38
7.3216944 -1.2883577 1.6138074 -2.8904728e+38
7.4715953 -1.3278983 1.6216645 -2.9560488e+38
7.6284928 -1.3692343 1.6298883 -2.9020984e+38
7.4722548 -1.0641789 1.6077845 -3.1029456e+38
7.4722199 -1.078059 1.6077845 -3.1692009e+38
7.322238 -1.0708498 1.6002131 -3.1041431e+38
7.1772547 -1.0637816 1.5928941 -3.0515964e+38
7.1772213 -1.0770997 1.5928941 -3.0248034e+38
7.1771879 -1.0904177 1.5928941 -2.997958e+38
7.1771545 -1.1037358 1.5928941 -2.9703335e+38
7.6287408 -1.2699813 1.6157093 -2.5690694e+38
7.4717689 -1.2584984 1.6077845 -2.6770698e+38
7.3217959 -1.247575 1.6002131 -2.7972195e+38
7.3217621 -1.2611692 1.6002131 -2.8241156e+38
7.3217282 -1.2747635 1.6002131 -2.8509077e+38
7.3216944 -1.2883577 1.6002131 -2.8368881e+38
7.4715953 -1.3278983 1.6077845 -2.8094184e+38
7.6284928 -1.3692343 1.6157093 -2.9287868e+38
7.6292725 -1.0572962 1.6015302 nan
7.4722891 -1.050299 1.5939045 -3.049826e+38
7.4722548 -1.0641789 1.5939045 -3.1163405e+38
7.3222718 -1.0572555 1.5866188 -3.1697721e+38
7.1772881 -1.0504637 1.5795759 -3.1310404e+38
7.1772547 -1.0637816 1.5795759 -3.0913706e+38
7.1772213 -1.0770997 1.5795759 -3.0249088e+38
7.3221359 -1.1116325 1.5866188 -2.9445812e+38
7.3221021 -1.1252267 1.5866188 -2.9164359e+38
7.6287761 -1.2558024 1.6015302 -3.1408944e+38
7.6287408 -1.2699813 1.6015302 -2.6096202e+38
7.4717689 -1.2584984 1.5939045 -2.7172581e+38
7.3217959 -1.247575 1.5866188 -2.8105635e+38
7.3217621 -1.2611692 1.5866188 -2.8507519e+38
7.3217282 -1.2747635 1.5866188 -2.8902649e+38
7.3216944 -1.2883577 1.5866188 -2.783407e+38
7.4715953 -1.3278983 1.5939045 -2.6632017e+38
7.4715605 -1.3417782 1.5939045 -2.9684014e+38
7.6292367 -1.0714753 1.5873512 -2.8501816e+38
7.4722548 -1.0641789 1.5800245 -2.9966569e+38
7.3222718 -1.0572555 1.5730245 -3.1296356e+38
7.322238 -1.0708498 1.5730245 -3.1041453e+38
7.3222036 -1.084444 1.5730245 -3.0648913e+38
7.3221698 -1.0980383 1.5730245 -3.0114624e+38
7.4720812 -1.1335788 1.5800245 -2.9585484e+38
7.4720464 -1.1474587 1.5800245 -2.9301938e+38
7.6287408 -1.2699813 1.5873512 -2.6492362e+38
7.4717689 -1.2584984 1.5800245 -2.7168426e+38
7.471734 -1.2723783 1.5800245 -2.7838751e+38
7.3217621 -1.2611692 1.5730245 -2.8369921e+38
7.3217282 -1.2747635 1.5730245 -2.8765568e+38
7.3216944 -1.2883577 1.5730245 -2.7831987e+38
7.4715953 -1.3278983 1.5800245 -2.689629e+38
7.4715605 -1.3417782 1.5800245 -2.9955026e+38
7.6292367 -1.0714753 1.5731721 -2.6508505e+38
7.4722548 -1.0641789 1.5661445 -2.8770793e+38
7.3222718 -1.0572555 1.5594302 -3.0900693e+38
7.322238 -1.0708498 1.5594302 -3.0643178e+38
7.3222036 -1.084444 1.5594302 -3.0376289e+38
7.3221698 -1.0980383 1.5594302 -3.0108365e+38
7.4720812 -1.1335788 1.5661445 -2.9705929e+38
7.4720464 -1.1474587 1.5661445 -2.9293631e+38
7.4718385 -1.2307385 1.5661445 -3.1943225e+38
7.4718037 -1.2446185 1.5661445 -2.6761331e+38
7.4717689 -1.2584984 1.5661445 -2.7169983e+38
7.471734 -1.2723783 1.5661445 -2.7569269e+38
7.3217621 -1.2611692 1.5594302 -2.8100958e+38
7.3217282 -1.2747635 1.5594302 -2.8631083e+38
7.3216944 -1.2883577 1.5594302 -2.7831464e+38
7.4715953 -1.3278983 1.5661445 -2.7030781e+38
7.4715605 -1.3417782 1.5661445 -3.021934e+38
7.6292725 -1.0572962 1.5589931 -3.315673e+38
7.4722891 -1.050299 1.5522645 -2.5971112e+38
7.4722548 -1.0641789 1.5522645 -2.7971187e+38
7.3222718 -1.0572555 1.545836 -3.0101591e+38
7.322238 -1.0708498 1.545836 -2.9971266e+38
7.3222036 -1.084444 1.545836 -2.9972302e+38
7.3221698 -1.0980383 1.545836 -2.9039762e+38
7.4720812 -1.1335788 1.5522645 -2.8240649e+38
7.6289887 -1.1707283 1.5589931 -3.0095838e+38
7.6289535 -1.1849072 1.5589931 -3.2091705e+38
