# .PCD v0.7 - Point Cloud Data file format
VERSION 0.7
FIELDS x y z rgb
SIZE 4 4 4 4
TYPE F F F F
COUNT 1 1 1 1
WIDTH 1008
HEIGHT 1
VIEWPOINT 0 0 0 1 0 0 0
POINTS 1008
DATA ascii
0.25560859 -0.70486003 2.7110002 -2.1822836e+38
0.26077241 -0.70486003 2.7110002 -2.1823356e+38
0.2659362 -0.70486003 2.7110002 -2.182284e+38
0.26900002 -0.69940007 2.6900001 -2.2088688e+38
0.27412382 -0.69940007 2.6900001 -2.2353493e+38
0.27924764 -0.69940007 2.6900001 -2.2619856e+38
0.28437144 -0.69940007 2.6900001 -2.2885701e+38
0.28949526 -0.69940007 2.6900001 -2.2753817e+38
0.29461905 -0.69940007 2.6900001 -2.2755369e+38
0.30208287 -0.70486003 2.7110002 -2.2755882e+38
0.30724669 -0.70486003 2.7110002 -2.2755359e+38
0.3124105 -0.70486003 2.7110002 -2.2755874e+38
0.31757429 -0.70486003 2.7110002 -2.2756397e+38
0.32273811 -0.70486003 2.7110002 -2.2889843e+38
0.33056289 -0.71058005 2.733 -2.2890368e+38
0.33576858 -0.71058005 2.733 -2.3022778e+38
0.3409743 -0.71058005 2.733 -2.3022263e+38
0.34339336 -0.70486003 2.7110002 -2.2889342e+38
0.34855717 -0.70486003 2.7110002 -2.2888831e+38
0.35372096 -0.70486003 2.7110002 -2.2623511e+38
0.35888478 -0.70486003 2.7110002 -2.2491628e+38
0.3640486 -0.70486003 2.7110002 -2.2756955e+38
0.36635241 -0.69940007 2.6900001 -2.3155206e+38
0.3714762 -0.69940007 2.6900001 -2.328865e+38
0.37660003 -0.69940007 2.6900001 -2.3422094e+38
0.37874383 -0.69394004 2.6690001 -2.3555538e+38
0.38684765 -0.69940007 2.6900001 -2.3687425e+38
0.38891146 -0.69394004 2.6690001 -2.3821905e+38
0.39399526 -0.69394004 2.6690001 -2.4090353e+38
0.39907908 -0.69394004 2.6690001 -2.4223801e+38
0.40416288 -0.69394004 2.6690001 -2.4358807e+38
0.4124667 -0.69940007 2.6900001 -2.4757581e+38
0.4175905 -0.69940007 2.6900001 -2.5025518e+38
0.41941431 -0.69394004 2.6690001 -2.5425339e+38
0.42449811 -0.69394004 2.6690001 -2.5693797e+38
0.43296194 -0.69940007 2.6900001 -2.5960695e+38
0.43466574 -0.69394004 2.6690001 -2.6362076e+38
0.44320956 -0.69940007 2.6900001 -2.6765534e+38
0.44833335 -0.69940007 2.6900001 -2.7305013e+38
0.45345718 -0.69940007 2.6900001 -2.504221e+38
0.45858097 -0.69940007 2.6900001 -2.2781042e+38
0.46370479 -0.69940007 2.6900001 -3.0120429e+38
0.46882859 -0.69940007 2.6900001 nan
0.47395241 -0.69940007 2.6900001 nan
0.48281622 -0.70486003 2.7110002 nan
0.49572003 -0.71604007 2.7540002 nan
0.50514954 -0.72202003 2.7770002 nan
-0.15410477 -0.75931627 2.9420002 nan
-0.14850096 -0.75931627 2.9420002 nan
-0.14289716 -0.75931627 2.9420002 nan
-0.13729334 -0.75931627 2.9420002 nan
-0.13168953 -0.75931627 2.9420002 -2.7007387e+38
-0.12501429 -0.75286388 2.9170001 -1.983111e+38
-0.11847524 -0.74666959 2.8930001 -2.2237737e+38
-0.11202762 -0.7404753 2.8690002 -2.4627228e+38
-0.10567144 -0.734281 2.845 -2.4492227e+38
-0.10025239 -0.734281 2.845 -2.4225862e+38
-0.094066672 -0.7283448 2.822 -2.4225864e+38
-0.087277152 -0.71673054 2.7770002 -2.4093983e+38
-0.081987627 -0.71673054 2.7770002 -2.422743e+38
-0.076062866 -0.71079433 2.7540002 -2.4361397e+38
-0.07081715 -0.71079433 2.7540002 -2.4494845e+38
-0.065571435 -0.71079433 2.7540002 -2.4496407e+38
-0.060325719 -0.71079433 2.7540002 -2.4629853e+38
-0.055080004 -0.71079433 2.7540002 -2.4762778e+38
-0.04945429 -0.70537436 2.733 -2.4630376e+38
-0.044248573 -0.70537436 2.733 -2.4362454e+38
-0.038728572 -0.69969624 2.7110002 -2.4360898e+38
-0.033564765 -0.69969624 2.7110002 -2.4360894e+38
-0.028400954 -0.69969624 2.7110002 -2.4360373e+38
-0.023057144 -0.69427621 2.6900001 -2.4359853e+38
-0.017933335 -0.69427621 2.6900001 -2.4093491e+38
-0.012809524 -0.69427621 2.6900001 -2.3825045e+38
-0.0076857149 -0.69427621 2.6900001 -2.3822964e+38
-0.002561905 -0.69427621 2.6900001 -2.3689514e+38
0.002561905 -0.69427621 2.6900001 -2.3422104e+38
0.0077457149 -0.69969624 2.7110002 -2.3154685e+38
0.012909525 -0.69969624 2.7110002 -2.3017075e+38
0.018073335 -0.69969624 2.7110002 -2.2887263e+38
0.023237145 -0.69969624 2.7110002 -2.2887259e+38
0.028400954 -0.69969624 2.7110002 -2.2754858e+38
0.033304766 -0.69427621 2.6900001 -2.2621935e+38
0.038428575 -0.69427621 2.6900001 -2.2490051e+38
0.043552384 -0.69427621 2.6900001 -2.2622454e+38
0.048676193 -0.69427621 2.6900001 -2.2622454e+38
0.053800002 -0.69427621 2.6900001 -2.235557e+38
0.058463812 -0.68885624 2.6690001 -2.2090244e+38
0.063547626 -0.68885624 2.6690001 -2.2090246e+38
0.068631433 -0.68885624 2.6690001 -2.1957325e+38
0.073162861 -0.6836943 2.6490002 -2.2222655e+38
0.078799054 -0.68885624 2.6690001 -2.2356097e+38
0.083882861 -0.68885624 2.6690001 -2.2489022e+38
0.088966675 -0.68885624 2.6690001 -2.2622462e+38
0.093345724 -0.6836943 2.6490002 -2.2755385e+38
0.099134289 -0.68885624 2.6690001 -2.2755387e+38
0.1042181 -0.68885624 2.6690001 -2.2622464e+38
0.10848287 -0.6836943 2.6490002 -2.2489541e+38
0.11352858 -0.6836943 2.6490002 -2.2489539e+38
0.11857429 -0.6836943 2.6490002 -2.2356617e+38
0.12362001 -0.6836943 2.6490002 -2.2224213e+38
0.12866572 -0.6836943 2.6490002 -2.1958365e+38
0.13371144 -0.6836943 2.6490002 -2.1958885e+38
0.13875715 -0.6836943 2.6490002 -2.1958361e+38
0.14380287 -0.6836943 2.6490002 -2.2090244e+38
0.14884858 -0.6836943 2.6490002 -2.2223684e+38
0.15389429 -0.6836943 2.6490002 -2.2090242e+38
0.15894002 -0.6836943 2.6490002 -2.1958357e+38
0.16522382 -0.68885624 2.6690001 -2.1958359e+38
0.17030764 -0.68885624 2.6690001 -2.195784e+38
0.17539144 -0.68885624 2.6690001 -2.222213e+38
0.18047525 -0.68885624 2.6690001 -2.235453e+38
0.18701907 -0.69427621 2.6900001 -2.2486931e+38
0.19214287 -0.69427621 2.6900001 -2.2619852e+38
0.19726668 -0.69427621 2.6900001 -2.2354523e+38
0.20239049 -0.69427621 2.6900001 -2.1955753e+38
0.2075143 -0.69427621 2.6900001 -2.235556e+38
0.21263811 -0.69427621 2.6900001 -2.2620367e+38
0.21776192 -0.69427621 2.6900001 -2.2619331e+38
0.22288573 -0.69427621 2.6900001 -2.2486925e+38
0.22800954 -0.69427621 2.6900001 -2.2486404e+38
0.23495334 -0.69969624 2.7110002 -2.2352962e+38
0.24011716 -0.69969624 2.7110002 -2.2352444e+38
0.24528097 -0.69969624 2.7110002 -2.2220043e+38
0.25044477 -0.69969624 2.7110002 -2.2086603e+38
0.25560859 -0.69969624 2.7110002 -2.1955238e+38
0.26077241 -0.69969624 2.7110002 -2.1955759e+38
0.2659362 -0.69969624 2.7110002 -2.1955242e+38
0.27110001 -0.69969624 2.7110002 -2.2220051e+38
0.27412382 -0.69427621 2.6900001 -2.2354008e+38
0.27924764 -0.69427621 2.6900001 -2.2619852e+38
0.28437144 -0.69427621 2.6900001 -2.2753811e+38
0.28949526 -0.69427621 2.6900001 -2.275485e+38
0.29461905 -0.69427621 2.6900001 -2.2755365e+38
0.29974288 -0.69427621 2.6900001 -2.2888283e+38
0.30724669 -0.69969624 2.7110002 -2.2888801e+38
0.3124105 -0.69969624 2.7110002 -2.3021721e+38
0.31757429 -0.69969624 2.7110002 -2.3022245e+38
0.32535717 -0.70537436 2.733 -2.315621e+38
0.33310288 -0.71079433 2.7540002 -2.3155697e+38
0.33576858 -0.70537436 2.733 -2.3154662e+38
0.3409743 -0.70537436 2.733 -2.3154667e+38
0.34339336 -0.69969624 2.7110002 -2.3021748e+38
0.34855717 -0.69969624 2.7110002 -2.2888829e+38
0.35372096 -0.69969624 2.7110002 -2.262299e+38
0.35888478 -0.69969624 2.7110002 -2.2357144e+38
0.3640486 -0.69969624 2.7110002 -2.2755395e+38
0.36635241 -0.69427621 2.6900001 -2.3021762e+38
0.3714762 -0.69427621 2.6900001 -2.3155206e+38
0.37660003 -0.69427621 2.6900001 -2.3156247e+38
0.38172382 -0.69427621 2.6900001 -2.3289173e+38
0.38684765 -0.69427621 2.6900001 -2.3289693e+38
0.39197147 -0.69427621 2.6900001 -2.3556577e+38
0.39709526 -0.69427621 2.6900001 -2.3690538e+38
0.40221909 -0.69427621 2.6900001 -2.3956903e+38
0.40734288 -0.69427621 2.6900001 -2.4090866e+38
0.4124667 -0.69427621 2.6900001 -2.44886e+38
0.4175905 -0.69427621 2.6900001 -2.4758094e+38
0.41941431 -0.68885624 2.6690001 -2.5024995e+38
0.42449811 -0.68885624 2.6690001 -2.5293455e+38
0.42958194 -0.68885624 2.6690001 -2.5427434e+38
0.43466574 -0.68885624 2.6690001 -2.5431604e+38
0.44320956 -0.69427621 2.6900001 -2.623383e+38
0.44483337 -0.68885624 2.6690001 -2.6899483e+38
0.44991717 -0.68885624 2.6690001 -2.5970579e+38
0.455001 -0.68885624 2.6690001 -2.4907754e+38
0.46370479 -0.69427621 2.6900001 -2.7974365e+38
0.46882859 -0.69427621 2.6900001 -3.1062301e+38
0.47395241 -0.69427621 2.6900001 nan
0.48281622 -0.69969624 2.7110002 nan
0.49194002 -0.70537436 2.733 nan
0.49714574 -0.70537436 2.733 nan
0.50235146 -0.70537436 2.733 nan
0.50755715 -0.70537436 2.733 nan
-0.1554143 -0.76011717 2.9670002 nan
-0.14976287 -0.76011717 2.9670002 nan
-0.14411144 -0.76011717 2.9670002 nan
-0.13729334 -0.75371242 2.9420002 -3.0645755e+38
-0.13168953 -0.75371242 2.9420002 -2.5560822e+38
-0.12608573 -0.75371242 2.9420002 -2.0641122e+38
-0.1194581 -0.74730766 2.9170001 -2.2634447e+38
-0.11202762 -0.7350105 2.8690002 -2.4627245e+38
-0.10567144 -0.72886193 2.845 -2.4492756e+38
-0.10025239 -0.72886193 2.845 -2.4358275e+38
-0.094066672 -0.72296959 2.822 -2.4359312e+38
-0.087277152 -0.71144098 2.7770002 -2.4359837e+38
-0.081987627 -0.71144098 2.7770002 -2.4493802e+38
-0.076698102 -0.71144098 2.7770002 -2.462777e+38
-0.07081715 -0.70554864 2.7540002 -2.4629332e+38
-0.065571435 -0.70554864 2.7540002 -2.4763814e+38
-0.060325719 -0.70554864 2.7540002 -2.489622e+38
-0.055080004 -0.70554864 2.7540002 -2.48957e+38
-0.04945429 -0.70016861 2.733 -2.4761739e+38
-0.044248573 -0.70016861 2.733 -2.4494336e+38
-0.038728572 -0.69453245 2.7110002 -2.4360375e+38
-0.033564765 -0.69453245 2.7110002 -2.4227446e+38
-0.028400954 -0.69453245 2.7110002 -2.4092957e+38
-0.023057144 -0.68915242 2.6900001 -2.3958481e+38
-0.017933335 -0.68915242 2.6900001 -2.3690041e+38
-0.012809524 -0.68915242 2.6900001 -2.3553478e+38
-0.0076857149 -0.68915242 2.6900001 -2.3420029e+38
-0.002561905 -0.68915242 2.6900001 -2.3283983e+38
0.002561905 -0.68915242 2.6900001 -2.3152608e+38
0.0077457149 -0.69453245 2.7110002 -2.3017588e+38
0.012809524 -0.68915242 2.6900001 -2.2752241e+38
0.018073335 -0.69453245 2.7110002 -2.261932e+38
0.023057144 -0.68915242 2.6900001 -2.2487438e+38
0.028180955 -0.68915242 2.6900001 -2.2222116e+38
0.033304766 -0.68915242 2.6900001 -2.2356079e+38
0.038428575 -0.68915242 2.6900001 -2.2357639e+38
0.043552384 -0.68915242 2.6900001 -2.2489523e+38
0.048676193 -0.68915242 2.6900001 -2.2755369e+38
0.053800002 -0.68915242 2.6900001 -2.2356079e+38
0.058463812 -0.68377244 2.6690001 -2.209024e+38
0.063547626 -0.68377244 2.6690001 -2.1957321e+38
0.068117149 -0.67864859 2.6490002 -2.1824917e+38
0.073162861 -0.67864859 2.6490002 -2.1957321e+38
0.078799054 -0.68377244 2.6690001 -2.209025e+38
0.083882861 -0.68377244 2.6690001 -2.2223179e+38
0.088966675 -0.68377244 2.6690001 -2.2356101e+38
0.093345724 -0.67864859 2.6490002 -2.2356099e+38
0.098391436 -0.67864859 2.6490002 -2.2489024e+38
0.1042181 -0.68377244 2.6690001 -2.2489024e+38
0.10930191 -0.68377244 2.6690001 -2.2489543e+38
0.11352858 -0.67864859 2.6490002 -2.2356619e+38
0.11857429 -0.67864859 2.6490002 -2.2356617e+38
0.12362001 -0.67864859 2.6490002 -2.2357134e+38
0.12866572 -0.67864859 2.6490002 -2.2223692e+38
0.13371144 -0.67864859 2.6490002 -2.2224211e+38
0.13875715 -0.67864859 2.6490002 -2.2224209e+38
0.14380287 -0.67864859 2.6490002 -2.2223686e+38
0.14884858 -0.67864859 2.6490002 -2.2356608e+38
0.15389429 -0.67864859 2.6490002 -2.2223166e+38
0.15894002 -0.67864859 2.6490002 -2.2090763e+38
0.16522382 -0.68377244 2.6690001 -2.1957838e+38
0.17030764 -0.68377244 2.6690001 -2.1824398e+38
0.17539144 -0.68377244 2.6690001 -2.2089205e+38
0.18047525 -0.68377244 2.6690001 -2.235453e+38
0.18701907 -0.68915242 2.6900001 -2.2354528e+38
0.19214287 -0.68915242 2.6900001 -2.2487448e+38
0.19726668 -0.68915242 2.6900001 -2.2354521e+38
0.20239049 -0.68915242 2.6900001 -2.2222116e+38
0.2075143 -0.68915242 2.6900001 -2.2089191e+38
0.21263811 -0.68915242 2.6900001 -2.2088674e+38
0.21776192 -0.68915242 2.6900001 -2.2088676e+38
0.22288573 -0.68915242 2.6900001 -2.2088678e+38
0.22978954 -0.69453245 2.7110002 -2.2088159e+38
0.23495334 -0.69453245 2.7110002 -2.1954197e+38
0.24011716 -0.69453245 2.7110002 -2.2087118e+38
0.24528097 -0.69453245 2.7110002 -2.2087639e+38
0.25044477 -0.69453245 2.7110002 -2.1954719e+38
0.25560859 -0.69453245 2.7110002 -2.1822315e+38
0.26077241 -0.69453245 2.7110002 -2.1955238e+38
0.2680943 -0.70016861 2.733 -2.2087124e+38
0.27110001 -0.69453245 2.7110002 -2.2088163e+38
0.27412382 -0.68915242 2.6900001 -2.2221601e+38
0.27924764 -0.68915242 2.6900001 -2.2355039e+38
0.29461905 -0.68915242 2.6900001 -2.2755361e+38
0.30208287 -0.69453245 2.7110002 -2.2888279e+38
0.30724669 -0.69453245 2.7110002 -2.3021723e+38
0.3124105 -0.69453245 2.7110002 -2.3021723e+38
0.33310288 -0.70554864 2.7540002 -2.3287581e+38
0.33576858 -0.70016861 2.733 -2.3287585e+38
0.3409743 -0.70016861 2.733 -2.3287591e+38
0.34618002 -0.70016861 2.733 -2.3154673e+38
0.34855717 -0.69453245 2.7110002 -2.3021233e+38
0.35372096 -0.69453245 2.7110002 -2.2755389e+38
0.35888478 -0.69453245 2.7110002 -2.2489545e+38
0.3640486 -0.69453245 2.7110002 -2.262247e+38
0.36921242 -0.69453245 2.7110002 -2.2888837e+38
0.37437621 -0.69453245 2.7110002 -2.2889876e+38
0.37660003 -0.68915242 2.6900001 -2.3023841e+38
0.38172382 -0.68915242 2.6900001 -2.3023845e+38
0.38684765 -0.68915242 2.6900001 -2.3024364e+38
0.39197147 -0.68915242 2.6900001 -2.3290727e+38
0.39709526 -0.68915242 2.6900001 -2.3557086e+38
0.40221909 -0.68915242 2.6900001 -2.3691041e+38
0.40734288 -0.68915242 2.6900001 -2.3957406e+38
0.4124667 -0.68915242 2.6900001 -2.422429e+38
0.4175905 -0.68915242 2.6900001 -2.449275e+38
0.41941431 -0.68377244 2.6690001 -2.4626208e+38
0.42449811 -0.68377244 2.6690001 -2.4894151e+38
0.42958194 -0.68377244 2.6690001 -2.5160536e+38
0.43466574 -0.68377244 2.6690001 -2.5430554e+38
0.44320956 -0.68915242 2.6900001 -2.5694339e+38
0.44483337 -0.68377244 2.6690001 -2.5960701e+38
0.44991717 -0.68377244 2.6690001 -2.5032836e+38
0.455001 -0.68377244 2.6690001 -2.4234782e+38
0.46370479 -0.68915242 2.6900001 -2.4771148e+38
0.46882859 -0.68915242 2.6900001 -2.5320094e+38
0.47395241 -0.68915242 2.6900001 nan
0.47907624 -0.68915242 2.6900001 nan
0.48420003 -0.68915242 2.6900001 nan
0.48932385 -0.68915242 2.6900001 nan
0.49830765 -0.69453245 2.7110002 nan
0.50755715 -0.70016861 2.733 nan
-0.1554143 -0.75446576 2.9670002 nan
-0.14976287 -0.75446576 2.9670002 nan
-0.14411144 -0.75446576 2.9670002 nan
-0.13729334 -0.74810863 2.9420002 -2.7045382e+38
-0.13168953 -0.74810863 2.9420002 -2.4215453e+38
-0.12608573 -0.74810863 2.9420002 -2.1298966e+38
-0.1194581 -0.74175149 2.9170001 -2.3032179e+38
-0.11296477 -0.73564863 2.8930001 -2.4626729e+38
-0.10656287 -0.72954577 2.8690002 -2.4626206e+38
-0.10025239 -0.72344291 2.845 -2.4492764e+38
-0.094066672 -0.71759433 2.822 -2.4492764e+38
-0.087277152 -0.70615149 2.7770002 -2.4493287e+38
-0.081987627 -0.70615149 2.7770002 -2.4626733e+38
-0.076062866 -0.7003029 2.7540002 -2.4761739e+38
-0.07081715 -0.7003029 2.7540002 -2.4896745e+38
-0.065571435 -0.7003029 2.7540002 -2.5029151e+38
-0.060325719 -0.7003029 2.7540002 -2.5029155e+38
-0.054660004 -0.69496292 2.733 -2.5027591e+38
-0.04945429 -0.69496292 2.733 -2.4893106e+38
-0.044248573 -0.69496292 2.733 -2.4625697e+38
-0.038728572 -0.68936861 2.7110002 -2.4358807e+38
-0.033564765 -0.68936861 2.7110002 -2.3958994e+38
-0.028400954 -0.68936861 2.7110002 -2.3691585e+38
-0.023237145 -0.68936861 2.7110002 -2.342366e+38
-0.017933335 -0.68402863 2.6900001 -2.328762e+38
-0.012809524 -0.68402863 2.6900001 -2.3153654e+38
-0.0076857149 -0.68402863 2.6900001 -2.3019687e+38
-0.002561905 -0.68402863 2.6900001 -2.2752795e+38
0.002561905 -0.68402863 2.6900001 -2.2752787e+38
0.0077457149 -0.68936861 2.7110002 -2.2752771e+38
0.012909525 -0.68936861 2.7110002 -2.2619834e+38
0.018073335 -0.68936861 2.7110002 -2.2353473e+38
0.023057144 -0.68402863 2.6900001 -2.2087633e+38
0.028180955 -0.68402863 2.6900001 -2.1689903e+38
0.033304766 -0.68402863 2.6900001 -2.195627e+38
0.038428575 -0.68402863 2.6900001 -2.2222635e+38
0.043552384 -0.68402863 2.6900001 -2.2487961e+38
0.048676193 -0.68402863 2.6900001 -2.2754326e+38
0.053800002 -0.68402863 2.6900001 -2.2488481e+38
0.058923814 -0.68402863 2.6900001 -2.2089197e+38
0.063547626 -0.67868865 2.6690001 -2.1955757e+38
0.068631433 -0.67868865 2.6690001 -2.169095e+38
0.07371524 -0.67868865 2.6690001 -2.1824392e+38
0.078799054 -0.67868865 2.6690001 -2.1823877e+38
0.083882861 -0.67868865 2.6690001 -2.1956284e+38
0.088966675 -0.67868865 2.6690001 -2.1956286e+38
0.093345724 -0.67360288 2.6490002 -2.2089211e+38
0.098391436 -0.67360288 2.6490002 -2.2089731e+38
0.1042181 -0.67868865 2.6690001 -2.2222134e+38
0.10848287 -0.67360288 2.6490002 -2.2356095e+38
0.11352858 -0.67360288 2.6490002 -2.2356095e+38
0.11857429 -0.67360288 2.6490002 -2.2356613e+38
0.12362001 -0.67360288 2.6490002 -2.2490574e+38
0.12866572 -0.67360288 2.6490002 -2.2490055e+38
0.13371144 -0.67360288 2.6490002 -2.2490057e+38
0.13875715 -0.67360288 2.6490002 -2.2489537e+38
0.14380287 -0.67360288 2.6490002 -2.2489537e+38
0.14884858 -0.67360288 2.6490002 -2.2356093e+38
0.15389429 -0.67360288 2.6490002 -2.2355572e+38
0.15894002 -0.67360288 2.6490002 -2.2223166e+38
0.16522382 -0.67868865 2.6690001 -2.1957319e+38
0.17030764 -0.67868865 2.6690001 -2.1691473e+38
0.17539144 -0.67868865 2.6690001 -2.2089205e+38
0.18047525 -0.67868865 2.6690001 -2.235453e+38
0.18701907 -0.68402863 2.6900001 -2.2354008e+38
0.19214287 -0.68402863 2.6900001 -2.2221601e+38
0.19726668 -0.68402863 2.6900001 -2.2354521e+38
0.20239049 -0.68402863 2.6900001 -2.2355039e+38
0.2075143 -0.68402863 2.6900001 -2.1955749e+38
0.21263811 -0.68402863 2.6900001 -2.1557502e+38
0.21776192 -0.68402863 2.6900001 -2.1690946e+38
0.22462574 -0.68936861 2.7110002 -2.1689907e+38
0.22978954 -0.68936861 2.7110002 -2.168939e+38
0.23495334 -0.68936861 2.7110002 -2.1555944e+38
0.24011716 -0.68936861 2.7110002 -2.1821788e+38
0.24528097 -0.68936861 2.7110002 -2.1955232e+38
0.25044477 -0.68936861 2.7110002 -2.1822309e+38
0.25560859 -0.68936861 2.7110002 -2.1689386e+38
0.26077241 -0.68936861 2.7110002 -2.1954713e+38
0.2680943 -0.69496292 2.733 -2.2088157e+38
0.34618002 -0.69496292 2.733 -2.3288113e+38
0.34855717 -0.68936861 2.7110002 -2.302175e+38
0.35372096 -0.68936861 2.7110002 -2.2755387e+38
0.35888478 -0.68936861 2.7110002 -2.2489543e+38
0.3640486 -0.68936861 2.7110002 -2.2622466e+38
0.36921242 -0.68936861 2.7110002 -2.2622988e+38
0.37437621 -0.68936861 2.7110002 -2.275643e+38
0.37660003 -0.68402863 2.6900001 -2.2756953e+38
0.38172382 -0.68402863 2.6900001 -2.2757474e+38
0.38684765 -0.68402863 2.6900001 -2.2757993e+38
0.39197147 -0.68402863 2.6900001 -2.3023839e+38
0.39709526 -0.68402863 2.6900001 -2.3290717e+38
0.40221909 -0.68402863 2.6900001 -2.3557597e+38
0.40416288 -0.67868865 2.6690001 -2.3823962e+38
0.40924668 -0.67868865 2.6690001 -2.3957402e+38
0.41433051 -0.67868865 2.6690001 -2.409242e+38
0.41941431 -0.67868865 2.6690001 -2.4358803e+38
0.42449811 -0.67868865 2.6690001 -2.4491738e+38
0.42958194 -0.67868865 2.6690001 -2.5023443e+38
0.43466574 -0.67868865 2.6690001 -2.5421185e+38
0.44320956 -0.68402863 2.6900001 -2.5284119e+38
0.44483337 -0.67868865 2.6690001 -2.5023465e+38
0.45345718 -0.68402863 2.6900001 -2.4230082e+38
0.45858097 -0.68402863 2.6900001 -2.3427854e+38
0.46370479 -0.68402863 2.6900001 -2.1554975e+38
0.46882859 -0.68402863 2.6900001 -1.9591372e+38
0.47395241 -0.68402863 2.6900001 -3.0798551e+38
0.47907624 -0.68402863 2.6900001 nan
0.48420003 -0.68402863 2.6900001 nan
0.49314386 -0.68936861 2.7110002 nan
0.49830765 -0.68936861 2.7110002 nan
-0.1567762 -0.75537622 2.993 nan
-0.14976287 -0.74881434 2.9670002 nan
-0.14411144 -0.74881434 2.9670002 nan
-0.13846001 -0.74881434 2.9670002 -2.9299326e+38
-0.13168953 -0.74250484 2.9420002 -2.5418983e+38
-0.12608573 -0.74250484 2.9420002 -2.1560116e+38
-0.12048192 -0.74250484 2.9420002 -2.3162508e+38
-0.11390191 -0.73619527 2.9170001 -2.4759139e+38
-0.10656287 -0.72408098 2.8690002 -2.4759137e+38
-0.10025239 -0.71802384 2.845 -2.4626216e+38
-0.092566676 -0.70086193 2.7770002 -2.4759139e+38
-0.087277152 -0.70086193 2.7770002 -2.4759143e+38
-0.081987627 -0.70086193 2.7770002 -2.4893626e+38
-0.076062866 -0.69505721 2.7540002 -2.5027595e+38
-0.07081715 -0.69505721 2.7540002 -2.5028639e+38
-0.065571435 -0.69505721 2.7540002 -2.5027605e+38
-0.059865717 -0.68975717 2.733 -2.4894684e+38
-0.054660004 -0.68975717 2.733 -2.4893636e+38
-0.04945429 -0.68975717 2.733 -2.4626222e+38
-0.043892384 -0.68420482 2.7110002 -2.435829e+38
-0.038728572 -0.68420482 2.7110002 -2.3958471e+38
-0.033564765 -0.68420482 2.7110002 -2.355814e+38
-0.028400954 -0.68420482 2.7110002 -2.3423654e+38
-0.023237145 -0.68420482 2.7110002 -2.3289167e+38
-0.017933335 -0.67890483 2.6900001 -2.3021237e+38
-0.012809524 -0.67890483 2.6900001 -2.2887271e+38
-0.0076857149 -0.67890483 2.6900001 -2.2620383e+38
-0.002561905 -0.67890483 2.6900001 -2.2486933e+38
0.002561905 -0.67890483 2.6900001 -2.2354521e+38
0.0077457149 -0.68420482 2.7110002 -2.2353994e+38
0.012909525 -0.68420482 2.7110002 -2.2353465e+38
0.018073335 -0.68420482 2.7110002 -2.2220031e+38
0.023057144 -0.67890483 2.6900001 -2.1954711e+38
0.028180955 -0.67890483 2.6900001 -2.1689384e+38
0.033304766 -0.67890483 2.6900001 -2.1955228e+38
0.038428575 -0.67890483 2.6900001 -2.2221593e+38
0.043552384 -0.67890483 2.6900001 -2.2354515e+38
0.048676193 -0.67890483 2.6900001 -2.2620363e+38
0.053800002 -0.67890483 2.6900001 -2.2354517e+38
0.058923814 -0.67890483 2.6900001 -2.2088674e+38
0.063547626 -0.67360479 2.6690001 -2.195627e+38
0.068631433 -0.67360479 2.6690001 -2.1690425e+38
0.07371524 -0.67360479 2.6690001 -2.1823347e+38
0.078799054 -0.67360479 2.6690001 -2.1823349e+38
0.083882861 -0.67360479 2.6690001 -2.182283e+38
0.088966675 -0.67360479 2.6690001 -2.1822836e+38
0.093345724 -0.66855717 2.6490002 -2.1956284e+38
0.098391436 -0.66855717 2.6490002 -2.2090763e+38
0.10343715 -0.66855717 2.6490002 -2.2222645e+38
0.10848287 -0.66855717 2.6490002 -2.2356089e+38
0.11352858 -0.66855717 2.6490002 -2.2356091e+38
0.11857429 -0.66855717 2.6490002 -2.2356091e+38
0.12362001 -0.66855717 2.6490002 -2.2223686e+38
0.12866572 -0.66855717 2.6490002 -2.222369e+38
0.13371144 -0.66855717 2.6490002 -2.2223692e+38
0.13875715 -0.66855717 2.6490002 -2.2356097e+38
0.14380287 -0.66855717 2.6490002 -2.2356099e+38
0.14884858 -0.66855717 2.6490002 -2.2355578e+38
0.15389429 -0.66855717 2.6490002 -2.2223171e+38
0.15894002 -0.66855717 2.6490002 -2.2223688e+38
0.16522382 -0.67360479 2.6690001 -2.2090242e+38
0.17030764 -0.67360479 2.6690001 -2.2090242e+38
0.17539144 -0.67360479 2.6690001 -2.2222645e+38
0.18047525 -0.67360479 2.6690001 -2.2354008e+38
0.18701907 -0.67890483 2.6900001 -2.2354525e+38
0.19214287 -0.67890483 2.6900001 -2.2354523e+38
0.19726668 -0.67890483 2.6900001 -2.2222118e+38
0.20239049 -0.67890483 2.6900001 -2.2222635e+38
0.2075143 -0.67890483 2.6900001 -2.1956266e+38
0.21263811 -0.67890483 2.6900001 -2.1690423e+38
0.21776192 -0.67890483 2.6900001 -2.1557502e+38
0.22462574 -0.68420482 2.7110002 -2.1423543e+38
0.22978954 -0.68420482 2.7110002 -2.1556985e+38
0.23495334 -0.68420482 2.7110002 -2.1688865e+38
0.24011716 -0.68420482 2.7110002 -2.1821784e+38
0.24528097 -0.68420482 2.7110002 -2.2088148e+38
0.25044477 -0.68420482 2.7110002 -2.1822303e+38
0.25560859 -0.68420482 2.7110002 -2.1688861e+38
0.26077241 -0.68420482 2.7110002 -2.1822303e+38
0.2659362 -0.68420482 2.7110002 -2.1822826e+38
0.34855717 -0.68420482 2.7110002 -2.1958365e+38
0.35372096 -0.68420482 2.7110002 -2.2356617e+38
0.35888478 -0.68420482 2.7110002 -2.2622462e+38
0.3640486 -0.68420482 2.7110002 -2.2622462e+38
0.36921242 -0.68420482 2.7110002 -2.2622464e+38
0.37437621 -0.68420482 2.7110002 -2.2756425e+38
0.37954003 -0.68420482 2.7110002 -2.288935e+38
0.38470384 -0.68420482 2.7110002 -2.2890391e+38
0.38986763 -0.68420482 2.7110002 -2.3024352e+38
0.39503145 -0.68420482 2.7110002 -2.3156756e+38
0.40019527 -0.68420482 2.7110002 -2.3156754e+38
0.40221909 -0.67890483 2.6900001 -2.3423634e+38
0.40734288 -0.67890483 2.6900001 -2.3557074e+38
0.40924668 -0.67360479 2.6690001 -2.3691033e+38
0.41433051 -0.67360479 2.6690001 -2.3825532e+38
0.41941431 -0.67360479 2.6690001 -2.4090876e+38
0.42449811 -0.67360479 2.6690001 -2.4355691e+38
0.42958194 -0.67360479 2.6690001 -2.4754466e+38
0.43808573 -0.67890483 2.6900001 -2.5149606e+38
0.44320956 -0.67890483 2.6900001 -2.5151168e+38
0.44833335 -0.67890483 2.6900001 -2.5282535e+38
0.45345718 -0.67890483 2.6900001 -2.488948e+38
0.45858097 -0.67890483 2.6900001 -2.4489115e+38
0.46370479 -0.67890483 2.6900001 -2.1828023e+38
0.47248861 -0.68420482 2.7110002 -1.9301063e+38
0.47395241 -0.67890483 2.6900001 -2.5455623e+38
0.47907624 -0.67890483 2.6900001 -3.1740957e+38
0.48420003 -0.67890483 2.6900001 nan
0.48932385 -0.67890483 2.6900001 nan
-0.1653543 -0.76295054 3.0460002 nan
-0.15813811 -0.75618768 3.0190001 nan
-0.15107524 -0.74967527 2.993 nan
-0.1453743 -0.74967527 2.993 nan
-0.13846001 -0.74316293 2.9670002 -3.1563707e+38
-0.13168953 -0.73690099 2.9420002 -2.6733682e+38
-0.12608573 -0.73690099 2.9420002 -2.1827524e+38
-0.12048192 -0.73690099 2.9420002 -2.3430947e+38
-0.11390191 -0.7306391 2.9170001 -2.4892579e+38
-0.10656287 -0.71861625 2.8690002 -2.4892062e+38
-0.10025239 -0.71260482 2.845 -2.475966e+38
-0.093300007 -0.70108289 2.799 -2.4893104e+38
-0.087277152 -0.69557244 2.7770002 -2.5026546e+38
-0.081987627 -0.69557244 2.7770002 -2.516051e+38
-0.076062866 -0.68981147 2.7540002 -2.5294475e+38
-0.07081715 -0.68981147 2.7540002 -2.5161558e+38
-0.065571435 -0.68981147 2.7540002 -2.5027597e+38
-0.059865717 -0.68455148 2.733 -2.4894676e+38
-0.054660004 -0.68455148 2.733 -2.4626744e+38
-0.04945429 -0.68455148 2.733 -2.435933e+38
-0.043892384 -0.67904097 2.7110002 -2.4091397e+38
-0.038728572 -0.67904097 2.7110002 -2.369158e+38
-0.033564765 -0.67904097 2.7110002 -2.3157806e+38
-0.028400954 -0.67904097 2.7110002 -2.3155202e+38
-0.023237145 -0.67904097 2.7110002 -2.3021754e+38
-0.017933335 -0.67378098 2.6900001 -2.2753825e+38
-0.012809524 -0.67378098 2.6900001 -2.2487976e+38
-0.0076857149 -0.67378098 2.6900001 -2.2354008e+38
-0.002561905 -0.67378098 2.6900001 -2.2088678e+38
0.002561905 -0.67378098 2.6900001 -2.2089191e+38
0.0077457149 -0.67904097 2.7110002 -2.1954706e+38
0.012809524 -0.67378098 2.6900001 -2.2086587e+38
0.018073335 -0.67904097 2.7110002 -2.208711e+38
0.023057144 -0.67378098 2.6900001 -2.1954713e+38
0.028180955 -0.67378098 2.6900001 -2.1688869e+38
0.033304766 -0.67378098 2.6900001 -2.1954195e+38
0.038428575 -0.67378098 2.6900001 -2.2087635e+38
0.043552384 -0.67378098 2.6900001 -2.2220558e+38
0.048676193 -0.67378098 2.6900001 -2.2353998e+38
0.053800002 -0.67378098 2.6900001 -2.2221075e+38
0.058923814 -0.67378098 2.6900001 -2.2088672e+38
0.06404762 -0.67378098 2.6900001 -2.1956268e+38
0.068631433 -0.66852099 2.6690001 -2.1689903e+38
0.07371524 -0.66852099 2.6690001 -2.1822307e+38
0.078799054 -0.66852099 2.6690001 -2.1822309e+38
0.083882861 -0.66852099 2.6690001 -2.1821273e+38
0.088966675 -0.66852099 2.6690001 -2.1689392e+38
0.093345724 -0.66351146 2.6490002 -2.1954725e+38
0.098391436 -0.66351146 2.6490002 -2.2089203e+38
0.10343715 -0.66351146 2.6490002 -2.2222124e+38
0.10848287 -0.66351146 2.6490002 -2.2223164e+38
0.11352858 -0.66351146 2.6490002 -2.2223166e+38
0.11857429 -0.66351146 2.6490002 -2.2223166e+38
0.12362001 -0.66351146 2.6490002 -2.2090763e+38
0.12866572 -0.66351146 2.6490002 -2.1824919e+38
0.13371144 -0.66351146 2.6490002 -2.2090767e+38
0.13875715 -0.66351146 2.6490002 -2.2223175e+38
0.14380287 -0.66351146 2.6490002 -2.2222657e+38
0.14884858 -0.66351146 2.6490002 -2.2222653e+38
0.15389429 -0.66351146 2.6490002 -2.2223168e+38
0.15894002 -0.66351146 2.6490002 -2.2223166e+38
0.16522382 -0.66852099 2.6690001 -2.2356087e+38
0.17030764 -0.66852099 2.6690001 -2.2356087e+38
0.17539144 -0.66852099 2.6690001 -2.2356085e+38
0.18047525 -0.66852099 2.6690001 -2.2355045e+38
0.18701907 -0.67378098 2.6900001 -2.2355045e+38
0.19214287 -0.67378098 2.6900001 -2.2355045e+38
0.19726668 -0.67378098 2.6900001 -2.2222641e+38
0.20239049 -0.67378098 2.6900001 -2.1956272e+38
0.2075143 -0.67378098 2.6900001 -2.1956268e+38
0.21263811 -0.67378098 2.6900001 -2.1823347e+38
0.21776192 -0.67378098 2.6900001 -2.1424579e+38
0.22462574 -0.67904097 2.7110002 -2.1025811e+38
0.22978954 -0.67904097 2.7110002 -2.1425617e+38
0.23495334 -0.67904097 2.7110002 -2.1689382e+38
0.24011716 -0.67904097 2.7110002 -2.1954185e+38
0.24528097 -0.67904097 2.7110002 -2.2088144e+38
0.25044477 -0.67904097 2.7110002 -2.19547e+38
0.25560859 -0.67904097 2.7110002 -2.1689374e+38
0.34855717 -0.67904097 2.7110002 -2.0887172e+38
0.35372096 -0.67904097 2.7110002 -2.1823343e+38
0.35888478 -0.67904097 2.7110002 -2.2753815e+38
0.3640486 -0.67904097 2.7110002 -2.2755904e+38
0.36921242 -0.67904097 2.7110002 -2.2622981e+38
0.37437621 -0.67904097 2.7110002 -2.2756943e+38
0.37954003 -0.67904097 2.7110002 -2.2889863e+38
0.38470384 -0.67904097 2.7110002 -2.3155709e+38
0.38986763 -0.67904097 2.7110002 -2.3288632e+38
0.39503145 -0.67904097 2.7110002 -2.315519e+38
0.40019527 -0.67904097 2.7110002 -2.3023827e+38
0.40221909 -0.67378098 2.6900001 -2.315779e+38
0.40734288 -0.67378098 2.6900001 -2.3290713e+38
0.4124667 -0.67378098 2.6900001 -2.3424155e+38
0.41433051 -0.66852099 2.6690001 -2.3424684e+38
0.41941431 -0.66852099 2.6690001 -2.3822426e+38
0.42449811 -0.66852099 2.6690001 -2.4222761e+38
0.42958194 -0.66852099 2.6690001 -2.4621539e+38
0.43808573 -0.67378098 2.6900001 -2.4886869e+38
0.44320956 -0.67378098 2.6900001 -2.515324e+38
0.44833335 -0.67378098 2.6900001 -2.5419611e+38
0.45345718 -0.67378098 2.6900001 -2.5555136e+38
0.45858097 -0.67378098 2.6900001 -2.5556157e+38
0.46732479 -0.67904097 2.7110002 -2.2233588e+38
0.47248861 -0.67904097 2.7110002 -1.8912136e+38
0.4776524 -0.67904097 2.7110002 -2.0248175e+38
0.48281622 -0.67904097 2.7110002 -2.148093e+38
0.48798004 -0.67904097 2.7110002 nan
-0.17267334 -0.76386005 3.0730002 nan
-0.1653543 -0.75714862 3.0460002 nan
-0.1595524 -0.75714862 3.0460002 nan
-0.15238763 -0.7504372 3.0190001 nan
-0.1453743 -0.74397433 2.993 nan
-0.13846001 -0.73751146 2.9670002 -2.545603e+38
-0.13280858 -0.73751146 2.9670002 -2.4094446e+38
-0.12608573 -0.73129719 2.9420002 -2.276266e+38
-0.12048192 -0.73129719 2.9420002 -2.356283e+38
-0.11390191 -0.72508293 2.9170001 -2.449433e+38
-0.10745429 -0.71911716 2.8930001 -2.4626735e+38
-0.10025239 -0.70718575 2.845 -2.4627778e+38
-0.093300007 -0.69575149 2.799 -2.4894145e+38
-0.087277152 -0.69028288 2.7770002 -2.516051e+38
-0.081987627 -0.69028288 2.7770002 -2.5428949e+38
-0.076062866 -0.68456578 2.7540002 -2.5562915e+38
-0.07081715 -0.68456578 2.7540002 -2.5427917e+38
-0.065571435 -0.68456578 2.7540002 -2.5159475e+38
-0.059865717 -0.67934579 2.733 -2.4760188e+38
-0.054660004 -0.67934579 2.733 -2.4492255e+38
-0.04945429 -0.67934579 2.733 -2.4224839e+38
-0.043892384 -0.67387718 2.7110002 -2.395587e+38
-0.038728572 -0.67387718 2.7110002 -2.3423652e+38
-0.033564765 -0.67387718 2.7110002 -2.3023318e+38
-0.028400954 -0.67387718 2.7110002 -2.2888827e+38
-0.023237145 -0.67387718 2.7110002 -2.2754862e+38
-0.017933335 -0.66865718 2.6900001 -2.2487972e+38
-0.012809524 -0.66865718 2.6900001 -2.2221601e+38
-0.0076857149 -0.66865718 2.6900001 -2.2088672e+38
-0.002561905 -0.66865718 2.6900001 -2.1955747e+38
0.002561905 -0.66865718 2.6900001 -2.1955226e+38
0.0077457149 -0.67387718 2.7110002 -2.1953668e+38
0.012809524 -0.66865718 2.6900001 -2.1953668e+38
0.018073335 -0.67387718 2.7110002 -2.2087633e+38
0.023057144 -0.66865718 2.6900001 -2.1954715e+38
0.028180955 -0.66865718 2.6900001 -2.1954719e+38
0.033304766 -0.66865718 2.6900001 -2.1954201e+38
0.038428575 -0.66865718 2.6900001 -2.2086603e+38
0.043552384 -0.66865718 2.6900001 -2.222056e+38
0.048676193 -0.66865718 2.6900001 -2.2221077e+38
0.053800002 -0.66865718 2.6900001 -2.2088153e+38
0.058923814 -0.66865718 2.6900001 -2.2087631e+38
0.06404762 -0.66865718 2.6900001 -2.1822303e+38
0.068631433 -0.66343719 2.6690001 -2.155594e+38
0.07371524 -0.66343719 2.6690001 -2.1290614e+38
0.078799054 -0.66343719 2.6690001 -2.1024253e+38
0.083882861 -0.66343719 2.6690001 -2.1290101e+38
0.088966675 -0.66343719 2.6690001 -2.1423547e+38
0.093345724 -0.65846574 2.6490002 -2.1689914e+38
0.098391436 -0.65846574 2.6490002 -2.1823875e+38
0.10343715 -0.65846574 2.6490002 -2.1956796e+38
0.10848287 -0.65846574 2.6490002 -2.1957836e+38
0.11352858 -0.65846574 2.6490002 -2.1957319e+38
0.11857429 -0.65846574 2.6490002 -2.195628e+38
0.12268668 -0.65349436 2.6290002 -2.1824396e+38
0.12866572 -0.65846574 2.6490002 -2.1825437e+38
0.13371144 -0.65846574 2.6490002 -2.1824919e+38
0.13875715 -0.65846574 2.6490002 -2.1957327e+38
0.14380287 -0.65846574 2.6490002 -2.2089735e+38
0.14884858 -0.65846574 2.6490002 -2.2222134e+38
0.15389429 -0.65846574 2.6490002 -2.2222647e+38
0.15894002 -0.65846574 2.6490002 -2.2222128e+38
0.16522382 -0.66343719 2.6690001 -2.2356087e+38
0.17030764 -0.66343719 2.6690001 -2.2489008e+38
0.17539144 -0.66343719 2.6690001 -2.2488487e+38
0.18047525 -0.66343719 2.6690001 -2.262089e+38
0.18701907 -0.66865718 2.6900001 -2.2487965e+38
0.19214287 -0.66865718 2.6900001 -2.2487968e+38
0.19726668 -0.66865718 2.6900001 -2.2222124e+38
0.20239049 -0.66865718 2.6900001 -2.2088678e+38
0.2075143 -0.66865718 2.6900001 -2.1956789e+38
0.21263811 -0.66865718 2.6900001 -2.1956789e+38
0.21776192 -0.66865718 2.6900001 -2.1558021e+38
0.22462574 -0.67387718 2.7110002 -2.1291656e+38
0.22978954 -0.67387718 2.7110002 -2.15575e+38
0.23495334 -0.67387718 2.7110002 -2.1822303e+38
0.24011716 -0.67387718 2.7110002 -2.195522e+38
0.24528097 -0.67387718 2.7110002 -2.2089179e+38
0.25044477 -0.67387718 2.7110002 -2.1955733e+38
0.25560859 -0.67387718 2.7110002 -2.182281e+38
0.34855717 -0.67387718 2.7110002 -2.6853099e+38
0.35372096 -0.67387718 2.7110002 -2.340645e+38
0.35888478 -0.67387718 2.7110002 -2.0091193e+38
0.3640486 -0.67387718 2.7110002 -2.1558561e+38
0.36921242 -0.67387718 2.7110002 -2.3153634e+38
0.37437621 -0.67387718 2.7110002 -2.315519e+38
0.37954003 -0.67387718 2.7110002 -2.3022263e+38
0.38470384 -0.67387718 2.7110002 -2.315518e+38
0.38986763 -0.67387718 2.7110002 -2.3421025e+38
0.39503145 -0.67387718 2.7110002 -2.3288622e+38
0.40019527 -0.67387718 2.7110002 -2.3289149e+38
0.40221909 -0.66865718 2.6900001 -2.3289674e+38
0.40734288 -0.66865718 2.6900001 -2.3421561e+38
0.4124667 -0.66865718 2.6900001 -2.342364e+38
0.41433051 -0.66343719 2.6690001 -2.3557086e+38
0.41941431 -0.66343719 2.6690001 -2.3690532e+38
0.42449811 -0.66343719 2.6690001 -2.3957947e+38
0.42958194 -0.66343719 2.6690001 -2.4223803e+38
0.43808573 -0.66865718 2.6900001 -2.4623097e+38
0.44320956 -0.66865718 2.6900001 -2.4888948e+38
0.44833335 -0.66865718 2.6900001 -2.5288765e+38
0.45345718 -0.66865718 2.6900001 -2.529085e+38
0.45858097 -0.66865718 2.6900001 -2.5426893e+38
0.46732479 -0.67387718 2.7110002 -2.369942e+38
0.47632289 -0.67934579 2.733 -2.2105894e+38
0.48152861 -0.67934579 2.733 -2.1175424e+38
-0.18015334 -0.76491338 3.1010001 nan
-0.17267334 -0.75800669 3.0730002 nan
-0.16682 -0.75800669 3.0730002 nan
-0.1595524 -0.75134671 3.0460002 nan
-0.15375048 -0.75134671 3.0460002 nan
-0.14663716 -0.74468672 3.0190001 -3.316045e+38
-0.14088668 -0.74468672 3.0190001 -1.9184219e+38
-0.13280858 -0.73186004 2.9670002 -2.1425609e+38
-0.12715715 -0.73186004 2.9670002 -2.3559157e+38
-0.12048192 -0.7256934 2.9420002 -2.3829191e+38
-0.11390191 -0.71952671 2.9170001 -2.4094523e+38
-0.10745429 -0.71360672 2.8930001 -2.4360373e+38
-0.10025239 -0.70176673 2.845 -2.4494857e+38
-0.093300007 -0.69042003 2.799 -2.4894666e+38
-0.087277152 -0.68499339 2.7770002 -2.5297067e+38
-0.081987627 -0.68499339 2.7770002 -2.5566028e+38
-0.076062866 -0.67932004 2.7540002 -2.5828239e+38
-0.07081715 -0.67932004 2.7540002 -2.5561355e+38
-0.065071434 -0.67414004 2.733 -2.5293948e+38
-0.059865717 -0.67414004 2.733 -2.4760177e+38
-0.054220002 -0.66871339 2.7110002 -2.4226399e+38
-0.04945429 -0.67414004 2.733 -2.3957949e+38
-0.043892384 -0.66871339 2.7110002 -2.3690536e+38
-0.038728572 -0.66871339 2.7110002 -2.3289682e+38
-0.033564765 -0.66871339 2.7110002 -2.2888827e+38
-0.028180955 -0.66353339 2.6900001 -2.2620896e+38
-0.023057144 -0.66353339 2.6900001 -2.2355045e+38
-0.017933335 -0.66353339 2.6900001 -2.2221599e+38
-0.012809524 -0.66353339 2.6900001 -2.1955747e+38
-0.0076857149 -0.66353339 2.6900001 -2.1955222e+38
-0.002561905 -0.66353339 2.6900001 -2.1822299e+38
0.002561905 -0.66353339 2.6900001 -2.1954181e+38
0.0076857149 -0.66353339 2.6900001 -2.1953664e+38
0.012809524 -0.66353339 2.6900001 -2.1953145e+38
0.017933335 -0.66353339 2.6900001 -2.1953666e+38
0.023057144 -0.66353339 2.6900001 -2.2086593e+38
0.028180955 -0.66353339 2.6900001 -2.2087116e+38
0.033304766 -0.66353339 2.6900001 -2.2086601e+38
0.038428575 -0.66353339 2.6900001 -2.2087116e+38
0.043552384 -0.66353339 2.6900001 -2.2087633e+38
0.048676193 -0.66353339 2.6900001 -2.2087631e+38
0.053800002 -0.66353339 2.6900001 -2.2087631e+38
0.058923814 -0.66353339 2.6900001 -2.1954187e+38
0.063547626 -0.65835339 2.6690001 -2.168834e+38
0.068631433 -0.65835339 2.6690001 -2.1423013e+38
0.07371524 -0.65835339 2.6690001 -2.0891843e+38
0.078799054 -0.65835339 2.6690001 -2.0227233e+38
0.083254293 -0.65342003 2.6490002 -2.0758931e+38
0.088966675 -0.65835339 2.6690001 -2.1157703e+38
0.093345724 -0.65342003 2.6490002 -2.1423555e+38
0.098391436 -0.65342003 2.6490002 -2.1558035e+38
0.10343715 -0.65342003 2.6490002 -2.1690958e+38
0.10848287 -0.65342003 2.6490002 -2.1690956e+38
0.11352858 -0.65342003 2.6490002 -2.1690954e+38
0.11857429 -0.65342003 2.6490002 -2.1690954e+38
0.12362001 -0.65342003 2.6490002 -2.1691475e+38
0.12866572 -0.65342003 2.6490002 -2.1691994e+38
0.13371144 -0.65342003 2.6490002 -2.1691475e+38
0.13875715 -0.65342003 2.6490002 -2.1691477e+38
0.14380287 -0.65342003 2.6490002 -2.1956808e+38
0.14884858 -0.65342003 2.6490002 -2.2089728e+38
0.15389429 -0.65342003 2.6490002 -2.2090246e+38
0.15894002 -0.65342003 2.6490002 -2.2090242e+38
0.16522382 -0.65835339 2.6690001 -2.2356085e+38
0.17030764 -0.65835339 2.6690001 -2.2621929e+38
0.17539144 -0.65835339 2.6690001 -2.275433e+38
0.18047525 -0.65835339 2.6690001 -2.2753809e+38
0.18701907 -0.66353339 2.6900001 -2.2620886e+38
0.19214287 -0.66353339 2.6900001 -2.2487963e+38
0.19726668 -0.66353339 2.6900001 -2.2354523e+38
0.20239049 -0.66353339 2.6900001 -2.2089714e+38
0.2075143 -0.66353339 2.6900001 -2.209127e+38
0.21263811 -0.66353339 2.6900001 -2.2090231e+38
0.21776192 -0.66353339 2.6900001 -2.1825424e+38
0.22462574 -0.66871339 2.7110002 -2.1425096e+38
0.22978954 -0.66871339 2.7110002 -2.1690421e+38
0.23495334 -0.66871339 2.7110002 -2.182282e+38
0.24011716 -0.66871339 2.7110002 -2.1955222e+38
0.24528097 -0.66871339 2.7110002 -2.195626e+38
0.25044477 -0.66871339 2.7110002 -2.1956262e+38
0.25768286 -0.67414004 2.733 -2.1953116e+38
0.33822954 -0.66871339 2.7110002 -3.2746465e+38
0.34339336 -0.66871339 2.7110002 -3.2738135e+38
0.34855717 -0.66871339 2.7110002 -3.2730288e+38
0.35372096 -0.66871339 2.7110002 -2.499163e+38
0.35888478 -0.66871339 2.7110002 -1.7293571e+38
0.3640486 -0.66871339 2.7110002 -2.04983e+38
0.36921242 -0.66871339 2.7110002 -2.3687928e+38
0.37437621 -0.66871339 2.7110002 -2.342208e+38
0.37954003 -0.66871339 2.7110002 -2.315519e+38
0.38470384 -0.66871339 2.7110002 -2.3286551e+38
0.38986763 -0.66871339 2.7110002 -2.3420514e+38
0.39503145 -0.66871339 2.7110002 -2.3421557e+38
0.39709526 -0.66353339 2.6900001 -2.3423122e+38
0.39907908 -0.65835339 2.6690001 -2.3423648e+38
0.40416288 -0.65835339 2.6690001 -2.3424167e+38
0.40924668 -0.65835339 2.6690001 -2.3557611e+38
0.41433051 -0.65835339 2.6690001 -2.3691053e+38
0.41941431 -0.65835339 2.6690001 -2.3690536e+38
0.42449811 -0.65835339 2.6690001 -2.3559181e+38
0.42958194 -0.65835339 2.6690001 -2.395744e+38
0.43808573 -0.66353339 2.6900001 -2.4357772e+38
0.44320956 -0.66353339 2.6900001 -2.4757066e+38
0.44833335 -0.66353339 2.6900001 -2.502396e+38
0.45345718 -0.66353339 2.6900001 -2.5157413e+38
0.46216097 -0.66871339 2.7110002 -2.5161055e+38
0.47111717 -0.67414004 2.733 -2.5163662e+38
0.47998288 -0.67932004 2.7540002 -2.5162611e+38
-0.18015334 -0.75900674 3.1010001 nan
-0.17424668 -0.75900674 3.1010001 nan
-0.16834001 -0.75900674 3.1010001 nan
-0.16096668 -0.7521534 3.0730002 nan
-0.15511334 -0.7521534 3.0730002 nan
-0.14794858 -0.74554479 3.0460002 -3.1556991e+38
-0.14088668 -0.73893625 3.0190001 -1.862601e+38
-0.13397239 -0.73257244 2.993 -2.1426131e+38
-0.12827143 -0.73257244 2.993 -2.422429e+38
-0.12150572 -0.72620863 2.9670002 -2.4225878e+38
-0.1148781 -0.72008955 2.9420002 -2.435777e+38
-0.10834572 -0.71397054 2.9170001 -2.4360375e+38
-0.10109811 -0.70222193 2.8690002 -2.4495898e+38
-0.094066672 -0.69071811 2.822 -2.4764861e+38
-0.087277152 -0.67970383 2.7770002 -2.5034858e+38
-0.081987627 -0.67970383 2.7770002 -2.5431028e+38
-0.076062866 -0.67407435 2.7540002 -2.5692718e+38
-0.07081715 -0.67407435 2.7540002 -2.5427909e+38
-0.065071434 -0.66893435 2.733 -2.5162057e+38
-0.059865717 -0.66893435 2.733 -2.4627242e+38
-0.054220002 -0.66354954 2.7110002 -2.4093468e+38
-0.049056195 -0.66354954 2.7110002 -2.3692617e+38
-0.043892384 -0.66354954 2.7110002 -2.3291761e+38
-0.038728572 -0.66354954 2.7110002 -2.3022788e+38
-0.033564765 -0.66354954 2.7110002 -2.2621416e+38
-0.028400954 -0.66354954 2.7110002 -2.2487963e+38
-0.023237145 -0.66354954 2.7110002 -2.2354517e+38
-0.017933335 -0.6584096 2.6900001 -2.2088668e+38
-0.012809524 -0.6584096 2.6900001 -2.195522e+38
-0.0076857149 -0.6584096 2.6900001 -2.1955214e+38
-0.002561905 -0.6584096 2.6900001 -2.2088136e+38
0.002561905 -0.6584096 2.6900001 -2.2086579e+38
0.0076857149 -0.6584096 2.6900001 -2.2085542e+38
0.012809524 -0.6584096 2.6900001 -2.1952621e+38
0.017933335 -0.6584096 2.6900001 -2.1952104e+38
0.023057144 -0.6584096 2.6900001 -2.1953143e+38
0.028180955 -0.6584096 2.6900001 -2.208711e+38
0.033304766 -0.6584096 2.6900001 -2.2087116e+38
0.038428575 -0.6584096 2.6900001 -2.1955228e+38
0.043552384 -0.6584096 2.6900001 -2.1954704e+38
0.048676193 -0.6584096 2.6900001 -2.1954185e+38
0.053800002 -0.6584096 2.6900001 -2.1953147e+38
0.058463812 -0.65326959 2.6690001 -2.1819703e+38
0.063547626 -0.65326959 2.6690001 -2.1554894e+38
0.068631433 -0.65326959 2.6690001 -2.1423011e+38
0.073162861 -0.64837432 2.6490002 -2.089132e+38
0.078208573 -0.64837432 2.6490002 -2.0359637e+38
0.083254293 -0.64837432 2.6490002 -2.0758933e+38
0.088300005 -0.64837432 2.6490002 -2.1291149e+38
0.093345724 -0.64837432 2.6490002 -2.1557001e+38
0.097648576 -0.64347911 2.6290002 -2.1691483e+38
0.1026562 -0.64347911 2.6290002 -2.1690447e+38
0.10848287 -0.64837432 2.6490002 -2.1823364e+38
0.11352858 -0.64837432 2.6490002 -2.1823358e+38
0.11857429 -0.64837432 2.6490002 -2.1823879e+38
0.12362001 -0.64837432 2.6490002 -2.1690956e+38
0.12866572 -0.64837432 2.6490002 -2.1691473e+38
0.13371144 -0.64837432 2.6490002 -2.1823875e+38
0.13875715 -0.64837432 2.6490002 -2.1824398e+38
0.14380287 -0.64837432 2.6490002 -2.18244e+38
0.14884858 -0.64837432 2.6490002 -2.1957323e+38
0.15389429 -0.64837432 2.6490002 -2.1957323e+38
0.15894002 -0.64837432 2.6490002 -2.2090242e+38
0.16522382 -0.65326959 2.6690001 -2.222316e+38
0.17030764 -0.65326959 2.6690001 -2.2489004e+38
0.17539144 -0.65326959 2.6690001 -2.2488481e+38
0.18047525 -0.65326959 2.6690001 -2.2620884e+38
0.18701907 -0.6584096 2.6900001 -2.2487961e+38
0.19214287 -0.6584096 2.6900001 -2.2222116e+38
0.19726668 -0.6584096 2.6900001 -2.2089191e+38
0.20239049 -0.6584096 2.6900001 -2.2089712e+38
0.2075143 -0.6584096 2.6900001 -2.2089712e+38
0.21263811 -0.6584096 2.6900001 -2.2089193e+38
0.21776192 -0.6584096 2.6900001 -2.1957309e+38
0.22462574 -0.66354954 2.7110002 -2.1823345e+38
0.22978954 -0.66354954 2.7110002 -2.1956264e+38
0.23495334 -0.66354954 2.7110002 -2.2089704e+38
0.24011716 -0.66354954 2.7110002 -2.2089702e+38
0.24528097 -0.66354954 2.7110002 -2.2223669e+38
0.25044477 -0.66354954 2.7110002 -2.1555946e+38
0.33822954 -0.66354954 2.7110002 nan
0.34339336 -0.66354954 2.7110002 nan
0.34855717 -0.66354954 2.7110002 nan
0.35372096 -0.66354954 2.7110002 -3.3405198e+38
0.35888478 -0.66354954 2.7110002 -2.6056601e+38
0.3640486 -0.66354954 2.7110002 -2.4746124e+38
0.36921242 -0.66354954 2.7110002 -2.3424165e+38
0.37437621 -0.66354954 2.7110002 -2.3555528e+38
0.37954003 -0.66354954 2.7110002 -2.3686887e+38
0.38470384 -0.66354954 2.7110002 -2.3686362e+38
0.38986763 -0.66354954 2.7110002 -2.3553447e+38
0.39503145 -0.66354954 2.7110002 -2.355553e+38
0.39709526 -0.6584096 2.6900001 -2.3558134e+38
0.39907908 -0.65326959 2.6690001 -2.3691063e+38
0.40416288 -0.65326959 2.6690001 -2.3692102e+38
0.40924668 -0.65326959 2.6690001 -2.3825022e+38
0.41433051 -0.65326959 2.6690001 -2.3957945e+38
0.41941431 -0.65326959 2.6690001 -2.3826578e+38
0.42449811 -0.65326959 2.6690001 -2.3694185e+38
0.43296194 -0.6584096 2.6900001 -2.409348e+38
0.44150573 -0.66354954 2.7110002 -2.4492774e+38
0.44666955 -0.66354954 2.7110002 -2.4758626e+38
0.45183337 -0.66354954 2.7110002 -2.5025003e+38
0.45699719 -0.66354954 2.7110002 -2.5291378e+38
0.46216097 -0.66354954 2.7110002 -2.542743e+38
0.47111717 -0.66893435 2.733 -2.5561923e+38
-0.18015334 -0.75310004 3.1010001 nan
-0.17424668 -0.75310004 3.1010001 nan
-0.16986001 -0.75990003 3.1290002 nan
-0.16243334 -0.75310004 3.1010001 nan
-0.15511334 -0.74630004 3.0730002 nan
-0.14794858 -0.73974293 3.0460002 -2.9929709e+38
-0.14214668 -0.73974293 3.0460002 -1.8098986e+38
-0.1351362 -0.73318577 3.0190001 -2.1560617e+38
-0.12827143 -0.72687149 2.993 -2.4888387e+38
-0.12150572 -0.72055721 2.9670002 -2.4757048e+38
-0.11585429 -0.72055721 2.9670002 -2.4491214e+38
-0.10927429 -0.71448576 2.9420002 -2.4493821e+38
-0.10194381 -0.70258576 2.8930001 -2.4496421e+38
-0.092566676 -0.67441434 2.7770002 -2.4633502e+38
-0.087277152 -0.67441434 2.7770002 -2.4768497e+38
-0.081987627 -0.67441434 2.7770002 -2.5165185e+38
-0.076062866 -0.66882861 2.7540002 -2.5561872e+38
-0.07081715 -0.66882861 2.7540002 -2.5294465e+38
-0.065071434 -0.66372859 2.733 -2.5027053e+38
-0.059865717 -0.66372859 2.733 -2.449276e+38
-0.054220002 -0.65838575 2.7110002 -2.3958986e+38
-0.049056195 -0.65838575 2.7110002 -2.342625e+38
-0.043892384 -0.65838575 2.7110002 -2.2891433e+38
-0.038428575 -0.65328574 2.6900001 -2.2622981e+38
-0.033304766 -0.65328574 2.6900001 -2.2356087e+38
-0.028400954 -0.65838575 2.7110002 -2.235556e+38
-0.023057144 -0.65328574 2.6900001 -2.2221595e+38
-0.017933335 -0.65328574 2.6900001 -2.2088148e+38
-0.012809524 -0.65328574 2.6900001 -2.1955222e+38
-0.0076857149 -0.65328574 2.6900001 -2.208814e+38
-0.002561905 -0.65328574 2.6900001 -2.2219503e+38
0.002561905 -0.65328574 2.6900001 -2.2217946e+38
0.0076857149 -0.65328574 2.6900001 -2.2085542e+38
0.012809524 -0.65328574 2.6900001 -2.1952621e+38
0.017933335 -0.65328574 2.6900001 -2.1819699e+38
0.023057144 -0.65328574 2.6900001 -2.1953139e+38
0.028180955 -0.65328574 2.6900001 -2.2086583e+38
0.033304766 -0.65328574 2.6900001 -2.1953143e+38
0.038428575 -0.65328574 2.6900001 -2.1821256e+38
0.043552384 -0.65328574 2.6900001 -2.1820737e+38
0.048676193 -0.65328574 2.6900001 -2.182022e+38
0.053800002 -0.65328574 2.6900001 -2.1818664e+38
0.058463812 -0.64818573 2.6690001 -2.168678e+38
0.063547626 -0.64818573 2.6690001 -2.1554374e+38
0.068631433 -0.64818573 2.6690001 -2.1289569e+38
0.073162861 -0.64332861 2.6490002 -2.089132e+38
0.078208573 -0.64332861 2.6490002 -2.0360156e+38
0.083254293 -0.64332861 2.6490002 -2.0892373e+38
0.088300005 -0.64332861 2.6490002 -2.1423031e+38
0.093345724 -0.64332861 2.6490002 -2.1688885e+38
0.098391436 -0.64332861 2.6490002 -2.1821806e+38
0.10343715 -0.64332861 2.6490002 -2.1821806e+38
0.10848287 -0.64332861 2.6490002 -2.1822321e+38
0.11352858 -0.64332861 2.6490002 -2.1822319e+38
0.11857429 -0.64332861 2.6490002 -2.1822838e+38
0.12362001 -0.64332861 2.6490002 -2.1822838e+38
0.12866572 -0.64332861 2.6490002 -2.1690433e+38
0.13371144 -0.64332861 2.6490002 -2.1822836e+38
0.13875715 -0.64332861 2.6490002 -2.1956798e+38
0.14380287 -0.64332861 2.6490002 -2.1824913e+38
0.14884858 -0.64332861 2.6490002 -2.169199e+38
0.15389429 -0.64332861 2.6490002 -2.1957838e+38
0.15894002 -0.64332861 2.6490002 -2.2090757e+38
0.16522382 -0.64818573 2.6690001 -2.2223676e+38
0.17030764 -0.64818573 2.6690001 -2.2223154e+38
0.17539144 -0.64818573 2.6690001 -2.2355554e+38
