# .PCD v0.7 - Point Cloud Data file format
VERSION 0.7
FIELDS x y z rgb
SIZE 4 4 4 4
TYPE F F F F
COUNT 1 1 1 1
WIDTH 1298
HEIGHT 1
VIEWPOINT 0 0 0 1 0 0 0
POINTS 1298
DATA ascii
1.5586432 -0.76962137 1.2673244 nan
1.5586369 -0.77222699 1.2673244 nan
1.5586307 -0.77483273 1.2673244 nan
1.5586244 -0.77743846 1.2673244 nan
1.5586182 -0.78004414 1.2673244 nan
1.5586119 -0.78264987 1.2673244 nan
1.5586056 -0.78525555 1.2673244 nan
1.5585994 -0.78786129 1.2673244 nan
1.558593 -0.79046702 1.2673244 nan
1.5585868 -0.79307264 1.2673244 nan
1.5585805 -0.79567838 1.2673244 nan
1.5585743 -0.79828411 1.2673244 nan
3.3476441 -0.77143377 1.2970911 -2.5959555e+38
3.3196447 -0.7711665 1.2965845 -2.9949844e+38
3.3196304 -0.77712643 1.2965845 -3.3812385e+38
3.2916315 -0.77669907 1.2960778 nan
3.3196018 -0.78904647 1.2965845 nan
3.3195875 -0.79500645 1.2965845 -3.2750013e+38
3.3195732 -0.80096638 1.2965845 -2.8495502e+38
3.2915747 -0.80032569 1.2960778 -3.0897517e+38
2.0146682 -0.75986052 1.2729702 nan
2.004669 -0.75952977 1.2727892 nan
2.0046606 -0.76298499 1.2727892 nan
1.9406711 -0.75851119 1.2716311 nan
1.9316715 -0.75828284 1.2714683 nan
1.9226722 -0.75802028 1.2713054 nan
1.9136729 -0.75772339 1.2711426 nan
1.9056727 -0.75779366 1.2709978 nan
1.8966736 -0.75743014 1.2708349 nan
1.8966657 -0.76067966 1.2708349 nan
1.8886657 -0.76067191 1.2706902 nan
1.8886579 -0.76390618 1.2706902 -2.7808999e+38
1.880658 -0.76385266 1.2705455 -2.3275629e+38
1.8886424 -0.77037477 1.2706902 -1.8631113e+38
1.8636595 -0.76323938 1.2702378 -2.6351535e+38
1.8476678 -0.75975901 1.2699482 nan
1.8476602 -0.76291519 1.2699482 nan
1.8396606 -0.76270741 1.2698035 nan
1.839653 -0.76584834 1.2698035 nan
1.8316537 -0.76559484 1.2696588 nan
1.8316462 -0.76872057 1.2696588 nan
1.8166541 -0.76542449 1.2693874 nan
1.8086548 -0.76508147 1.2692425 nan
1.8016547 -0.76513982 1.2691159 nan
1.7936558 -0.76473778 1.2689712 nan
1.7866557 -0.76474088 1.2688445 nan
1.7796557 -0.7647174 1.2687178 nan
1.7796484 -0.76774412 1.2687178 nan
1.7716496 -0.76723915 1.268573 nan
1.7576572 -0.76404363 1.2683197 nan
1.7506576 -0.76391149 1.268193 nan
1.7436579 -0.76375282 1.2680664 -3.3944243e+38
1.7366583 -0.76356739 1.2679397 -3.3944229e+38
1.7296587 -0.76335531 1.2678131 -3.3942166e+38
1.7296517 -0.76628673 1.2678131 -3.3542893e+38
1.7226523 -0.76603466 1.2676864 -3.314568e+38
1.7156529 -0.76575595 1.2675598 -3.3147755e+38
1.7096527 -0.76590919 1.2674512 -3.3148791e+38
1.7026534 -0.76557899 1.2673244 -3.3149309e+38
1.6966531 -0.76568455 1.267216 -3.3148266e+38
1.689654 -0.76530296 1.2670892 -3.3146187e+38
1.682655 -0.76489472 1.2669625 -3.3145149e+38
1.6766548 -0.76492792 1.266854 -3.314411e+38
1.6636628 -0.76164806 1.2666187 -3.3142035e+38
1.6516696 -0.75879067 1.2664016 -3.3009113e+38
1.6456697 -0.75873053 1.266293 -3.2876713e+38
1.645663 -0.76150191 1.266293 -3.3010157e+38
1.6396632 -0.76140749 1.2661844 -3.3012755e+38
1.6336634 -0.76129025 1.266076 -3.301795e+38
1.6276639 -0.76115006 1.2659674 -3.2886065e+38
1.6156712 -0.75808698 1.2657502 -3.3284836e+38
1.6036786 -0.75497812 1.2655331 -3.3549647e+38
1.6036721 -0.75766951 1.2655331 -3.3681535e+38
1.5976727 -0.75742656 1.2654245 -3.3813931e+38
1.5926721 -0.75765169 1.265334 -3.3544962e+38
1.5926657 -0.76032215 1.265334 -3.3288022e+38
1.5866663 -0.76002389 1.2652254 nan
1.5756732 -0.75721937 1.2650265 nan
1.5756668 -0.75985748 1.2650265 nan
1.5696677 -0.75949258 1.2649179 nan
1.5696614 -0.76211923 1.2649179 nan
1.5696551 -0.76474589 1.2649179 nan
1.5646547 -0.7648415 1.2648274 nan
1.5646485 -0.76745862 1.2648274 nan
1.5646422 -0.7700758 1.2648274 nan
1.5586432 -0.76962137 1.2647188 nan
1.5586369 -0.77222699 1.2647188 nan
1.5586307 -0.77483273 1.2647188 nan
1.5586244 -0.77743846 1.2647188 nan
1.5586182 -0.78004414 1.2647188 nan
1.5586119 -0.78264987 1.2647188 nan
1.5586056 -0.78525555 1.2647188 nan
1.5585994 -0.78786129 1.2647188 nan
1.558593 -0.79046702 1.2647188 nan
1.5645792 -0.79624707 1.2648274 nan
1.5585805 -0.79567838 1.2647188 nan
1.5585743 -0.79828411 1.2647188 nan
3.3476441 -0.77143377 1.2910779 -2.7414425e+38
3.3196447 -0.7711665 1.2906245 -3.0484654e+38
3.3196304 -0.77712643 1.2906245 -3.3681541e+38
3.3196161 -0.78308642 1.2906245 nan
3.3196018 -0.78904647 1.2906245 nan
3.3195875 -0.79500645 1.2906245 nan
3.3195732 -0.80096638 1.2906245 -3.2342994e+38
3.2915747 -0.80032569 1.2901711 -3.1427105e+38
3.2915604 -0.80623233 1.2901711 -3.0642072e+38
1.9316795 -0.75496668 1.2681521 nan
1.9316715 -0.75828284 1.2681521 nan
1.9226722 -0.75802028 1.2680064 nan
1.9056805 -0.75452703 1.2677312 nan
1.9056727 -0.75779366 1.2677312 nan
1.8966736 -0.75743014 1.2675854 nan
1.8966657 -0.76067966 1.2675854 nan
1.8886657 -0.76067191 1.2674559 nan
1.8886579 -0.76390618 1.2674559 -3.2467513e+38
1.8886502 -0.76714045 1.2674559 -3.0467453e+38
1.8886424 -0.77037477 1.2674559 -2.8594624e+38
1.8636595 -0.76323938 1.2670511 -3.3411548e+38
1.8476678 -0.75975901 1.2667921 nan
1.8476602 -0.76291519 1.2667921 nan
1.8396606 -0.76270741 1.2666626 nan
1.839653 -0.76584834 1.2666626 nan
1.8316537 -0.76559484 1.266533 nan
1.8316462 -0.76872057 1.266533 nan
1.8086623 -0.76199955 1.2661607 nan
1.8016621 -0.76207125 1.2660474 nan
1.8016547 -0.76513982 1.2660474 nan
1.7936558 -0.76473778 1.2659178 nan
1.7866557 -0.76474088 1.2658045 nan
1.7796557 -0.7647174 1.2656912 nan
1.7796484 -0.76774412 1.2656912 nan
1.764657 -0.76414901 1.2654483 nan
1.7576572 -0.76404363 1.265335 nan
1.7506576 -0.76391149 1.2652216 nan
1.7436579 -0.76375282 1.2651083 nan
1.7366583 -0.76356739 1.264995 nan
1.7296587 -0.76335531 1.2648816 nan
1.7296517 -0.76628673 1.2648816 nan
1.7226523 -0.76603466 1.2647682 -3.3546002e+38
1.7156529 -0.76575595 1.264655 -3.3547039e+38
1.7096527 -0.76590919 1.2645578 -3.3679959e+38
1.7026534 -0.76557899 1.2644445 -3.3548071e+38
1.6966531 -0.76568455 1.2643473 -3.354703e+38
1.689654 -0.76530296 1.2642341 -3.3414104e+38
1.682655 -0.76489472 1.2641207 -3.3279629e+38
1.6766548 -0.76492792 1.2640235 -3.3145153e+38
1.6636628 -0.76164806 1.263813 -3.3142039e+38
1.6576629 -0.76162219 1.2637159 -3.3144116e+38
1.6516629 -0.76157349 1.2636188 -3.3144122e+38
1.645663 -0.76150191 1.2635217 -3.3277568e+38
1.6396632 -0.76140749 1.2634245 -3.3412049e+38
1.6336634 -0.76129025 1.2633274 -3.3549126e+38
1.6276639 -0.76115006 1.2632302 -3.3552243e+38
1.6156712 -0.75808698 1.2630359 -3.3684649e+38
1.6036786 -0.75497812 1.2628416 -3.3817058e+38
1.6036721 -0.75766951 1.2628416 -3.3950506e+38
1.5976727 -0.75742656 1.2627444 -3.3948943e+38
1.5926721 -0.75765169 1.2626635 -3.3282765e+38
1.5926657 -0.76032215 1.2626635 -3.2750106e+38
1.5866663 -0.76002389 1.2625664 nan
1.5756732 -0.75721937 1.2623883 nan
1.5756668 -0.75985748 1.2623883 nan
1.5696677 -0.75949258 1.2622912 nan
1.5696614 -0.76211923 1.2622912 nan
1.5696551 -0.76474589 1.2622912 nan
1.5696487 -0.76737261 1.2622912 nan
1.5646485 -0.76745862 1.2622102 nan
1.5646422 -0.7700758 1.2622102 nan
1.5646359 -0.77269286 1.2622102 nan
1.5586369 -0.77222699 1.2621131 nan
1.5586307 -0.77483273 1.2621131 nan
1.5586244 -0.77743846 1.2621131 nan
1.5586182 -0.78004414 1.2621131 nan
1.5586119 -0.78264987 1.2621131 nan
1.5586056 -0.78525555 1.2621131 nan
1.5585994 -0.78786129 1.2621131 nan
1.558593 -0.79046702 1.2621131 nan
1.5585868 -0.79307264 1.2621131 nan
1.5585805 -0.79567838 1.2621131 nan
1.5585743 -0.79828411 1.2621131 nan
1.5645604 -0.80409855 1.2622102 nan
3.3196592 -0.76520652 1.2846645 -2.8753526e+38
3.2916598 -0.76488578 1.2842644 -3.1158093e+38
3.3196304 -0.77712643 1.2846645 -3.3551734e+38
3.3196161 -0.78308642 1.2846645 nan
3.3196018 -0.78904647 1.2846645 nan
3.3195875 -0.79500645 1.2846645 nan
3.3195732 -0.80096638 1.2846645 nan
3.2915747 -0.80032569 1.2842644 -3.2091701e+38
3.2915604 -0.80623233 1.2842644 -2.7973722e+38
1.9316715 -0.75828284 1.264836 nan
1.9226722 -0.75802028 1.2647073 nan
1.9136729 -0.75772339 1.2645788 nan
1.9056727 -0.75779366 1.2644645 nan
1.8966736 -0.75743014 1.2643359 nan
1.8966657 -0.76067966 1.2643359 nan
1.8966579 -0.76392919 1.2643359 nan
1.8886579 -0.76390618 1.2642217 nan
1.8886502 -0.76714045 1.2642217 nan
1.8886424 -0.77037477 1.2642217 nan
1.8636595 -0.76323938 1.2638645 nan
1.8556598 -0.76309258 1.2637502 nan
1.8476602 -0.76291519 1.2636359 nan
1.8396606 -0.76270741 1.2635217 nan
1.839653 -0.76584834 1.2635217 nan
1.8316537 -0.76559484 1.2634073 nan
1.8316462 -0.76872057 1.2634073 nan
1.8086623 -0.76199955 1.2630788 nan
1.8016621 -0.76207125 1.2629788 nan
1.8016547 -0.76513982 1.2629788 nan
1.7936558 -0.76473778 1.2628645 nan
1.7866557 -0.76474088 1.2627645 nan
1.7866484 -0.7677809 1.2627645 nan
1.7796484 -0.76774412 1.2626644 nan
1.7796412 -0.77077079 1.2626644 nan
1.7646499 -0.76714706 1.2624502 nan
1.75765 -0.76702839 1.2623502 nan
1.7506504 -0.76688296 1.2622502 nan
1.7366583 -0.76356739 1.2620502 nan
1.7366513 -0.76651216 1.2620502 nan
1.7296517 -0.76628673 1.2619503 nan
1.7226523 -0.76603466 1.2618502 -3.3946328e+38
1.7156529 -0.76575595 1.2617502 nan
1.7096527 -0.76590919 1.2616645 nan
1.7026534 -0.76557899 1.2615645 -3.3948399e+38
1.6966531 -0.76568455 1.2614788 -3.3814957e+38
1.689654 -0.76530296 1.2613788 -3.3682551e+38
1.682655 -0.76489472 1.2612787 -3.3414633e+38
1.6766548 -0.76492792 1.261193 -3.3279637e+38
1.6636628 -0.76164806 1.2610073 -3.3013794e+38
1.6576629 -0.76162219 1.2609216 -3.3280163e+38
1.6456697 -0.75873053 1.2607502 -3.3412049e+38
1.645663 -0.76150191 1.2607502 -3.3677379e+38
1.6396632 -0.76140749 1.2606645 -3.3813422e+38
1.6336634 -0.76129025 1.2605788 nan
1.6276639 -0.76115006 1.260493 nan
1.6156712 -0.75808698 1.2603216 nan
1.6036786 -0.75497812 1.2601502 nan
1.5976791 -0.75474656 1.2600645 nan
1.5976727 -0.75742656 1.2600645 nan
1.5926721 -0.75765169 1.2599931 -3.3151923e+38
1.5926657 -0.76032215 1.2599931 -3.2094327e+38
1.5866663 -0.76002389 1.2599074 nan
1.5756732 -0.75721937 1.2597502 nan
1.5756668 -0.75985748 1.2597502 nan
1.5696677 -0.75949258 1.2596645 nan
1.5696614 -0.76211923 1.2596645 nan
1.5696551 -0.76474589 1.2596645 nan
1.5696487 -0.76737261 1.2596645 nan
1.5646485 -0.76745862 1.259593 nan
1.5646422 -0.7700758 1.259593 nan
1.5586432 -0.76962137 1.2595073 nan
1.5586369 -0.77222699 1.2595073 nan
1.5586307 -0.77483273 1.2595073 nan
1.5586244 -0.77743846 1.2595073 nan
1.5586182 -0.78004414 1.2595073 nan
1.5586119 -0.78264987 1.2595073 nan
1.5586056 -0.78525555 1.2595073 nan
1.5585994 -0.78786129 1.2595073 nan
1.5645856 -0.79362994 1.259593 nan
1.5645792 -0.79624707 1.259593 nan
1.5645729 -0.79886425 1.259593 nan
1.5645666 -0.80148137 1.259593 nan
1.5645604 -0.80409855 1.259593 nan
3.2916741 -0.75897914 1.2783579 -3.2346604e+38
3.2916598 -0.76488578 1.2783579 -3.3282777e+38
3.3196304 -0.77712643 1.2787045 nan
3.3196161 -0.78308642 1.2787045 nan
3.3196018 -0.78904647 1.2787045 nan
3.3195875 -0.79500645 1.2787045 nan
3.3195732 -0.80096638 1.2787045 nan
3.3195589 -0.80692637 1.2787045 nan
3.3195446 -0.81288636 1.2787045 -3.3008143e+38
3.3195302 -0.81884634 1.2787045 -3.3152509e+38
1.9406551 -0.76517785 1.2616311 nan
1.9226643 -0.76131934 1.2614083 nan
1.9056727 -0.75779366 1.2611978 nan
1.8966736 -0.75743014 1.2610863 nan
1.8966657 -0.76067966 1.2610863 nan
1.8966579 -0.76392919 1.2610863 nan
1.8886579 -0.76390618 1.2609874 -3.2868941e+38
1.8886502 -0.76714045 1.2609874 nan
1.8966345 -0.77367771 1.2610863 nan
1.8636595 -0.76323938 1.2606778 nan
1.8476678 -0.75975901 1.2604797 nan
1.8396682 -0.75956643 1.2603806 nan
1.8396606 -0.76270741 1.2603806 nan
1.839653 -0.76584834 1.2603806 nan
1.8316537 -0.76559484 1.2602817 nan
1.8316462 -0.76872057 1.2602817 nan
1.8086623 -0.76199955 1.2599969 nan
1.8016621 -0.76207125 1.2599102 nan
1.793663 -0.76168442 1.2598112 nan
1.7936558 -0.76473778 1.2598112 nan
1.7866557 -0.76474088 1.2597245 nan
1.7796557 -0.7647174 1.2596378 nan
1.7796484 -0.76774412 1.2596378 nan
1.7796412 -0.77077079 1.2596378 nan
1.7646499 -0.76714706 1.2594521 nan
1.75765 -0.76702839 1.2593654 nan
1.7506504 -0.76688296 1.2592788 nan
1.7436508 -0.76671088 1.2591921 nan
1.7366513 -0.76651216 1.2591054 nan
1.7296517 -0.76628673 1.2590188 nan
1.7226523 -0.76603466 1.2589321 nan
1.7096596 -0.76301581 1.2587712 nan
1.7026603 -0.76269895 1.2586845 nan
1.69666 -0.76281595 1.2586102 nan
1.6896609 -0.76244771 1.2585236 nan
1.689654 -0.76530296 1.2585236 nan
1.682655 -0.76489472 1.2584369 -3.3814965e+38
1.6766548 -0.76492792 1.2583625 -3.3549122e+38
1.6636628 -0.76164806 1.2582016 -3.3150357e+38
1.6576629 -0.76162219 1.2581273 -3.3148804e+38
1.6456697 -0.75873053 1.2579788 -3.3147248e+38
1.645663 -0.76150191 1.2579788 -3.3547574e+38
1.6396632 -0.76140749 1.2579045 -3.394947e+38
1.6336634 -0.76129025 1.2578301 nan
1.6336569 -0.7640388 1.2578301 nan
1.6156712 -0.75808698 1.2576073 nan
1.6036786 -0.75497812 1.2574588 nan
1.6036721 -0.75766951 1.2574588 nan
1.5976727 -0.75742656 1.2573845 nan
1.5926721 -0.75765169 1.2573225 nan
1.5866727 -0.75736481 1.2572483 nan
1.5866663 -0.76002389 1.2572483 nan
1.5756732 -0.75721937 1.2571121 nan
1.5756668 -0.75985748 1.2571121 nan
1.5696677 -0.75949258 1.2570379 nan
1.5696614 -0.76211923 1.2570379 nan
1.5696551 -0.76474589 1.2570379 nan
1.5696487 -0.76737261 1.2570379 nan
1.5646485 -0.76745862 1.2569759 nan
1.5646422 -0.7700758 1.2569759 nan
1.5586432 -0.76962137 1.2569016 nan
1.5586369 -0.77222699 1.2569016 nan
1.5586307 -0.77483273 1.2569016 nan
1.5586244 -0.77743846 1.2569016 nan
1.5586182 -0.78004414 1.2569016 nan
1.5586119 -0.78264987 1.2569016 nan
1.5645981 -0.7883957 1.2569759 nan
1.5585994 -0.78786129 1.2569016 nan
1.558593 -0.79046702 1.2569016 nan
1.5585868 -0.79307264 1.2569016 nan
1.5585805 -0.79567838 1.2569016 nan
1.5585743 -0.79828411 1.2569016 nan
1.5645604 -0.80409855 1.2569759 nan
3.3196592 -0.76520652 1.2727445 nan
3.3196447 -0.7711665 1.2727445 nan
3.3196304 -0.77712643 1.2727445 nan
3.3196161 -0.78308642 1.2727445 nan
3.3196018 -0.78904647 1.2727445 nan
3.3195875 -0.79500645 1.2727445 nan
3.3195732 -0.80096638 1.2727445 nan
3.3195589 -0.80692637 1.2727445 nan
3.3195446 -0.81288636 1.2727445 nan
3.3195302 -0.81884634 1.2727445 -3.2078188e+38
1.9226643 -0.76131934 1.2581092 nan
1.9056727 -0.75779366 1.2579311 nan
1.9056648 -0.76106036 1.2579311 nan
1.8966657 -0.76067966 1.2578368 nan
1.8966579 -0.76392919 1.2578368 nan
1.8886579 -0.76390618 1.257753 -2.8623719e+38
1.8886502 -0.76714045 1.257753 nan
1.8966345 -0.77367771 1.2578368 nan
1.8716516 -0.76655769 1.2575749 nan
1.8556598 -0.76309258 1.2574073 nan
1.8476602 -0.76291519 1.2573235 nan
1.8396606 -0.76270741 1.2572397 nan
1.8316612 -0.76246917 1.2571559 nan
1.8316537 -0.76559484 1.2571559 nan
1.8246534 -0.76573706 1.2570826 nan
1.8086623 -0.76199955 1.256915 nan
1.8016621 -0.76207125 1.2568417 nan
1.793663 -0.76168442 1.2567579 nan
1.7936558 -0.76473778 1.2567579 nan
1.7866557 -0.76474088 1.2566845 nan
1.7796557 -0.7647174 1.2566111 nan
1.7796484 -0.76774412 1.2566111 nan
1.7796412 -0.77077079 1.2566111 nan
1.7646499 -0.76714706 1.256454 nan
1.75765 -0.76702839 1.2563807 nan
1.7506504 -0.76688296 1.2563074 nan
1.7366583 -0.76356739 1.2561607 nan
1.7296587 -0.76335531 1.2560873 nan
1.7226593 -0.7631166 1.256014 nan
1.71566 -0.76285124 1.2559407 nan
1.7096596 -0.76301581 1.2558779 nan
1.7026603 -0.76269895 1.2558045 nan
1.69666 -0.76281595 1.2557416 nan
1.6896609 -0.76244771 1.2556683 nan
1.689654 -0.76530296 1.2556683 nan
1.682655 -0.76489472 1.255595 nan
1.6826482 -0.76773661 1.255595 -3.3818089e+38
1.6636628 -0.76164806 1.2553959 -3.3284844e+38
1.6576629 -0.76162219 1.2553331 -3.3150885e+38
1.6456697 -0.75873053 1.2552073 -3.288452e+38
1.645663 -0.76150191 1.2552073 -3.3548614e+38
1.6396632 -0.76140749 1.2551445 nan
1.6336634 -0.76129025 1.2550817 nan
1.6276639 -0.76115006 1.2550188 nan
1.6216643 -0.7609871 1.2549559 nan
1.6096716 -0.75788969 1.2548302 nan
1.6036721 -0.75766951 1.2547673 nan
1.5976727 -0.75742656 1.2547045 nan
1.5926721 -0.75765169 1.2546521 nan
1.5866727 -0.75736481 1.2545892 nan
1.5866663 -0.76002389 1.2545892 nan
1.5756732 -0.75721937 1.254474 nan
1.5756668 -0.75985748 1.254474 nan
1.5696677 -0.75949258 1.2544111 nan
1.5696614 -0.76211923 1.2544111 nan
1.5696551 -0.76474589 1.2544111 nan
1.5696487 -0.76737261 1.2544111 nan
1.5646485 -0.76745862 1.2543588 nan
1.5646422 -0.7700758 1.2543588 nan
1.5586432 -0.76962137 1.2542959 nan
1.5586369 -0.77222699 1.2542959 nan
1.5586307 -0.77483273 1.2542959 nan
1.5586244 -0.77743846 1.2542959 nan
1.5586182 -0.78004414 1.2542959 nan
1.5586119 -0.78264987 1.2542959 nan
1.5645981 -0.7883957 1.2543588 nan
1.5585994 -0.78786129 1.2542959 nan
1.558593 -0.79046702 1.2542959 nan
1.5585868 -0.79307264 1.2542959 nan
1.5585805 -0.79567838 1.2542959 nan
1.5585743 -0.79828411 1.2542959 nan
1.5645604 -0.80409855 1.2543588 nan
3.3196735 -0.75924647 1.2667844 -3.3944276e+38
3.3476441 -0.77143377 1.2670245 nan
3.3196447 -0.7711665 1.2667844 nan
3.3196304 -0.77712643 1.2667844 nan
3.3196161 -0.78308642 1.2667844 nan
3.3196018 -0.78904647 1.2667844 nan
3.3195875 -0.79500645 1.2667844 nan
3.3195732 -0.80096638 1.2667844 nan
3.3195589 -0.80692637 1.2667844 nan
3.3195446 -0.81288636 1.2667844 nan
3.3195302 -0.81884634 1.2667844 nan
1.8316612 -0.76246917 1.2540302 nan
1.8316537 -0.76559484 1.2540302 nan
1.8316462 -0.76872057 1.2540302 nan
1.8086623 -0.76199955 1.2538331 nan
1.8016621 -0.76207125 1.2537731 nan
1.8016547 -0.76513982 1.2537731 nan
1.7936558 -0.76473778 1.2537044 nan
1.7866557 -0.76474088 1.2536445 nan
1.7796557 -0.7647174 1.2535845 nan
1.7796484 -0.76774412 1.2535845 nan
1.7796412 -0.77077079 1.2535845 nan
1.7646499 -0.76714706 1.2534559 nan
1.75765 -0.76702839 1.2533959 nan
1.7506504 -0.76688296 1.253336 nan
1.7366583 -0.76356739 1.2532159 nan
1.7296587 -0.76335531 1.2531559 nan
1.7226593 -0.7631166 1.2530959 nan
1.71566 -0.76285124 1.2530359 nan
1.7096596 -0.76301581 1.2529845 nan
1.7026603 -0.76269895 1.2529244 nan
1.69666 -0.76281595 1.2528731 nan
1.6896609 -0.76244771 1.2528131 nan
1.689654 -0.76530296 1.2528131 nan
1.682655 -0.76489472 1.252753 nan
1.6766548 -0.76492792 1.2527016 -3.3950498e+38
1.6636628 -0.76164806 1.2525902 -3.3684655e+38
1.6576629 -0.76162219 1.2525388 -3.3949983e+38
1.6516629 -0.76157349 1.2524873 nan
1.645663 -0.76150191 1.2524359 nan
1.6396632 -0.76140749 1.2523845 nan
1.6336634 -0.76129025 1.252333 nan
1.6276639 -0.76115006 1.2522817 nan
1.6156712 -0.75808698 1.2521788 nan
1.6096716 -0.75788969 1.2521273 nan
1.6036721 -0.75766951 1.2520759 nan
1.5976727 -0.75742656 1.2520245 nan
1.5926721 -0.75765169 1.2519816 nan
1.5926657 -0.76032215 1.2519816 nan
1.5866663 -0.76002389 1.2519302 nan
1.5756732 -0.75721937 1.2518359 nan
1.5696739 -0.75686592 1.2517844 nan
1.5696677 -0.75949258 1.2517844 nan
1.5696614 -0.76211923 1.2517844 nan
1.5696551 -0.76474589 1.2517844 nan
1.5646547 -0.7648415 1.2517416 nan
1.5646485 -0.76745862 1.2517416 nan
1.5646422 -0.7700758 1.2517416 nan
1.5646359 -0.77269286 1.2517416 nan
1.5586369 -0.77222699 1.2516901 nan
1.5586307 -0.77483273 1.2516901 nan
1.5586244 -0.77743846 1.2516901 nan
1.5586182 -0.78004414 1.2516901 nan
1.5646044 -0.78577858 1.2517416 nan
1.5645981 -0.7883957 1.2517416 nan
1.5585994 -0.78786129 1.2516901 nan
1.558593 -0.79046702 1.2516901 nan
1.5585868 -0.79307264 1.2516901 nan
1.5585805 -0.79567838 1.2516901 nan
1.5585743 -0.79828411 1.2516901 nan
1.5645604 -0.80409855 1.2517416 nan
3.3476441 -0.77143377 1.2610111 nan
3.3476298 -0.77744704 1.2610111 nan
3.3196304 -0.77712643 1.2608244 nan
3.3196161 -0.78308642 1.2608244 nan
3.3196018 -0.78904647 1.2608244 nan
3.2916031 -0.78851241 1.2606378 nan
3.3195732 -0.80096638 1.2608244 nan
3.2915747 -0.80032569 1.2606378 nan
3.2915604 -0.80623233 1.2606378 nan
1.8316537 -0.76559484 1.2509044 nan
1.8246534 -0.76573706 1.2508578 nan
1.8086623 -0.76199955 1.2507511 nan
1.8016621 -0.76207125 1.2507045 nan
1.8016547 -0.76513982 1.2507045 nan
1.8016473 -0.76820838 1.2507045 nan
1.7866557 -0.76474088 1.2506045 nan
1.7796557 -0.7647174 1.2505578 nan
1.7796484 -0.76774412 1.2505578 nan
1.764657 -0.76414901 1.2504578 nan
1.7576572 -0.76404363 1.2504112 nan
1.7506576 -0.76391149 1.2503645 nan
1.7436579 -0.76375282 1.2503178 nan
1.7366583 -0.76356739 1.2502712 nan
1.7296587 -0.76335531 1.2502245 nan
1.7226593 -0.7631166 1.2501779 nan
1.7096666 -0.76012248 1.2500912 nan
1.7096596 -0.76301581 1.2500912 nan
1.7026603 -0.76269895 1.2500445 nan
1.69666 -0.76281595 1.2500045 nan
1.6896609 -0.76244771 1.2499578 nan
1.689654 -0.76530296 1.2499578 nan
1.682655 -0.76489472 1.2499112 nan
1.6766548 -0.76492792 1.2498711 nan
1.6636628 -0.76164806 1.2497845 nan
1.6576629 -0.76162219 1.2497445 nan
1.6516629 -0.76157349 1.2497045 nan
1.645663 -0.76150191 1.2496645 nan
1.6396632 -0.76140749 1.2496245 nan
1.6336634 -0.76129025 1.2495844 nan
1.6336569 -0.7640388 1.2495844 nan
1.6156712 -0.75808698 1.2494645 nan
1.6096716 -0.75788969 1.2494245 nan
1.6036721 -0.75766951 1.2493845 nan
1.5976727 -0.75742656 1.2493445 nan
1.5926721 -0.75765169 1.2493112 nan
1.5926657 -0.76032215 1.2493112 nan
1.5866663 -0.76002389 1.2492712 nan
1.5756732 -0.75721937 1.2491978 nan
1.5696739 -0.75686592 1.2491578 nan
1.5696677 -0.75949258 1.2491578 nan
1.5696614 -0.76211923 1.2491578 nan
1.5696551 -0.76474589 1.2491578 nan
1.5646547 -0.7648415 1.2491245 nan
1.5646485 -0.76745862 1.2491245 nan
1.5646422 -0.7700758 1.2491245 nan
1.5646359 -0.77269286 1.2491245 nan
1.5586369 -0.77222699 1.2490845 nan
1.5646232 -0.77792716 1.2491245 nan
1.564617 -0.78054428 1.2491245 nan
1.5586182 -0.78004414 1.2490845 nan
1.5646044 -0.78577858 1.2491245 nan
1.5645981 -0.7883957 1.2491245 nan
1.5585994 -0.78786129 1.2490845 nan
1.558593 -0.79046702 1.2490845 nan
1.5585868 -0.79307264 1.2490845 nan
1.5585805 -0.79567838 1.2490845 nan
1.5585743 -0.79828411 1.2490845 nan
1.5645604 -0.80409855 1.2491245 nan
3.3766434 -0.77181494 1.2551359 nan
3.3476441 -0.77143377 1.2549978 nan
3.3476298 -0.77744704 1.2549978 nan
3.3196304 -0.77712643 1.2548645 nan
3.3196161 -0.78308642 1.2548645 nan
3.3196018 -0.78904647 1.2548645 nan
3.2916031 -0.78851241 1.2547312 nan
3.2915888 -0.79441911 1.2547312 nan
3.2915747 -0.80032569 1.2547312 nan
1.8086548 -0.76508147 1.2476692 nan
1.8016547 -0.76513982 1.247636 nan
1.8016473 -0.76820838 1.247636 nan
1.7866557 -0.76474088 1.2475644 nan
1.7796557 -0.7647174 1.2475312 nan
1.7796484 -0.76774412 1.2475312 nan
1.764657 -0.76414901 1.2474598 nan
1.7576572 -0.76404363 1.2474264 nan
1.7506576 -0.76391149 1.247393 nan
1.7436579 -0.76375282 1.2473598 nan
1.7366583 -0.76356739 1.2473264 nan
1.7296587 -0.76335531 1.2472931 nan
1.7296517 -0.76628673 1.2472931 nan
1.7096666 -0.76012248 1.2471979 nan
1.7096596 -0.76301581 1.2471979 nan
1.7026603 -0.76269895 1.2471645 nan
1.69666 -0.76281595 1.2471359 nan
1.6896609 -0.76244771 1.2471026 nan
1.689654 -0.76530296 1.2471026 nan
1.682655 -0.76489472 1.2470692 nan
1.6826482 -0.76773661 1.2470692 nan
1.6636628 -0.76164806 1.2469788 nan
1.6576629 -0.76162219 1.2469501 nan
1.6516629 -0.76157349 1.2469217 nan
1.645663 -0.76150191 1.246893 nan
1.6396632 -0.76140749 1.2468644 nan
1.6336634 -0.76129025 1.2468359 nan
1.6336569 -0.7640388 1.2468359 nan
1.6156712 -0.75808698 1.2467502 nan
1.6096716 -0.75788969 1.2467216 nan
1.6036721 -0.75766951 1.246693 nan
1.5976727 -0.75742656 1.2466645 nan
1.5926721 -0.75765169 1.2466407 nan
1.5926657 -0.76032215 1.2466407 nan
1.5866663 -0.76002389 1.2466121 nan
1.5756732 -0.75721937 1.2465597 nan
1.5696739 -0.75686592 1.2465311 nan
1.5696677 -0.75949258 1.2465311 nan
1.5696614 -0.76211923 1.2465311 nan
1.5696551 -0.76474589 1.2465311 nan
1.5646547 -0.7648415 1.2465073 nan
1.5646485 -0.76745862 1.2465073 nan
1.5586494 -0.76701564 1.2464788 nan
1.5646359 -0.77269286 1.2465073 nan
1.5646296 -0.77530998 1.2465073 nan
1.5646232 -0.77792716 1.2465073 nan
1.564617 -0.78054428 1.2465073 nan
1.5646107 -0.78316146 1.2465073 nan
1.5646044 -0.78577858 1.2465073 nan
1.5645981 -0.7883957 1.2465073 nan
1.5585994 -0.78786129 1.2464788 nan
1.558593 -0.79046702 1.2464788 nan
1.5585868 -0.79307264 1.2464788 nan
1.5585805 -0.79567838 1.2464788 nan
1.5585743 -0.79828411 1.2464788 nan
1.5645604 -0.80409855 1.2465073 nan
3.3766434 -0.77181494 1.2490673 nan
3.3766289 -0.77788347 1.2490673 nan
3.3476298 -0.77744704 1.2489845 nan
3.3196304 -0.77712643 1.2489045 nan
3.3196161 -0.78308642 1.2489045 nan
3.3196018 -0.78904647 1.2489045 nan
3.3195875 -0.79500645 1.2489045 nan
3.3195732 -0.80096638 1.2489045 nan
3.2915747 -0.80032569 1.2488245 nan
1.764657 -0.76414901 1.2444617 nan
1.7576572 -0.76404363 1.2444416 nan
1.7506576 -0.76391149 1.2444216 nan
1.7436579 -0.76375282 1.2444016 nan
1.7366583 -0.76356739 1.2443817 nan
1.7366513 -0.76651216 1.2443817 nan
1.7226593 -0.7631166 1.2443416 nan
1.7096666 -0.76012248 1.2443045 nan
1.7026672 -0.75981897 1.2442845 nan
1.696667 -0.75994742 1.2442673 nan
1.69666 -0.76281595 1.2442673 nan
1.6896609 -0.76244771 1.2442473 nan
1.689654 -0.76530296 1.2442473 nan
1.682655 -0.76489472 1.2442273 nan
1.6826482 -0.76773661 1.2442273 nan
1.6636628 -0.76164806 1.244173 nan
1.6576629 -0.76162219 1.2441559 nan
1.6516629 -0.76157349 1.2441387 nan
1.645663 -0.76150191 1.2441217 nan
1.6396632 -0.76140749 1.2441045 nan
1.6336634 -0.76129025 1.2440873 nan
1.6336569 -0.7640388 1.2440873 nan
1.6156712 -0.75808698 1.244036 nan
1.6096716 -0.75788969 1.2440188 nan
1.6036721 -0.75766951 1.2440016 nan
1.5976727 -0.75742656 1.2439845 nan
1.5926721 -0.75765169 1.2439702 nan
1.5926657 -0.76032215 1.2439702 nan
1.5806736 -0.75705516 1.2439359 nan
1.5756732 -0.75721937 1.2439216 nan
1.5696739 -0.75686592 1.2439045 nan
1.5696677 -0.75949258 1.2439045 nan
1.5696614 -0.76211923 1.2439045 nan
1.564661 -0.76222438 1.2438902 nan
1.5646547 -0.7648415 1.2438902 nan
1.5646485 -0.76745862 1.2438902 nan
1.5586494 -0.76701564 1.243873 nan
1.5586432 -0.76962137 1.243873 nan
1.5586369 -0.77222699 1.243873 nan
1.5646232 -0.77792716 1.2438902 nan
1.564617 -0.78054428 1.2438902 nan
1.5646107 -0.78316146 1.2438902 nan
1.5646044 -0.78577858 1.2438902 nan
1.5645981 -0.7883957 1.2438902 nan
1.5585994 -0.78786129 1.243873 nan
1.5645856 -0.79362994 1.2438902 nan
1.5585868 -0.79307264 1.243873 nan
1.5585805 -0.79567838 1.243873 nan
1.5585743 -0.79828411 1.243873 nan
3.4066422 -0.77230424 1.2430273 -3.3679992e+38
3.4066274 -0.77842987 1.2430273 nan
3.3766289 -0.77788347 1.2429987 nan
3.3766143 -0.78395206 1.2429987 nan
3.3196304 -0.77712643 1.2429445 nan
3.3476009 -0.78947371 1.2429712 nan
3.3196018 -0.78904647 1.2429445 nan
3.3195875 -0.79500645 1.2429445 nan
3.3195732 -0.80096638 1.2429445 nan
3.2915747 -0.80032569 1.2429178 nan
3.2915604 -0.80623233 1.2429178 nan
1.7576572 -0.76404363 1.2414569 nan
1.7506576 -0.76391149 1.2414502 nan
1.7436579 -0.76375282 1.2414435 nan
1.7366583 -0.76356739 1.2414368 nan
1.7366513 -0.76651216 1.2414368 nan
1.7226593 -0.7631166 1.2414235 nan
1.7096666 -0.76012248 1.2414112 nan
1.7026672 -0.75981897 1.2414045 nan
1.696667 -0.75994742 1.2413988 nan
1.69666 -0.76281595 1.2413988 nan
1.6896609 -0.76244771 1.2413921 nan
1.689654 -0.76530296 1.2413921 nan
1.682655 -0.76489472 1.2413855 nan
1.6766548 -0.76492792 1.2413797 nan
1.6636628 -0.76164806 1.2413673 nan
1.6576629 -0.76162219 1.2413616 nan
1.6516629 -0.76157349 1.2413559 nan
1.6516562 -0.76435637 1.2413559 nan
1.6456563 -0.76427335 1.2413502 nan
1.6396567 -0.76416749 1.2413445 nan
1.6336569 -0.7640388 1.2413387 nan
1.6156712 -0.75808698 1.2413217 nan
1.6096716 -0.75788969 1.241316 nan
1.6036721 -0.75766951 1.2413102 nan
1.5976727 -0.75742656 1.2413045 nan
1.5926721 -0.75765169 1.2412997 nan
1.5866727 -0.75736481 1.241294 nan
1.5806736 -0.75705516 1.2412883 nan
1.5756732 -0.75721937 1.2412835 nan
1.5696739 -0.75686592 1.2412778 nan
1.5696677 -0.75949258 1.2412778 nan
1.5696614 -0.76211923 1.2412778 nan
1.5696551 -0.76474589 1.2412778 nan
1.5646547 -0.7648415 1.241273 nan
1.5646485 -0.76745862 1.241273 nan
1.5646422 -0.7700758 1.241273 nan
1.5646359 -0.77269286 1.241273 nan
1.5646296 -0.77530998 1.241273 nan
1.5646232 -0.77792716 1.241273 nan
1.564617 -0.78054428 1.241273 nan
1.5646107 -0.78316146 1.241273 nan
1.5646044 -0.78577858 1.241273 nan
1.5645981 -0.7883957 1.241273 nan
1.5585994 -0.78786129 1.2412673 nan
1.558593 -0.79046702 1.2412673 nan
1.5585868 -0.79307264 1.2412673 nan
1.5585805 -0.79567838 1.2412673 nan
1.5585743 -0.79828411 1.2412673 nan
3.4066422 -0.77230424 1.2369016 -3.3547071e+38
3.4066274 -0.77842987 1.2369016 -3.394531e+38
3.3766289 -0.77788347 1.2369303 nan
3.3766143 -0.78395206 1.2369303 nan
3.3476152 -0.78346038 1.2369578 nan
3.3196161 -0.78308642 1.2369845 nan
3.3196018 -0.78904647 1.2369845 nan
3.3195875 -0.79500645 1.2369845 nan
3.3195732 -0.80096638 1.2369845 nan
3.2915747 -0.80032569 1.2370112 nan
3.2915604 -0.80623233 1.2370112 nan
1.7506576 -0.76391149 1.2384788 nan
1.7436579 -0.76375282 1.2384855 nan
1.7366583 -0.76356739 1.2384921 nan
1.7366513 -0.76651216 1.2384921 nan
1.7226593 -0.7631166 1.2385055 nan
1.7096666 -0.76012248 1.2385178 nan
1.7026672 -0.75981897 1.2385244 nan
1.696667 -0.75994742 1.2385302 nan
1.69666 -0.76281595 1.2385302 nan
1.6896609 -0.76244771 1.2385368 nan
1.689654 -0.76530296 1.2385368 nan
1.682655 -0.76489472 1.2385435 nan
1.6766548 -0.76492792 1.2385492 nan
1.6636628 -0.76164806 1.2385616 nan
1.6576629 -0.76162219 1.2385674 nan
1.6576561 -0.76441652 1.2385674 nan
1.6516562 -0.76435637 1.2385731 nan
1.6456563 -0.76427335 1.2385788 nan
1.6396567 -0.76416749 1.2385845 nan
1.6336569 -0.7640388 1.2385902 nan
1.6156712 -0.75808698 1.2386073 nan
1.6036786 -0.75497812 1.2386187 nan
1.6036721 -0.75766951 1.2386187 nan
1.5976727 -0.75742656 1.2386245 nan
1.5926721 -0.75765169 1.2386292 nan
1.5866727 -0.75736481 1.2386349 nan
1.5866663 -0.76002389 1.2386349 nan
1.5756732 -0.75721937 1.2386454 nan
1.5696739 -0.75686592 1.2386512 nan
1.5696677 -0.75949258 1.2386512 nan
1.5696614 -0.76211923 1.2386512 nan
1.5696551 -0.76474589 1.2386512 nan
1.5646547 -0.7648415 1.2386559 nan
1.5646485 -0.76745862 1.2386559 nan
1.5646422 -0.7700758 1.2386559 nan
1.5646359 -0.77269286 1.2386559 nan
1.5646296 -0.77530998 1.2386559 nan
1.5646232 -0.77792716 1.2386559 nan
1.564617 -0.78054428 1.2386559 nan
1.5696045 -0.78575921 1.2386512 nan
1.5646044 -0.78577858 1.2386559 nan
1.5645981 -0.7883957 1.2386559 nan
1.5645919 -0.79101288 1.2386559 nan
1.5645856 -0.79362994 1.2386559 nan
1.5645792 -0.79624707 1.2386559 nan
1.5645729 -0.79886425 1.2386559 nan
1.5585743 -0.79828411 1.2386616 nan
1.5645604 -0.80409855 1.2386559 nan
3.3766582 -0.76574641 1.2308617 nan
3.4066274 -0.77842987 1.230776 nan
3.3766289 -0.77788347 1.2308617 nan
3.3766143 -0.78395206 1.2308617 nan
3.3476152 -0.78346038 1.2309445 nan
3.3196161 -0.78308642 1.2310245 nan
3.3196018 -0.78904647 1.2310245 nan
3.3195875 -0.79500645 1.2310245 nan
3.3475575 -0.80751365 1.2309445 nan
3.3195589 -0.80692637 1.2310245 nan
3.3195446 -0.81288636 1.2310245 nan
1.7436579 -0.76375282 1.2355274 nan
1.7366583 -0.76356739 1.2355473 nan
1.7366513 -0.76651216 1.2355473 nan
1.7296517 -0.76628673 1.2355673 nan
1.7226523 -0.76603466 1.2355874 nan
1.7096596 -0.76301581 1.2356244 nan
1.696667 -0.75994742 1.2356616 nan
1.69666 -0.76281595 1.2356616 nan
1.6896609 -0.76244771 1.2356817 nan
1.689654 -0.76530296 1.2356817 nan
1.682655 -0.76489472 1.2357017 nan
1.6766548 -0.76492792 1.2357187 nan
1.6636628 -0.76164806 1.2357559 nan
1.6576629 -0.76162219 1.2357731 nan
1.6576561 -0.76441652 1.2357731 nan
1.6516562 -0.76435637 1.2357903 nan
1.6456563 -0.76427335 1.2358073 nan
1.6396567 -0.76416749 1.2358245 nan
1.6336569 -0.7640388 1.2358416 nan
1.609678 -0.7551868 1.2359102 nan
1.6036786 -0.75497812 1.2359273 nan
1.5976791 -0.75474656 1.2359445 nan
1.5976727 -0.75742656 1.2359445 nan
1.5926721 -0.75765169 1.2359588 nan
1.5926657 -0.76032215 1.2359588 nan
1.5866663 -0.76002389 1.2359759 nan
1.5756732 -0.75721937 1.2360073 nan
1.5756668 -0.75985748 1.2360073 nan
1.5696677 -0.75949258 1.2360245 nan
1.5696614 -0.76211923 1.2360245 nan
1.5696551 -0.76474589 1.2360245 nan
1.5646547 -0.7648415 1.2360388 nan
1.5646485 -0.76745862 1.2360388 nan
1.5646422 -0.7700758 1.2360388 nan
1.5696298 -0.77525252 1.2360245 nan
1.5646296 -0.77530998 1.2360388 nan
1.5646232 -0.77792716 1.2360388 nan
1.5696108 -0.78313249 1.2360245 nan
1.5696045 -0.78575921 1.2360245 nan
1.5695982 -0.78838587 1.2360245 nan
1.5645981 -0.7883957 1.2360388 nan
1.5645919 -0.79101288 1.2360388 nan
1.5645856 -0.79362994 1.2360388 nan
1.5645792 -0.79624707 1.2360388 nan
1.5645729 -0.79886425 1.2360388 nan
1.5645666 -0.80148137 1.2360388 nan
1.5645604 -0.80409855 1.2360388 nan
3.3766582 -0.76574641 1.2247931 nan
3.3766434 -0.77181494 1.2247931 nan
3.3766289 -0.77788347 1.2247931 nan
3.3766143 -0.78395206 1.2247931 nan
3.3476152 -0.78346038 1.2249311 nan
3.3196161 -0.78308642 1.2250645 nan
3.3475864 -0.79548705 1.2249311 nan
3.3195875 -0.79500645 1.2250645 nan
3.3195732 -0.80096638 1.2250645 nan
3.3195589 -0.80692637 1.2250645 nan
3.3195446 -0.81288636 1.2250645 nan
3.3195302 -0.81884634 1.2250645 nan
1.7436579 -0.76375282 1.2325692 nan
1.7436508 -0.76671088 1.2325692 nan
1.7366513 -0.76651216 1.2326026 nan
1.7366443 -0.76945692 1.2326026 nan
1.7226523 -0.76603466 1.2326692 nan
1.7156529 -0.76575595 1.2327026 nan
1.7026603 -0.76269895 1.2327645 nan
1.69666 -0.76281595 1.2327931 nan
1.6896609 -0.76244771 1.2328264 nan
1.689654 -0.76530296 1.2328264 nan
1.682655 -0.76489472 1.2328597 nan
1.6706614 -0.76211923 1.2329168 nan
1.6636628 -0.76164806 1.2329502 nan
1.6576629 -0.76162219 1.2329788 nan
1.6576561 -0.76441652 1.2329788 nan
1.6516562 -0.76435637 1.2330073 nan
1.6456563 -0.76427335 1.2330359 nan
1.6396567 -0.76416749 1.2330645 nan
1.6276639 -0.76115006 1.2331216 nan
1.609678 -0.7551868 1.2332073 nan
1.6036786 -0.75497812 1.233236 nan
1.5976791 -0.75474656 1.2332644 nan
1.5976727 -0.75742656 1.2332644 nan
1.5926721 -0.75765169 1.2332883 nan
1.5926657 -0.76032215 1.2332883 nan
1.5866663 -0.76002389 1.2333169 nan
1.5756732 -0.75721937 1.2333692 nan
1.5756668 -0.75985748 1.2333692 nan
1.5696677 -0.75949258 1.2333978 nan
1.5696614 -0.76211923 1.2333978 nan
1.5696551 -0.76474589 1.2333978 nan
1.5646547 -0.7648415 1.2334217 nan
1.5646485 -0.76745862 1.2334217 nan
1.5646422 -0.7700758 1.2334217 nan
1.5646359 -0.77269286 1.2334217 nan
1.5646296 -0.77530998 1.2334217 nan
1.5646232 -0.77792716 1.2334217 nan
1.564617 -0.78054428 1.2334217 nan
1.5696045 -0.78575921 1.2333978 nan
1.5695982 -0.78838587 1.2333978 nan
1.5695919 -0.79101253 1.2333978 nan
1.5645919 -0.79101288 1.2334217 nan
1.5645856 -0.79362994 1.2334217 nan
1.5645792 -0.79624707 1.2334217 nan
1.5695666 -0.80151916 1.2333978 nan
1.5645666 -0.80148137 1.2334217 nan
1.569554 -0.80677247 1.2333978 nan
3.4066422 -0.77230424 1.2185245 nan
3.4066274 -0.77842987 1.2185245 nan
3.3766289 -0.77788347 1.2187245 -3.2339868e+38
3.3476298 -0.77744704 1.2189178 -3.3543445e+38
3.3196304 -0.77712643 1.2191045 nan
3.3196161 -0.78308642 1.2191045 nan
3.3196018 -0.78904647 1.2191045 nan
3.3195875 -0.79500645 1.2191045 nan
3.3195732 -0.80096638 1.2191045 nan
3.3195589 -0.80692637 1.2191045 nan
3.3195446 -0.81288636 1.2191045 nan
3.3195302 -0.81884634 1.2191045 nan
1.696667 -0.75994742 1.2299244 nan
1.69666 -0.76281595 1.2299244 nan
1.6896609 -0.76244771 1.2299712 nan
1.689654 -0.76530296 1.2299712 nan
1.6706614 -0.76211923 1.2300978 nan
1.6636628 -0.76164806 1.2301445 nan
1.6576629 -0.76162219 1.2301844 nan
1.6576561 -0.76441652 1.2301844 nan
1.6576494 -0.76721078 1.2301844 nan
1.6456563 -0.76427335 1.2302644 nan
1.6396567 -0.76416749 1.2303045 nan
1.6276639 -0.76115006 1.2303845 nan
1.609678 -0.7551868 1.2305045 nan
1.6036786 -0.75497812 1.2305444 nan
1.5976791 -0.75474656 1.2305845 nan
1.5976727 -0.75742656 1.2305845 nan
1.5926721 -0.75765169 1.2306178 nan
1.5866727 -0.75736481 1.2306578 nan
1.5866663 -0.76002389 1.2306578 nan
1.5756732 -0.75721937 1.2307311 nan
1.5756668 -0.75985748 1.2307311 nan
1.5696677 -0.75949258 1.2307712 nan
1.5696614 -0.76211923 1.2307712 nan
1.5696551 -0.76474589 1.2307712 nan
1.5646547 -0.7648415 1.2308044 nan
1.5646485 -0.76745862 1.2308044 nan
1.5646422 -0.7700758 1.2308044 nan
1.5696298 -0.77525252 1.2307712 nan
1.5646296 -0.77530998 1.2308044 nan
1.5646232 -0.77792716 1.2308044 nan
1.564617 -0.78054428 1.2308044 nan
1.5696045 -0.78575921 1.2307712 nan
1.5695982 -0.78838587 1.2307712 nan
1.5695919 -0.79101253 1.2307712 nan
1.5645919 -0.79101288 1.2308044 nan
1.5645856 -0.79362994 1.2308044 nan
1.5695729 -0.79889244 1.2307712 nan
1.5695666 -0.80151916 1.2307712 nan
1.5695603 -0.80414581 1.2307712 nan
1.569554 -0.80677247 1.2307712 nan
3.3476732 -0.7594071 1.2129045 nan
3.3476586 -0.76542044 1.2129045 -3.3665946e+38
3.3476441 -0.77143377 1.2129045 -2.9947757e+38
3.3476298 -0.77744704 1.2129045 -3.2348172e+38
3.3196304 -0.77712643 1.2131445 nan
3.3196161 -0.78308642 1.2131445 nan
3.3196018 -0.78904647 1.2131445 nan
3.3195875 -0.79500645 1.2131445 nan
3.3195732 -0.80096638 1.2131445 nan
3.3195589 -0.80692637 1.2131445 nan
3.3195446 -0.81288636 1.2131445 nan
3.3195302 -0.81884634 1.2131445 nan
1.6636628 -0.76164806 1.2273388 nan
1.6576629 -0.76162219 1.2273902 nan
1.6576561 -0.76441652 1.2273902 nan
1.6576494 -0.76721078 1.2273902 nan
1.6456563 -0.76427335 1.227493 nan
1.6336634 -0.76129025 1.2275959 nan
1.6216708 -0.75826138 1.2276988 nan
1.603685 -0.75228667 1.2278531 nan
1.6036786 -0.75497812 1.2278531 nan
1.5976791 -0.75474656 1.2279044 nan
1.5976727 -0.75742656 1.2279044 nan
1.5926721 -0.75765169 1.2279474 nan
1.5866727 -0.75736481 1.2279987 nan
1.5866663 -0.76002389 1.2279987 nan
1.5756732 -0.75721937 1.228093 nan
1.5756668 -0.75985748 1.228093 nan
1.5696677 -0.75949258 1.2281445 nan
1.5696614 -0.76211923 1.2281445 nan
1.5696551 -0.76474589 1.2281445 nan
1.5646547 -0.7648415 1.2281873 nan
1.5646485 -0.76745862 1.2281873 nan
1.5646422 -0.7700758 1.2281873 nan
1.5646359 -0.77269286 1.2281873 nan
1.5646296 -0.77530998 1.2281873 nan
1.5646232 -0.77792716 1.2281873 nan
1.564617 -0.78054428 1.2281873 nan
1.5696045 -0.78575921 1.2281445 nan
1.5695982 -0.78838587 1.2281445 nan
1.5695919 -0.79101253 1.2281445 nan
1.5645919 -0.79101288 1.2281873 nan
1.5645856 -0.79362994 1.2281873 nan
1.5645792 -0.79624707 1.2281873 nan
1.5645729 -0.79886425 1.2281873 nan
1.5695603 -0.80414581 1.2281445 nan
1.5645604 -0.80409855 1.2281873 nan
3.3476732 -0.7594071 1.2068912 nan
3.3476586 -0.76542044 1.2068912 -3.3673702e+38
3.3476441 -0.77143377 1.2068912 -2.9810143e+38
3.3196447 -0.7711665 1.2071844 -3.2082318e+38
3.3196304 -0.77712643 1.2071844 nan
3.2916315 -0.77669907 1.2074778 nan
3.3196018 -0.78904647 1.2071844 nan
3.3195875 -0.79500645 1.2071844 nan
3.3195732 -0.80096638 1.2071844 nan
3.3195589 -0.80692637 1.2071844 nan
3.2915604 -0.80623233 1.2074778 nan
3.2915463 -0.81213903 1.2074778 nan
3.3195159 -0.82480633 1.2071844 nan
1.6576695 -0.75882792 1.2245959 nan
1.6576629 -0.76162219 1.2245959 nan
1.6456697 -0.75873053 1.2247217 nan
1.645663 -0.76150191 1.2247217 nan
1.627677 -0.75567579 1.2249101 nan
1.6216774 -0.75553566 1.2249731 nan
1.6096846 -0.75248396 1.2250987 nan
1.603685 -0.75228667 1.2251617 nan
1.6036786 -0.75497812 1.2251617 nan
1.5976791 -0.75474656 1.2252245 nan
1.5976727 -0.75742656 1.2252245 nan
1.5926721 -0.75765169 1.2252768 nan
1.5866727 -0.75736481 1.2253398 nan
1.5806736 -0.75705516 1.2254026 nan
1.5756732 -0.75721937 1.2254549 nan
1.5756668 -0.75985748 1.2254549 nan
1.5696677 -0.75949258 1.2255179 nan
1.5696614 -0.76211923 1.2255179 nan
1.5696551 -0.76474589 1.2255179 nan
1.5646547 -0.7648415 1.2255702 nan
1.5646485 -0.76745862 1.2255702 nan
1.5586494 -0.76701564 1.225633 nan
1.5646359 -0.77269286 1.2255702 nan
1.5646296 -0.77530998 1.2255702 nan
1.5646232 -0.77792716 1.2255702 nan
1.564617 -0.78054428 1.2255702 nan
1.5696045 -0.78575921 1.2255179 nan
1.5646044 -0.78577858 1.2255702 nan
1.5695919 -0.79101253 1.2255179 nan
1.5645919 -0.79101288 1.2255702 nan
1.5645856 -0.79362994 1.2255702 nan
1.5645792 -0.79624707 1.2255702 nan
1.5645729 -0.79886425 1.2255702 nan
1.5695603 -0.80414581 1.2255179 nan
1.5645604 -0.80409855 1.2255702 nan
3.3476586 -0.76542044 1.2008778 -3.3669066e+38
3.3476441 -0.77143377 1.2008778 -2.9683471e+38
3.3196447 -0.7711665 1.2012244 -3.1954596e+38
3.3196304 -0.77712643 1.2012244 nan
3.3196161 -0.78308642 1.2012244 nan
3.3196018 -0.78904647 1.2012244 nan
3.3195875 -0.79500645 1.2012244 nan
3.3195732 -0.80096638 1.2012244 nan
3.3195589 -0.80692637 1.2012244 nan
3.3195446 -0.81288636 1.2012244 nan
3.3195302 -0.81884634 1.2012244 nan
1.6336766 -0.75579309 1.2220988 nan
1.627677 -0.75567579 1.2221731 nan
1.6216774 -0.75553566 1.2222474 nan
1.6096846 -0.75248396 1.2223959 nan
1.609678 -0.7551868 1.2223959 nan
1.6036786 -0.75497812 1.2224702 nan
1.5976791 -0.75474656 1.2225444 nan
1.5976727 -0.75742656 1.2225444 nan
1.5926721 -0.75765169 1.2226064 nan
1.5866727 -0.75736481 1.2226807 nan
1.5806736 -0.75705516 1.222755 nan
1.5756732 -0.75721937 1.2228168 nan
1.5756668 -0.75985748 1.2228168 nan
1.5696677 -0.75949258 1.2228911 nan
1.5696614 -0.76211923 1.2228911 nan
1.5696551 -0.76474589 1.2228911 nan
1.5646547 -0.7648415 1.2229531 nan
1.5646485 -0.76745862 1.2229531 nan
1.5646422 -0.7700758 1.2229531 nan
1.5646359 -0.77269286 1.2229531 nan
1.5646296 -0.77530998 1.2229531 nan
1.5646232 -0.77792716 1.2229531 nan
1.564617 -0.78054428 1.2229531 nan
1.5696045 -0.78575921 1.2228911 nan
1.5695982 -0.78838587 1.2228911 nan
1.5695919 -0.79101253 1.2228911 nan
1.5645919 -0.79101288 1.2229531 nan
1.5695792 -0.79626578 1.2228911 nan
1.5695729 -0.79889244 1.2228911 nan
1.5645729 -0.79886425 1.2229531 nan
1.5695603 -0.80414581 1.2228911 nan
1.569554 -0.80677247 1.2228911 nan
3.3476441 -0.77143377 1.1948645 -3.1009606e+38
3.3196447 -0.7711665 1.1952645 -3.2614545e+38
3.3196304 -0.77712643 1.1952645 nan
3.3196161 -0.78308642 1.1952645 nan
3.3196018 -0.78904647 1.1952645 nan
3.3195875 -0.79500645 1.1952645 nan
3.2915888 -0.79441911 1.1956645 nan
3.2915747 -0.80032569 1.1956645 nan
1.621684 -0.75280994 1.2195216 nan
1.6216774 -0.75553566 1.2195216 nan
1.6096846 -0.75248396 1.2196931 nan
1.609678 -0.7551868 1.2196931 nan
1.6036786 -0.75497812 1.2197788 nan
1.5976791 -0.75474656 1.2198645 nan
1.5976727 -0.75742656 1.2198645 nan
1.5866791 -0.75470579 1.2200216 nan
1.58068 -0.75440753 1.2201073 nan
1.5806736 -0.75705516 1.2201073 nan
1.5756732 -0.75721937 1.2201787 nan
1.5696739 -0.75686592 1.2202644 nan
1.5696677 -0.75949258 1.2202644 nan
1.5696614 -0.76211923 1.2202644 nan
1.5696551 -0.76474589 1.2202644 nan
1.5646547 -0.7648415 1.220336 nan
1.5646485 -0.76745862 1.220336 nan
1.5646422 -0.7700758 1.220336 nan
1.5646359 -0.77269286 1.220336 nan
1.5646296 -0.77530998 1.220336 nan
1.5646232 -0.77792716 1.220336 nan
1.564617 -0.78054428 1.220336 nan
1.5696045 -0.78575921 1.2202644 nan
1.5695982 -0.78838587 1.2202644 nan
1.5695919 -0.79101253 1.2202644 nan
1.5695856 -0.79363912 1.2202644 nan
1.5695792 -0.79626578 1.2202644 nan
1.5695729 -0.79889244 1.2202644 nan
1.5695666 -0.80151916 1.2202644 nan
1.5695603 -0.80414581 1.2202644 nan
1.569554 -0.80677247 1.2202644 nan
3.3196592 -0.76520652 1.1893045 -3.2341941e+38
3.3196447 -0.7711665 1.1893045 -3.3411558e+38
3.3196304 -0.77712643 1.1893045 nan
3.3196161 -0.78308642 1.1893045 nan
3.3196018 -0.78904647 1.1893045 nan
3.3195875 -0.79500645 1.1893045 nan
3.2915888 -0.79441911 1.1897578 nan
1.6396632 -0.76140749 1.2165045 nan
1.6216774 -0.75553566 1.2167959 nan
1.6096846 -0.75248396 1.2169902 nan
1.609678 -0.7551868 1.2169902 nan
1.6036786 -0.75497812 1.2170874 nan
1.5976791 -0.75474656 1.2171845 nan
1.5926785 -0.75498122 1.2172655 nan
1.5866791 -0.75470579 1.2173625 nan
1.58068 -0.75440753 1.2174597 nan
1.5806736 -0.75705516 1.2174597 nan
1.5756732 -0.75721937 1.2175406 nan
1.5696739 -0.75686592 1.2176378 nan
1.5696677 -0.75949258 1.2176378 nan
1.5696614 -0.76211923 1.2176378 nan
1.5696551 -0.76474589 1.2176378 nan
1.5646547 -0.7648415 1.2177187 nan
1.5646485 -0.76745862 1.2177187 nan
1.5586494 -0.76701564 1.2178159 nan
1.5646359 -0.77269286 1.2177187 nan
1.5646296 -0.77530998 1.2177187 nan
1.5646232 -0.77792716 1.2177187 nan
1.564617 -0.78054428 1.2177187 nan
1.5696045 -0.78575921 1.2176378 nan
1.5695982 -0.78838587 1.2176378 nan
1.5695919 -0.79101253 1.2176378 nan
1.5695856 -0.79363912 1.2176378 nan
1.5695792 -0.79626578 1.2176378 nan
1.5695729 -0.79889244 1.2176378 nan
1.5695666 -0.80151916 1.2176378 nan
1.5695603 -0.80414581 1.2176378 nan
1.569554 -0.80677247 1.2176378 nan
3.3196592 -0.76520652 1.1833445 -3.3273431e+38
3.3196447 -0.7711665 1.1833445 -3.3678436e+38
3.3196304 -0.77712643 1.1833445 nan
3.2916315 -0.77669907 1.1838511 nan
3.3196018 -0.78904647 1.1833445 nan
3.3195875 -0.79500645 1.1833445 nan
3.2915888 -0.79441911 1.1838511 nan
1.6396567 -0.76416749 1.2137445 nan
1.6096846 -0.75248396 1.2142873 nan
1.603685 -0.75228667 1.2143959 nan
1.6036786 -0.75497812 1.2143959 nan
1.5976791 -0.75474656 1.2145045 nan
1.5926785 -0.75498122 1.214595 nan
1.5866791 -0.75470579 1.2147036 nan
1.58068 -0.75440753 1.2148122 nan
1.5756795 -0.75458127 1.2149025 nan
1.5756732 -0.75721937 1.2149025 nan
1.5696739 -0.75686592 1.2150111 nan
1.5696677 -0.75949258 1.2150111 nan
1.5696614 -0.76211923 1.2150111 nan
1.5696551 -0.76474589 1.2150111 nan
1.5646547 -0.7648415 1.2151016 nan
1.5646485 -0.76745862 1.2151016 nan
1.5646422 -0.7700758 1.2151016 nan
1.5646359 -0.77269286 1.2151016 nan
1.5696235 -0.77787918 1.2150111 nan
1.5696172 -0.78050584 1.2150111 nan
1.5696108 -0.78313249 1.2150111 nan
1.5696045 -0.78575921 1.2150111 nan
1.5695982 -0.78838587 1.2150111 nan
1.5695919 -0.79101253 1.2150111 nan
1.5695856 -0.79363912 1.2150111 nan
1.5695792 -0.79626578 1.2150111 nan
1.5695729 -0.79889244 1.2150111 nan
1.5695666 -0.80151916 1.2150111 nan
1.5695603 -0.80414581 1.2150111 nan
1.5645604 -0.80409855 1.2151016 nan
3.2916741 -0.75897914 1.1779444 nan
3.2916598 -0.76488578 1.1779444 nan
3.2916458 -0.77079248 1.1779444 nan
3.2916315 -0.77669907 1.1779444 nan
3.2916172 -0.78260577 1.1779444 nan
1.6276639 -0.76115006 1.2112244 nan
1.603685 -0.75228667 1.2117045 nan
1.6036786 -0.75497812 1.2117045 nan
1.5976791 -0.75474656 1.2118245 nan
1.5926785 -0.75498122 1.2119244 nan
1.5866791 -0.75470579 1.2120445 nan
1.58068 -0.75440753 1.2121645 nan
1.5806736 -0.75705516 1.2121645 nan
1.5756732 -0.75721937 1.2122645 nan
1.5696739 -0.75686592 1.2123845 nan
1.5696677 -0.75949258 1.2123845 nan
1.5696614 -0.76211923 1.2123845 nan
1.5696551 -0.76474589 1.2123845 nan
1.5646547 -0.7648415 1.2124845 nan
1.5696424 -0.76999927 1.2123845 nan
1.5646422 -0.7700758 1.2124845 nan
1.5646359 -0.77269286 1.2124845 nan
1.5696235 -0.77787918 1.2123845 nan
1.5696172 -0.78050584 1.2123845 nan
1.5696108 -0.78313249 1.2123845 nan
1.5696045 -0.78575921 1.2123845 nan
1.5695982 -0.78838587 1.2123845 nan
1.5695919 -0.79101253 1.2123845 nan
1.5695856 -0.79363912 1.2123845 nan
1.5695792 -0.79626578 1.2123845 nan
1.5695729 -0.79889244 1.2123845 nan
1.5695666 -0.80151916 1.2123845 nan
1.5585743 -0.79828411 1.2126045 nan
3.3196592 -0.76520652 1.1714245 nan
3.3196447 -0.7711665 1.1714245 nan
3.3196304 -0.77712643 1.1714245 nan
3.3196161 -0.78308642 1.1714245 nan
3.3196018 -0.78904647 1.1714245 nan
1.6216708 -0.75826138 1.2086188 nan
1.603685 -0.75228667 1.2090131 nan
1.5976856 -0.75206655 1.2091445 nan
1.5976791 -0.75474656 1.2091445 nan
1.5926785 -0.75498122 1.209254 nan
1.5866791 -0.75470579 1.2093854 nan
1.58068 -0.75440753 1.2095169 nan
1.5806736 -0.75705516 1.2095169 nan
1.5756732 -0.75721937 1.2096264 nan
1.5696739 -0.75686592 1.2097578 nan
1.5696677 -0.75949258 1.2097578 nan
1.5696614 -0.76211923 1.2097578 nan
1.5696551 -0.76474589 1.2097578 nan
1.5696487 -0.76737261 1.2097578 nan
1.5696424 -0.76999927 1.2097578 nan
1.5696361 -0.77262586 1.2097578 nan
1.5696298 -0.77525252 1.2097578 nan
1.5696235 -0.77787918 1.2097578 nan
1.5696172 -0.78050584 1.2097578 nan
1.5696108 -0.78313249 1.2097578 nan
1.5696045 -0.78575921 1.2097578 nan
1.5695982 -0.78838587 1.2097578 nan
1.5695919 -0.79101253 1.2097578 nan
1.5695856 -0.79363912 1.2097578 nan
1.5695792 -0.79626578 1.2097578 nan
1.5695729 -0.79889244 1.2097578 nan
1.5695666 -0.80151916 1.2097578 nan
1.5585743 -0.79828411 1.2099987 nan
3.3196592 -0.76520652 1.1654645 nan
3.3196447 -0.7711665 1.1654645 nan
