# .PCD v0.7 - Point Cloud Data file format
VERSION 0.7
FIELDS x y z rgb
SIZE 4 4 4 4
TYPE F F F F
COUNT 1 1 1 1
WIDTH 1057
HEIGHT 1
VIEWPOINT 0 0 0 1 0 0 0
POINTS 1057
DATA ascii
3.3472087 0.91963583 1.0445311 -2.8870909e+38
3.3191721 0.90491921 1.0462644 -1.8374699e+38
3.3191571 0.89895922 1.0462644 -2.1307846e+38
3.3191423 0.89299929 1.0462644 -2.4230082e+38
3.291106 0.87849593 1.0479978 -2.4230614e+38
3.3191125 0.88107926 1.0462644 -2.4098736e+38
3.3190975 0.87511933 1.0462644 -2.4232703e+38
3.2910616 0.86077595 1.0479978 -2.4234788e+38
3.3190677 0.86319935 1.0462644 -2.4501678e+38
3.3190529 0.85723931 1.0462644 -2.4769605e+38
3.3190379 0.85127938 1.0462644 -2.5302338e+38
3.3470435 0.8534894 1.0445311 -2.5835074e+38
3.3470285 0.84747607 1.0445311 -2.6101445e+38
3.3470135 0.84146273 1.0445311 -2.6234895e+38
3.3469985 0.83544946 1.0445311 -2.6631595e+38
3.3469834 0.82943612 1.0445311 -2.690212e+38
3.3469684 0.82342279 1.0445311 -2.7170048e+38
3.3469534 0.81740952 1.0445311 -2.7307131e+38
3.3469384 0.81139618 1.0445311 -2.7442139e+38
3.4070511 1.2566235 1.0347531 -2.6215515e+38
3.3770051 1.2382014 1.0366673 -2.5948611e+38
3.3769898 1.2321329 1.0366673 -2.5682224e+38
3.3769748 1.2260643 1.0366673 -2.5420062e+38
3.3769596 1.2199957 1.0366673 -2.4622054e+38
3.3769443 1.2139271 1.0366673 -2.3826617e+38
3.3769293 1.2078587 1.0366673 -2.3695272e+38
3.376914 1.2017901 1.0366673 -2.3563396e+38
3.3478699 1.1842216 1.0385178 -2.3697884e+38
3.3768837 1.1896529 1.0366673 -2.3831856e+38
3.3768685 1.1835845 1.0366673 -2.3832902e+38
3.3478248 1.1661818 1.0385178 -2.3966868e+38
3.3768382 1.1714474 1.0366673 -2.396687e+38
3.3768232 1.1653788 1.0366673 -2.4100312e+38
3.3768079 1.1593102 1.0366673 -2.4233234e+38
3.3767927 1.1532416 1.0366673 -2.4365636e+38
3.3477497 1.1361151 1.0385178 -2.4100827e+38
3.347239 0.9316625 1.0385178 nan
3.347224 0.92564923 1.0385178 nan
3.3472087 0.91963583 1.0385178 -3.275529e+38
3.3191721 0.90491921 1.0403044 -2.4221227e+38
3.3191571 0.89895922 1.0403044 -2.3691609e+38
3.3191423 0.89299929 1.0403044 -2.3295453e+38
3.3191273 0.8870393 1.0403044 -2.3697353e+38
3.3191125 0.88107926 1.0403044 -2.4230612e+38
3.3190975 0.87511933 1.0403044 -2.4232178e+38
3.3190827 0.86915934 1.0403044 -2.4233743e+38
3.3190677 0.86319935 1.0403044 -2.436823e+38
3.3190529 0.85723931 1.0403044 -2.4503755e+38
3.3190379 0.85127938 1.0403044 -2.4903047e+38
3.3470435 0.8534894 1.0385178 -2.5435785e+38
3.3470285 0.84747607 1.0385178 -2.583404e+38
3.3470135 0.84146273 1.0385178 -2.6231257e+38
3.3469985 0.83544946 1.0385178 -2.6499704e+38
3.3469834 0.82943612 1.0385178 -2.6769195e+38
3.3469684 0.82342279 1.0385178 -2.7170048e+38
3.3469534 0.81740952 1.0385178 -2.7572459e+38
3.3469384 0.81139618 1.0385178 -2.7839351e+38
3.4370975 1.2751601 1.0266559 -2.7813177e+38
3.4070511 1.2566235 1.0286273 -2.7286161e+38
3.3770051 1.2382014 1.0305988 -2.6745635e+38
3.3769898 1.2321329 1.0305988 -2.5676531e+38
3.3769748 1.2260643 1.0305988 -2.4482341e+38
3.3769596 1.2199957 1.0305988 -2.4223801e+38
3.3769443 1.2139271 1.0305988 -2.3826613e+38
3.3769293 1.2078587 1.0305988 -2.3828191e+38
3.376914 1.2017901 1.0305988 -2.3696316e+38
3.4069285 1.207618 1.0286273 -2.3830288e+38
3.4069133 1.2014923 1.0286273 -2.3831856e+38
3.3768685 1.1835845 1.0305988 -2.3965308e+38
3.3478248 1.1661818 1.0325044 -2.396635e+38
3.3768382 1.1714474 1.0305988 -2.4099796e+38
3.3768232 1.1653788 1.0305988 -2.4100314e+38
3.3768079 1.1593102 1.0305988 -2.4233236e+38
3.3767927 1.1532416 1.0305988 -2.4366674e+38
3.3767776 1.147173 1.0305988 -2.4367192e+38
3.3762469 0.93477386 1.0305988 nan
3.3472087 0.91963583 1.0325044 nan
3.3471937 0.91362256 1.0325044 -2.9955622e+38
3.3471787 0.90760922 1.0325044 -2.6075374e+38
3.3471637 0.90159589 1.0325044 -2.2226349e+38
3.3471487 0.89558262 1.0325044 -2.3297544e+38
3.3191125 0.88107926 1.0343444 -2.4362492e+38
3.3190975 0.87511933 1.0343444 -2.4364058e+38
3.3471036 0.87754261 1.0325044 -2.423218e+38
3.3470886 0.87152934 1.0325044 -2.4233745e+38
3.3190529 0.85723931 1.0343444 -2.4103425e+38
3.3470585 0.85950267 1.0325044 -2.4503238e+38
3.3470435 0.8534894 1.0325044 -2.4902532e+38
3.3470285 0.84747607 1.0325044 -2.5567154e+38
3.3470135 0.84146273 1.0325044 -2.6232291e+38
3.3469985 0.83544946 1.0325044 -2.650022e+38
3.3469834 0.82943612 1.0325044 -2.6634708e+38
3.3469684 0.82342279 1.0325044 -2.7167965e+38
3.3469534 0.81740952 1.0325044 -2.7702257e+38
3.3469384 0.81139618 1.0325044 -2.8366875e+38
3.3199761 1.2267581 1.0283844 -2.4222189e+38
3.3770201 1.24427 1.0245302 -2.4218546e+38
3.3770051 1.2382014 1.0245302 -2.4216473e+38
3.4070203 1.2443721 1.0225016 -2.3542515e+38
3.3769748 1.2260643 1.0245302 -2.2873773e+38
3.3769596 1.2199957 1.0245302 -2.3288664e+38
3.3769443 1.2139271 1.0245302 -2.3694205e+38
3.3769293 1.2078587 1.0245302 -2.3562341e+38
3.376914 1.2017901 1.0245302 -2.3563911e+38
3.4069285 1.207618 1.0225016 -2.3564961e+38
3.4069133 1.2014923 1.0225016 -2.3699454e+38
3.3768685 1.1835845 1.0245302 -2.3832387e+38
3.3768535 1.1775159 1.0245302 -2.3965833e+38
3.3768382 1.1714474 1.0245302 -2.3967395e+38
3.3768232 1.1653788 1.0245302 -2.4100835e+38
3.4068367 1.1708639 1.0225016 -2.4101352e+38
3.3767927 1.1532416 1.0245302 -2.4234792e+38
3.3767776 1.147173 1.0245302 -2.4234269e+38
3.3472087 0.91963583 1.0264912 nan
3.3191721 0.90491921 1.0283844 nan
3.3471787 0.90760922 1.0264912 -2.8084253e+38
3.3761864 0.91049963 1.0245302 -2.0489513e+38
3.3471487 0.89558262 1.0264912 -2.2494292e+38
3.3471336 0.88956928 1.0264912 -2.4626776e+38
3.3190975 0.87511933 1.0283844 -2.4495417e+38
3.3471036 0.87754261 1.0264912 -2.4363541e+38
3.3470886 0.87152934 1.0264912 -2.4365624e+38
3.3470736 0.86551601 1.0264912 -2.4235305e+38
3.3470585 0.85950267 1.0264912 -2.4501676e+38
3.3470435 0.8534894 1.0264912 -2.4636165e+38
3.3470285 0.84747607 1.0264912 -2.5300785e+38
3.3470135 0.84146273 1.0264912 -2.5965924e+38
3.3469985 0.83544946 1.0264912 -2.6100409e+38
3.3469834 0.82943612 1.0264912 -2.6367818e+38
3.3469684 0.82342279 1.0264912 -2.6902111e+38
3.3469534 0.81740952 1.0264912 -2.7303476e+38
3.3469384 0.81139618 1.0264912 -2.7836206e+38
3.3469234 0.80538285 1.0264912 -2.8502923e+38
3.3759284 0.80733418 1.0245302 -2.9043467e+38
3.3199761 1.2267581 1.0224245 -2.0488359e+38
3.3770201 1.24427 1.0184616 -2.1015377e+38
3.3770051 1.2382014 1.0184616 -2.1546549e+38
3.4070203 1.2443721 1.0163759 -2.1402203e+38
3.3769748 1.2260643 1.0184616 -2.1149387e+38
3.3769596 1.2199957 1.0184616 -2.2363397e+38
3.3769443 1.2139271 1.0184616 -2.3560244e+38
3.3769293 1.2078587 1.0184616 -2.342942e+38
3.376914 1.2017901 1.0184616 -2.3298067e+38
3.376899 1.1957215 1.0184616 -2.3432041e+38
3.3768837 1.1896529 1.0184616 -2.3566012e+38
3.3768685 1.1835845 1.0184616 -2.3698945e+38
3.3768535 1.1775159 1.0184616 -2.3833428e+38
3.3768382 1.1714474 1.0184616 -2.3967912e+38
3.3768232 1.1653788 1.0184616 -2.3968431e+38
3.3768079 1.1593102 1.0184616 -2.3968948e+38
3.3767927 1.1532416 1.0184616 -2.3968948e+38
3.3767776 1.147173 1.0184616 -2.4101352e+38
3.3191869 0.91087919 1.0224245 nan
3.3191721 0.90491921 1.0224245 nan
3.3471787 0.90760922 1.0204778 -3.0079677e+38
3.3191423 0.89299929 1.0224245 -1.8641577e+38
3.3471487 0.89558262 1.0204778 -2.1829659e+38
3.3471336 0.88956928 1.0204778 -2.4888975e+38
3.3471186 0.88355595 1.0204778 -2.4759182e+38
3.3471036 0.87754261 1.0204778 -2.4495419e+38
3.3470886 0.87152934 1.0204778 -2.4496985e+38
3.3470736 0.86551601 1.0204778 -2.4365107e+38
3.3470585 0.85950267 1.0204778 -2.4365634e+38
3.3470435 0.8534894 1.0204778 -2.4368755e+38
3.3470285 0.84747607 1.0204778 -2.5033897e+38
3.3470135 0.84146273 1.0204778 -2.5567152e+38
3.3469985 0.83544946 1.0204778 -2.5834044e+38
3.3469834 0.82943612 1.0204778 -2.610249e+38
3.3469684 0.82342279 1.0204778 -2.6503341e+38
3.3469534 0.81740952 1.0204778 -2.6903671e+38
3.3469384 0.81139618 1.0204778 -2.7436924e+38
3.3469234 0.80538285 1.0204778 -2.7971228e+38
3.3469083 0.79936957 1.0204778 -2.8107284e+38
3.3770506 1.256407 1.012393 -2.3413121e+38
3.4070663 1.2627492 1.0102502 -2.3541381e+38
3.4070511 1.2566235 1.0102502 -2.5145809e+38
3.3770051 1.2382014 1.012393 -2.6596015e+38
3.3769898 1.2321329 1.012393 -2.5674379e+38
3.3769748 1.2260643 1.012393 -2.4736723e+38
3.34793 1.208275 1.0144645 -2.4750813e+38
3.3769443 1.2139271 1.012393 -2.4619992e+38
3.3769293 1.2078587 1.012393 -2.4092996e+38
3.376914 1.2017901 1.012393 -2.3563913e+38
3.4069285 1.207618 1.0102502 -2.3698405e+38
3.3768837 1.1896529 1.012393 -2.3699454e+38
3.406898 1.1953665 1.0102502 -2.3699981e+38
3.4068825 1.1892408 1.0102502 -2.3701543e+38
3.4068673 1.1831151 1.0102502 -2.3834987e+38
3.406852 1.1769894 1.0102502 -2.3968429e+38
3.3768079 1.1593102 1.012393 -2.3968429e+38
3.3477647 1.1421285 1.0144645 -2.4101354e+38
3.3191869 0.91087919 1.0164645 nan
3.3191721 0.90491921 1.0164645 nan
3.3471787 0.90760922 1.0144645 nan
3.3471637 0.90159589 1.0144645 -2.8883906e+38
3.3471487 0.89558262 1.0144645 -2.5287709e+38
3.3471336 0.88956928 1.0144645 -2.1693104e+38
3.3471186 0.88355595 1.0144645 -2.3029102e+38
3.3761256 0.8862254 1.012393 -2.4360934e+38
3.3761106 0.88015682 1.012393 -2.4228537e+38
3.3470736 0.86551601 1.0144645 -2.4228545e+38
3.3470585 0.85950267 1.0144645 -2.4232707e+38
3.3470435 0.8534894 1.0144645 -2.4235828e+38
3.3470285 0.84747607 1.0144645 -2.4635641e+38
3.3470135 0.84146273 1.0144645 -2.516942e+38
3.3469985 0.83544946 1.0144645 -2.5568715e+38
3.3469834 0.82943612 1.0144645 -2.5971122e+38
3.3469684 0.82342279 1.0144645 -2.6369376e+38
3.3469534 0.81740952 1.0144645 -2.6903154e+38
3.3469384 0.81139618 1.0144645 -2.7435892e+38
3.3469234 0.80538285 1.0144645 -2.7970187e+38
3.3759284 0.80733418 1.012393 -2.8108308e+38
3.3759134 0.8012656 1.012393 -2.8244882e+38
3.3480501 1.2563814 1.0084511 -2.0215792e+38
3.3770657 1.2624756 1.0063245 -2.2492622e+38
3.3770506 1.256407 1.0063245 -2.4630299e+38
3.3770354 1.2503386 1.0063245 -2.662778e+38
3.3770201 1.24427 1.0063245 -2.9164742e+38
3.3770051 1.2382014 1.0063245 -3.1682487e+38
3.3769898 1.2321329 1.0063245 -3.0095721e+38
3.3769748 1.2260643 1.0063245 -2.8352693e+38
3.34793 1.208275 1.0084511 -2.7016224e+38
3.3769443 1.2139271 1.0063245 -2.5686495e+38
3.3769293 1.2078587 1.0063245 -2.475865e+38
3.376914 1.2017901 1.0063245 -2.382976e+38
3.4069285 1.207618 1.0041244 -2.3831328e+38
3.3768837 1.1896529 1.0063245 -2.3831856e+38
3.406898 1.1953665 1.0041244 -2.3699981e+38
3.4068825 1.1892408 1.0041244 -2.356862e+38
3.4068673 1.1831151 1.0041244 -2.3702066e+38
3.406852 1.1769894 1.0041244 -2.3835511e+38
3.4068367 1.1708639 1.0041244 -2.4101358e+38
3.4068215 1.1647381 1.0041244 -2.4234798e+38
3.4368348 1.1700518 1.0019245 -2.4101356e+38
3.3471937 0.91362256 1.0084511 nan
3.3471787 0.90760922 1.0084511 nan
3.3471637 0.90159589 1.0084511 nan
3.3471487 0.89558262 1.0084511 -2.874474e+38
3.3471336 0.88956928 1.0084511 -1.8374186e+38
3.3471186 0.88355595 1.0084511 -2.1302661e+38
3.3761256 0.8862254 1.0063245 -2.4227488e+38
3.3761106 0.88015682 1.0063245 -2.4094054e+38
3.3760953 0.87408829 1.0063245 -2.3964255e+38
3.3470585 0.85950267 1.0084511 -2.3966857e+38
3.3470435 0.8534894 1.0084511 -2.396894e+38
3.3470285 0.84747607 1.0084511 -2.4369794e+38
3.3470135 0.84146273 1.0084511 -2.4636165e+38
3.3469985 0.83544946 1.0084511 -2.5300268e+38
3.3469834 0.82943612 1.0084511 -2.5834559e+38
3.3469684 0.82342279 1.0084511 -2.6365218e+38
3.3469534 0.81740952 1.0084511 -2.6767112e+38
3.3469384 0.81139618 1.0084511 -2.7432772e+38
3.3759437 0.81340277 1.0063245 -2.7969664e+38
3.3759284 0.80733418 1.0063245 -2.8109864e+38
3.3759134 0.8012656 1.0063245 -2.8244359e+38
3.3480501 1.2563814 1.0024378 -2.7689633e+38
3.3770657 1.2624756 1.0002559 -2.6908229e+38
3.3770506 1.256407 1.0002559 -2.8232299e+38
3.3770354 1.2503386 1.0002559 -2.9573469e+38
3.3770201 1.24427 1.0002559 -2.9834642e+38
3.3770051 1.2382014 1.0002559 -3.0238606e+38
3.34796 1.2203015 1.0024378 -2.9165361e+38
3.347945 1.2142882 1.0024378 -2.8105077e+38
3.34793 1.208275 1.0024378 -2.6889542e+38
3.3479149 1.2022617 1.0024378 -2.5818386e+38
3.3478999 1.1962483 1.0024378 -2.5023979e+38
3.376914 1.2017901 1.0002559 -2.4228529e+38
3.376899 1.1957215 1.0002559 -2.4096655e+38
3.3768837 1.1896529 1.0002559 -2.3964259e+38
3.406898 1.1953665 0.99799877 -2.3966344e+38
3.4068825 1.1892408 0.99799877 -2.3834466e+38
3.4068673 1.1831151 0.99799877 -2.3968431e+38
3.406852 1.1769894 0.99799877 -2.3968435e+38
3.4068367 1.1708639 0.99799877 -2.4102401e+38
3.3477647 1.1421285 1.0024378 -2.4235839e+38
3.3471937 0.91362256 1.0024378 nan
3.3471787 0.90760922 1.0024378 nan
3.3471637 0.90159589 1.0024378 nan
3.3471487 0.89558262 1.0024378 -2.8357395e+38
3.3471336 0.88956928 1.0024378 -2.2093426e+38
3.3471186 0.88355595 1.0024378 -2.3162538e+38
3.3471036 0.87754261 1.0024378 -2.4360928e+38
3.3470886 0.87152934 1.0024378 -2.3963207e+38
3.3760953 0.87408829 1.0002559 -2.3566521e+38
3.3470585 0.85950267 1.0024378 -2.3567566e+38
3.3470435 0.8534894 1.0024378 -2.3702054e+38
3.3470285 0.84747607 1.0024378 -2.4102386e+38
3.3470135 0.84146273 1.0024378 -2.450168e+38
3.3469985 0.83544946 1.0024378 -2.5167856e+38
3.3469834 0.82943612 1.0024378 -2.5834555e+38
3.3469684 0.82342279 1.0024378 -2.6365733e+38
3.3469534 0.81740952 1.0024378 -2.6899511e+38
3.3759589 0.8194713 1.0002559 -2.7299845e+38
3.3759437 0.81340277 1.0002559 -2.7834141e+38
3.3759284 0.80733418 1.0002559 -2.8104668e+38
3.3759134 0.8012656 1.0002559 -2.8372604e+38
3.3200209 1.2446382 0.99858445 nan
3.3770657 1.2624756 0.99418736 -3.1280078e+38
3.3770506 1.256407 0.99418736 -3.1815933e+38
3.3770354 1.2503386 0.99418736 -3.2346077e+38
3.3770201 1.24427 0.99418736 -3.06264e+38
3.3770051 1.2382014 0.99418736 -2.8756131e+38
3.34796 1.2203015 0.99642444 -2.8353724e+38
3.347945 1.2142882 0.99642444 -2.7819988e+38
3.34793 1.208275 0.99642444 -2.6883328e+38
3.3479149 1.2022617 0.99642444 -2.5819434e+38
3.3478999 1.1962483 0.99642444 -2.5289309e+38
3.376914 1.2017901 0.99418736 -2.4626263e+38
3.376899 1.1957215 0.99418736 -2.4361985e+38
3.3768837 1.1896529 0.99418736 -2.4098225e+38
3.3768685 1.1835845 0.99418736 -2.4100827e+38
3.3768535 1.1775159 0.99418736 -2.4100829e+38
3.3768382 1.1714474 0.99418736 -2.4101869e+38
3.406852 1.1769894 0.99187303 -2.4102912e+38
3.3768079 1.1593102 0.99418736 -2.4237396e+38
3.3767927 1.1532416 0.99418736 -2.4235833e+38
3.3471787 0.90760922 0.99642444 -2.9813333e+38
3.3471637 0.90159589 0.99642444 -3.0087468e+38
3.3471487 0.89558262 0.99642444 -2.7951339e+38
3.3471336 0.88956928 0.99642444 -2.568752e+38
3.3471186 0.88355595 0.99642444 -2.5158445e+38
3.3471036 0.87754261 0.99642444 -2.4493841e+38
3.3470886 0.87152934 0.99642444 -2.3830276e+38
3.3760953 0.87408829 0.99418736 -2.3166708e+38
3.3470585 0.85950267 0.99642444 -2.3300678e+38
3.3470435 0.8534894 0.99642444 -2.3302761e+38
3.3470285 0.84747607 0.99642444 -2.3835498e+38
3.3470135 0.84146273 0.99642444 -2.4235311e+38
3.3469985 0.83544946 0.99642444 -2.5033893e+38
3.3469834 0.82943612 0.99642444 -2.5699551e+38
3.3469684 0.82342279 0.99642444 -2.6363654e+38
3.3469534 0.81740952 0.99642444 -2.6898471e+38
3.3469384 0.81139618 0.99642444 -2.7297769e+38
3.3759437 0.81340277 0.99418736 -2.7567257e+38
3.3759284 0.80733418 0.99418736 -2.8101033e+38
3.3468933 0.79335624 0.99642444 -2.8505521e+38
3.3758981 0.79519713 0.99418736 -3.0107355e+38
3.3200357 1.2505982 0.99262446 -2.7956e+38
3.3480501 1.2563814 0.99041116 -2.6080461e+38
3.3770657 1.2624756 0.98811877 -2.4201874e+38
3.3770506 1.256407 0.98811877 -2.447653e+38
3.3770354 1.2503386 0.98811877 -2.4741361e+38
3.34799 1.2323282 0.99041116 -2.3816116e+38
3.347975 1.2263149 0.99041116 -2.3013896e+38
3.34796 1.2203015 0.99041116 -2.301648e+38
3.347945 1.2142882 0.99041116 -2.3153119e+38
3.34793 1.208275 0.99041116 -2.3956966e+38
3.3479149 1.2022617 0.99041116 -2.4886908e+38
3.3478999 1.1962483 0.99041116 -2.4624697e+38
3.3478849 1.190235 0.99041116 -2.4359902e+38
3.376899 1.1957215 0.98811877 -2.4097701e+38
3.3768837 1.1896529 0.98811877 -2.3833419e+38
3.3768685 1.1835845 0.98811877 -2.3967906e+38
3.3768535 1.1775159 0.98811877 -2.4100829e+38
3.3768382 1.1714474 0.98811877 -2.4235307e+38
3.406852 1.1769894 0.98574734 -2.4369273e+38
3.4068367 1.1708639 0.98574734 -2.4502197e+38
3.4068215 1.1647381 0.98574734 -2.4633039e+38
3.3471787 0.90760922 0.99041116 -2.5413295e+38
3.3471637 0.90159589 0.99041116 -2.4886813e+38
3.3471487 0.89558262 0.99041116 -2.421754e+38
3.3471336 0.88956928 0.99041116 -2.3558662e+38
3.3471186 0.88355595 0.99041116 -2.2761149e+38
3.3471036 0.87754261 0.99041116 -2.1967778e+38
3.3761106 0.88015682 0.98811877 -2.2499482e+38
3.3470736 0.86551601 0.99041116 -2.3165664e+38
3.3470585 0.85950267 0.99041116 -2.3300154e+38
3.3470435 0.8534894 0.99041116 -2.343516e+38
3.3470285 0.84747607 0.99041116 -2.3967377e+38
3.3470135 0.84146273 0.99041116 -2.4367192e+38
3.3469985 0.83544946 0.99041116 -2.4900447e+38
3.3469834 0.82943612 0.99041116 -2.5566107e+38
3.3469684 0.82342279 0.99041116 -2.5965922e+38
3.3469534 0.81740952 0.99041116 -2.6367299e+38
3.3759589 0.8194713 0.98811877 -2.6767116e+38
3.3759437 0.81340277 0.98811877 -2.7301411e+38
3.3759284 0.80733418 0.98811877 -2.7702784e+38
3.3468933 0.79335624 0.99041116 -2.8237595e+38
3.3758981 0.79519713 0.98811877 -2.9042403e+38
3.3480501 1.2563814 0.98439777 -1.7014161e+38
3.3770657 1.2624756 0.98205018 -1.7016751e+38
3.3770506 1.256407 0.98205018 -1.7014149e+38
3.3770354 1.2503386 0.98205018 -1.7019889e+38
3.34799 1.2323282 0.98439777 -1.7148169e+38
3.347975 1.2263149 0.98439777 -1.7153343e+38
3.34796 1.2203015 0.98439777 -1.781171e+38
3.347945 1.2142882 0.98439777 -1.849717e+38
3.34793 1.208275 0.98439777 -2.1169722e+38
3.3479149 1.2022617 0.98439777 -2.3827669e+38
3.3478999 1.1962483 0.98439777 -2.3962158e+38
3.3478849 1.190235 0.98439777 -2.3964768e+38
3.376899 1.1957215 0.98205018 -2.3834458e+38
3.3768837 1.1896529 0.98205018 -2.3569657e+38
3.406898 1.1953665 0.97962165 -2.3836549e+38
3.4068825 1.1892408 0.97962165 -2.4102912e+38
3.4068673 1.1831151 0.97962165 -2.4369794e+38
3.406852 1.1769894 0.97962165 -2.4503238e+38
3.4068367 1.1708639 0.97962165 -2.4768568e+38
3.4068215 1.1647381 0.97962165 -2.4900972e+38
3.3471637 0.90159589 0.98439777 -1.9549103e+38
3.3471487 0.89558262 0.98439777 -2.0472298e+38
3.3471336 0.88956928 0.98439777 -2.1281799e+38
3.3471186 0.88355595 0.98439777 -2.0359671e+38
3.3471036 0.87754261 0.98439777 -1.9303583e+38
3.3761106 0.88015682 0.98205018 -2.1167641e+38
3.3760953 0.87408829 0.98205018 -2.3030652e+38
3.3470585 0.85950267 0.98439777 -2.3299629e+38
3.3470435 0.8534894 0.98439777 -2.3566521e+38
3.3470285 0.84747607 0.98439777 -2.4099259e+38
3.3470135 0.84146273 0.98439777 -2.4499591e+38
3.3469985 0.83544946 0.98439777 -2.4899925e+38
3.3469834 0.82943612 0.98439777 -2.5299738e+38
3.3469684 0.82342279 0.98439777 -2.5566111e+38
3.3469534 0.81740952 0.98439777 -2.5701636e+38
3.3759589 0.8194713 0.98205018 -2.6367295e+38
3.3759437 0.81340277 0.98205018 -2.7034523e+38
3.3759284 0.80733418 0.98205018 -2.7436944e+38
3.3468933 0.79335624 0.98439777 -2.7838828e+38
3.3758981 0.79519713 0.98205018 -2.7976426e+38
3.3480501 1.2563814 0.97838449 -2.127285e+38
3.3770657 1.2624756 0.97598159 -1.8210438e+38
3.3770506 1.256407 0.97598159 -1.8747842e+38
3.3480051 1.2383416 0.97838449 -1.9278013e+38
3.34799 1.2323282 0.97838449 -1.9281162e+38
3.347975 1.2263149 0.97838449 -1.9412505e+38
3.34796 1.2203015 0.97838449 -1.9951443e+38
3.3199165 1.2029183 0.98070443 -2.0627555e+38
3.34793 1.208275 0.97838449 -2.183328e+38
3.3479149 1.2022617 0.97838449 -2.3165122e+38
3.3478999 1.1962483 0.97838449 -2.3433061e+38
3.3478849 1.190235 0.97838449 -2.3569117e+38
3.376899 1.1957215 0.97598159 -2.3702578e+38
3.3768837 1.1896529 0.97598159 -2.3837587e+38
3.406898 1.1953665 0.9734959 -2.4103441e+38
3.4068825 1.1892408 0.9734959 -2.4369804e+38
3.4068673 1.1831151 0.9734959 -2.4370319e+38
3.406852 1.1769894 0.9734959 -2.4504282e+38
3.4068367 1.1708639 0.9734959 -2.4636169e+38
3.4068215 1.1647381 0.9734959 -2.490202e+38
3.406806 1.1586124 0.9734959 -2.4103449e+38
3.3471487 0.89558262 0.97838449 -2.5535785e+38
3.3471336 0.88956928 0.97838449 -2.6718093e+38
3.3471186 0.88355595 0.97838449 -2.6346347e+38
3.3471036 0.87754261 0.97838449 -2.5947098e+38
3.3470886 0.87152934 0.97838449 -2.5023944e+38
3.3760953 0.87408829 0.97598159 -2.4091428e+38
3.3470585 0.85950267 0.97838449 -2.4096119e+38
3.3470435 0.8534894 0.97838449 -2.4229052e+38
3.3470285 0.84747607 0.97838449 -2.4098216e+38
3.3470135 0.84146273 0.97838449 -2.3967379e+38
3.3469985 0.83544946 0.97838449 -2.4234269e+38
3.3469834 0.82943612 0.97838449 -2.4501161e+38
3.3469684 0.82342279 0.97838449 -2.4900974e+38
3.3469534 0.81740952 0.97838449 -2.5302858e+38
3.3759589 0.8194713 0.97598159 -2.5967472e+38
3.3759437 0.81340277 0.97598159 -2.6632633e+38
3.3759284 0.80733418 0.97598159 -2.7036103e+38
3.3759134 0.8012656 0.97598159 -2.7305064e+38
3.3758981 0.79519713 0.97598159 -2.7446293e+38
3.3480654 1.2623948 0.9723711 -3.1801849e+38
3.3480501 1.2563814 0.9723711 -2.5672819e+38
3.3480351 1.2503682 0.9723711 -1.9417669e+38
3.3770506 1.256407 0.96991301 -2.0488852e+38
3.3480051 1.2383416 0.9723711 -2.1415697e+38
3.34799 1.2323282 0.9723711 -2.1551239e+38
3.347975 1.2263149 0.9723711 -2.1550192e+38
3.34796 1.2203015 0.9723711 -2.208655e+38
3.347945 1.2142882 0.9723711 -2.2625052e+38
3.34793 1.208275 0.9723711 -2.2635498e+38
3.3479149 1.2022617 0.9723711 -2.2501553e+38
3.3478999 1.1962483 0.9723711 -2.2902414e+38
3.3478849 1.190235 0.9723711 -2.3169832e+38
3.376899 1.1957215 0.96991301 -2.3569134e+38
3.3768837 1.1896529 0.96991301 -2.3969989e+38
3.406898 1.1953665 0.96737015 -2.4236883e+38
3.4068825 1.1892408 0.96737015 -2.4502727e+38
3.4068673 1.1831151 0.96737015 -2.4503763e+38
3.406852 1.1769894 0.96737015 -2.4503246e+38
3.4068367 1.1708639 0.96737015 -2.463565e+38
3.4068215 1.1647381 0.96737015 -2.476754e+38
3.406806 1.1586124 0.96737015 -2.3703644e+38
3.3471487 0.89558262 0.9723711 -3.0627438e+38
3.3471336 0.88956928 0.9723711 -3.2079746e+38
3.3471186 0.88355595 0.9723711 -3.2359631e+38
3.3761256 0.8862254 0.96991301 -3.2618206e+38
3.3761106 0.88015682 0.96991301 -2.8888575e+38
3.3760953 0.87408829 0.96991301 -2.5029153e+38
3.3470585 0.85950267 0.9723711 -2.5030203e+38
3.3470435 0.8534894 0.9723711 -2.4893141e+38
3.3470285 0.84747607 0.9723711 -2.4230099e+38
3.3470135 0.84146273 0.9723711 -2.3434645e+38
3.3469985 0.83544946 0.9723711 -2.3569131e+38
3.3469834 0.82943612 0.9723711 -2.3569657e+38
3.3469684 0.82342279 0.9723711 -2.4234277e+38
3.3469534 0.81740952 0.9723711 -2.4769088e+38
3.3759589 0.8194713 0.96991301 -2.5567667e+38
3.3759437 0.81340277 0.96991301 -2.6234378e+38
3.3759284 0.80733418 0.96991301 -2.65044e+38
3.3759134 0.8012656 0.96991301 -2.677492e+38
3.4059184 0.80332214 0.96737015 -2.6915636e+38
3.3480804 1.2684081 0.96635783 -3.3022166e+38
3.3480654 1.2623948 0.96635783 -3.2355918e+38
3.3480501 1.2563814 0.96635783 -2.6212832e+38
3.3480351 1.2503682 0.96635783 -2.0076596e+38
3.3480201 1.2443548 0.96635783 -2.0752651e+38
3.3480051 1.2383416 0.96635783 -2.1552792e+38
3.34799 1.2323282 0.96635783 -2.1553837e+38
3.347975 1.2263149 0.96635783 -2.1688847e+38
3.34796 1.2203015 0.96635783 -2.2221065e+38
3.347945 1.2142882 0.96635783 -2.2756957e+38
3.34793 1.208275 0.96635783 -2.2895638e+38
3.3479149 1.2022617 0.96635783 -2.2897212e+38
3.3478999 1.1962483 0.96635783 -2.3432552e+38
3.3478849 1.190235 0.96635783 -2.3834448e+38
3.3478699 1.1842216 0.96635783 -2.4234265e+38
3.3478549 1.1782084 0.96635783 -2.4501159e+38
3.3768685 1.1835845 0.96384448 -2.4768053e+38
3.4068825 1.1892408 0.96124446 -2.4900976e+38
3.4368966 1.1947831 0.95864451 -2.4900976e+38
3.406852 1.1769894 0.96124446 -2.4899937e+38
3.4368658 1.1824174 0.95864451 -2.4767015e+38
3.4068215 1.1647381 0.96124446 -2.4765465e+38
3.406806 1.1586124 0.96124446 -2.3705204e+38
3.4067907 1.1524867 0.96124446 -2.2776791e+38
3.3767474 1.1350361 0.96384448 -2.3429432e+38
3.3767321 1.1289675 0.96384448 -2.4218041e+38
3.3767169 1.1228989 0.96384448 -2.4076709e+38
3.3767018 1.1168303 0.96384448 -2.408037e+38
3.3471336 0.88956928 0.96635783 nan
3.3471186 0.88355595 0.96635783 nan
3.3761256 0.8862254 0.96384448 nan
3.3761106 0.88015682 0.96384448 -3.3290608e+38
3.3760953 0.87408829 0.96384448 -3.0081773e+38
3.3470585 0.85950267 0.96635783 -2.5823055e+38
3.3470435 0.8534894 0.96635783 -2.1696236e+38
3.3470285 0.84747607 0.96635783 -2.2633463e+38
3.3470135 0.84146273 0.96635783 -2.3699448e+38
3.3469985 0.83544946 0.96635783 -2.370101e+38
3.3760042 0.837677 0.96384448 -2.3702054e+38
3.3469684 0.82342279 0.96635783 -2.4235309e+38
3.3469534 0.81740952 0.96635783 -2.4902008e+38
3.3469384 0.81139618 0.96635783 -2.5300783e+38
3.3469234 0.80538285 0.96635783 -2.5834565e+38
3.3469083 0.79936957 0.96635783 -2.623854e+38
3.3759134 0.8012656 0.96384448 -2.6640951e+38
3.4059184 0.80332214 0.96124446 -2.6778034e+38
3.3771415 1.2928183 0.95777589 -3.2355457e+38
3.3480954 1.2744215 0.96034443 -3.248942e+38
3.3480804 1.2684081 0.96034443 -3.2754749e+38
3.3480654 1.2623948 0.96034443 -3.2880354e+38
3.3480501 1.2563814 0.96034443 -2.6746126e+38
3.3480351 1.2503682 0.96034443 -2.0623373e+38
3.3480201 1.2443548 0.96034443 -2.1158703e+38
3.3480051 1.2383416 0.96034443 -2.1555397e+38
3.34799 1.2323282 0.96034443 -2.16878e+38
3.347975 1.2263149 0.96034443 -2.1687796e+38
3.34796 1.2203015 0.96034443 -2.2351887e+38
3.347945 1.2142882 0.96034443 -2.2889874e+38
3.34793 1.208275 0.96034443 -2.3159417e+38
3.3479149 1.2022617 0.96034443 -2.3296503e+38
3.3478999 1.1962483 0.96034443 -2.3963207e+38
3.3478849 1.190235 0.96034443 -2.4499058e+38
3.3478699 1.1842216 0.96034443 -2.4766988e+38
3.3478549 1.1782084 0.96034443 -2.5033361e+38
3.3478398 1.1721951 0.96034443 -2.5167333e+38
3.3768535 1.1775159 0.95777589 -2.5300259e+38
3.4368966 1.1947831 0.9524616 -2.5299742e+38
3.4368811 1.1886003 0.9524616 -2.5166817e+38
3.4068367 1.1708639 0.95511878 -2.4899933e+38
3.4068215 1.1647381 0.95511878 -2.4635122e+38
3.406806 1.1586124 0.95511878 -2.3707255e+38
3.4067907 1.1524867 0.95511878 -2.2771574e+38
3.3477197 1.1240885 0.96034443 -2.3822986e+38
3.3767321 1.1289675 0.95777589 -2.4745564e+38
3.3767169 1.1228989 0.95777589 -2.446924e+38
3.3476746 1.1060486 0.96034443 -2.4209133e+38
3.3761408 0.89229399 0.95777589 nan
3.3471036 0.87754261 0.96034443 nan
3.3470886 0.87152934 0.96034443 nan
3.3470736 0.86551601 0.96034443 nan
3.3470585 0.85950267 0.96034443 -2.6748845e+38
3.3470435 0.8534894 0.96034443 -1.8509717e+38
3.3470285 0.84747607 0.96034443 -2.1172856e+38
3.3470135 0.84146273 0.96034443 -2.3831841e+38
3.3469985 0.83544946 0.96034443 -2.3832371e+38
3.3469834 0.82943612 0.96034443 -2.3701531e+38
3.3469684 0.82342279 0.96034443 -2.4367711e+38
3.3469534 0.81740952 0.96034443 -2.4899927e+38
3.3469384 0.81139618 0.96034443 -2.5163702e+38
3.3469234 0.80538285 0.96034443 -2.5302872e+38
3.3469083 0.79936957 0.96034443 -2.5973212e+38
3.3759134 0.8012656 0.95777589 -2.6505945e+38
3.3758981 0.79519713 0.95777589 -2.6639391e+38
3.4059031 0.79719645 0.95511878 -2.6649796e+38
3.4669287 0.80735922 0.94971585 -2.9052294e+38
3.4669132 0.80111736 0.94971585 -3.1305189e+38
3.4668975 0.7948755 0.94971585 -2.6368832e+38
2.9678624 1.1816397 0.98871207 -2.9817454e+38
2.9678493 1.1763502 0.98871207 -2.7148567e+38
2.9678359 1.1710608 0.98871207 -2.3145258e+38
3.3771415 1.2928183 0.95170736 -3.2218902e+38
3.3480954 1.2744215 0.95433116 -3.1421878e+38
3.3480804 1.2684081 0.95433116 -3.1420312e+38
3.3480654 1.2623948 0.95433116 -3.1555294e+38
3.3480501 1.2563814 0.95433116 -2.6351034e+38
3.3480351 1.2503682 0.95433116 -2.1157689e+38
3.3480201 1.2443548 0.95433116 -2.1556966e+38
3.3480051 1.2383416 0.95433116 -2.2087615e+38
3.34799 1.2323282 0.95433116 -2.1953648e+38
3.347975 1.2263149 0.95433116 -2.1952593e+38
3.34796 1.2203015 0.95433116 -2.2221536e+38
3.3199165 1.2029183 0.95686448 -2.2494212e+38
3.3199017 1.1969583 0.95686448 -2.2896177e+38
3.3198869 1.1909983 0.95686448 -2.3431509e+38
3.3198719 1.1850383 0.95686448 -2.4366129e+38
3.3198571 1.1790783 0.95686448 -2.5297631e+38
3.3198421 1.1731184 0.95686448 -2.5432633e+38
3.3478549 1.1782084 0.95433116 -2.5564527e+38
3.3478398 1.1721951 0.95433116 -2.5699016e+38
3.4068673 1.1831151 0.94899303 -2.5566624e+38
3.4368811 1.1886003 0.94627875 -2.5300777e+38
3.4068367 1.1708639 0.94899303 -2.516785e+38
3.4068215 1.1647381 0.94899303 -2.5033874e+38
3.3767776 1.147173 0.95170736 -2.3838593e+38
3.3767624 1.1411045 0.95170736 -2.2639146e+38
3.3477197 1.1240885 0.95433116 -2.3157831e+38
3.3767321 1.1289675 0.95170736 -2.3812494e+38
3.3767169 1.1228989 0.95170736 -2.4076176e+38
3.3476746 1.1060486 0.95433116 -2.4474453e+38
3.3471036 0.87754261 0.95433116 nan
3.3470886 0.87152934 0.95433116 nan
3.3470736 0.86551601 0.95433116 nan
3.3470585 0.85950267 0.95433116 -3.0623339e+38
3.3470435 0.8534894 0.95433116 -2.4225912e+38
3.3470285 0.84747607 0.95433116 -2.3696298e+38
3.3760347 0.84981406 0.95170736 -2.3166181e+38
3.3760195 0.84374553 0.95170736 -2.356704e+38
3.3760042 0.837677 0.95170736 -2.3967375e+38
3.3759892 0.83160841 0.95170736 -2.450011e+38
3.3469534 0.81740952 0.95433116 -2.4899923e+38
3.3759589 0.8194713 0.95170736 -2.5166294e+38
3.3759437 0.81340277 0.95170736 -2.5435791e+38
3.3759284 0.80733418 0.95170736 -2.5970094e+38
3.4059336 0.80944782 0.94899303 -2.6503862e+38
3.4059184 0.80332214 0.94899303 -2.6641458e+38
3.4059031 0.79719645 0.94899303 -2.691564e+38
3.4669287 0.80735922 0.94347399 -2.8780739e+38
3.4669132 0.80111736 0.94347399 -3.0645798e+38
3.4668975 0.7948755 0.94347399 -2.7971232e+38
2.9448364 1.1712925 0.9855473 -3.2355978e+38
2.9678493 1.1763502 0.98342258 -3.3004955e+38
2.9678359 1.1710608 0.98342258 -2.514272e+38
3.3201251 1.286358 0.95090449 -3.3828084e+38
3.3201101 1.280398 0.95090449 -3.382965e+38
3.3200953 1.274438 0.95090449 -3.3818164e+38
3.3481104 1.2804347 0.94831777 -3.207453e+38
3.3480954 1.2744215 0.94831777 -3.0214657e+38
3.3480804 1.2684081 0.94831777 -3.0215703e+38
3.3480654 1.2623948 0.94831777 -3.0214639e+38
3.3480501 1.2563814 0.94831777 -2.5944467e+38
3.3480351 1.2503682 0.94831777 -2.1554896e+38
3.3480201 1.2443548 0.94831777 -2.2088662e+38
3.3480051 1.2383416 0.94831777 -2.248587e+38
3.34799 1.2323282 0.94831777 -2.2352426e+38
3.347975 1.2263149 0.94831777 -2.2219495e+38
3.34796 1.2203015 0.94831777 -2.2221045e+38
3.3199165 1.2029183 0.95090449 -2.2094927e+38
3.3199017 1.1969583 0.95090449 -2.2765828e+38
3.3198869 1.1909983 0.95090449 -2.3433049e+38
3.3198719 1.1850383 0.95090449 -2.4772154e+38
3.3198571 1.1790783 0.95090449 -2.596691e+38
3.3198421 1.1731184 0.95090449 -2.6100877e+38
3.3198273 1.1671584 0.95090449 -2.6099326e+38
3.3478398 1.1721951 0.94831777 -2.6232774e+38
3.4068825 1.1892408 0.94286728 -2.6365183e+38
3.4068673 1.1831151 0.94286728 -2.5967459e+38
3.406852 1.1769894 0.94286728 -2.5434202e+38
3.4068367 1.1708639 0.94286728 -2.5435752e+38
3.4068215 1.1647381 0.94286728 -2.5433667e+38
3.4368348 1.1700518 0.9400959 -2.3973068e+38
3.4368193 1.1638689 0.9400959 -2.2369141e+38
3.3767474 1.1350361 0.94563878 -2.2622501e+38
3.3767321 1.1289675 0.94563878 -2.2752249e+38
3.406745 1.1341096 0.94286728 -2.3681094e+38
3.3761106 0.88015682 0.94563878 nan
3.3760953 0.87408829 0.94563878 nan
3.37608 0.86801976 0.94563878 nan
3.376065 0.86195117 0.94563878 -2.9824261e+38
3.3760498 0.85588264 0.94563878 -2.6219231e+38
3.3760347 0.84981406 0.94563878 -2.2500524e+38
3.3760195 0.84374553 0.94563878 -2.3434635e+38
3.3760042 0.837677 0.94563878 -2.4232699e+38
3.3759892 0.83160841 0.94563878 -2.4631995e+38
3.3759739 0.82553983 0.94563878 -2.4899402e+38
3.3759589 0.8194713 0.94563878 -2.5299215e+38
3.3759437 0.81340277 0.94563878 -2.5567669e+38
3.3759284 0.80733418 0.94563878 -2.5968009e+38
3.3759134 0.8012656 0.94563878 -2.6369899e+38
3.4059184 0.80332214 0.94286728 -2.6772827e+38
3.4059031 0.79719645 0.94286728 -2.7043366e+38
3.4669287 0.80735922 0.93723208 -2.8508134e+38
3.4669132 0.80111736 0.93723208 -2.9842554e+38
3.4668975 0.7948755 0.93723208 -2.9711189e+38
2.9448495 1.1765381 0.98030162 -3.0491416e+38
2.9448364 1.1712925 0.98030162 -2.982578e+38
2.9448233 1.1660469 0.98030162 -2.9161095e+38
2.9448102 1.1608011 0.98030162 -2.4879973e+38
2.944797 1.1555554 0.98030162 -2.0736498e+38
3.3201251 1.286358 0.9449445 -3.2764168e+38
3.3201101 1.280398 0.9449445 -3.2097491e+38
3.3200953 1.274438 0.9449445 -3.1426576e+38
3.3481104 1.2804347 0.94230449 -3.0613391e+38
3.3200655 1.262518 0.9449445 -2.9671013e+38
3.3480804 1.2684081 0.94230449 -2.8351673e+38
3.3200357 1.2505982 0.9449445 -2.7028122e+38
3.3200209 1.2446382 0.9449445 -2.4749708e+38
3.3480351 1.2503682 0.94230449 -2.2611524e+38
3.3480201 1.2443548 0.94230449 -2.261672e+38
3.3199761 1.2267581 0.9449445 -2.2750164e+38
3.34799 1.2323282 0.94230449 -2.2484321e+38
3.347975 1.2263149 0.94230449 -2.2352438e+38
3.34796 1.2203015 0.94230449 -2.2488477e+38
3.3199165 1.2029183 0.9449445 -2.2627141e+38
3.3199017 1.1969583 0.9449445 -2.315938e+38
3.3198869 1.1909983 0.9449445 -2.3825051e+38
3.3198719 1.1850383 0.9449445 -2.4628315e+38
3.3198571 1.1790783 0.9449445 -2.5570729e+38
3.3198421 1.1731184 0.9449445 -2.5297625e+38
3.3198273 1.1671584 0.9449445 -2.5169896e+38
3.3478398 1.1721951 0.94230449 -2.5696397e+38
3.4068825 1.1892408 0.93674159 -2.6232768e+38
3.3768382 1.1714474 0.93957019 -2.5961736e+38
3.3477948 1.1541551 0.94230449 -2.5830878e+38
3.3768079 1.1593102 0.93957019 -2.5693787e+38
3.4068215 1.1647381 0.93674159 -2.5696902e+38
3.4368348 1.1700518 0.93391299 -2.4893135e+38
3.4067907 1.1524867 0.93674159 -2.3963172e+38
3.3767474 1.1350361 0.93957019 -2.3820879e+38
3.4067602 1.1402353 0.93674159 -2.368481e+38
3.406745 1.1341096 0.93674159 -2.4215432e+38
3.3767018 1.1168303 0.93957019 -2.4747639e+38
3.3761106 0.88015682 0.93957019 nan
3.3760953 0.87408829 0.93957019 nan
3.37608 0.86801976 0.93957019 nan
3.376065 0.86195117 0.93957019 -3.3162403e+38
3.3760498 0.85588264 0.93957019 -2.6893187e+38
3.3760347 0.84981406 0.93957019 -2.0769928e+38
3.3760195 0.84374553 0.93957019 -2.2502613e+38
3.3760042 0.837677 0.93957019 -2.4232178e+38
3.3759892 0.83160841 0.93957019 -2.4366147e+38
3.3759739 0.82553983 0.93957019 -2.4633554e+38
3.3759589 0.8194713 0.93957019 -2.5032846e+38
3.3759437 0.81340277 0.93957019 -2.5433702e+38
3.3759284 0.80733418 0.93957019 -2.5833519e+38
3.3759134 0.8012656 0.93957019 -2.6366782e+38
3.4059184 0.80332214 0.93674159 -2.650387e+38
3.4059031 0.79719645 0.93674159 -2.6774403e+38
3.4359078 0.7990815 0.93391299 -2.8109355e+38
3.4669132 0.80111736 0.93099022 -2.9442232e+38
3.4668975 0.7948755 0.93099022 -3.0771474e+38
2.9678757 1.1869292 0.97284353 -2.9422834e+38
2.9448364 1.1712925 0.97505593 -2.7293996e+38
2.9448233 1.1660469 0.97505593 -2.5163035e+38
2.9448102 1.1608011 0.97505593 -2.4744491e+38
2.9678228 1.1657712 0.97284353 -2.4209674e+38
3.3481555 1.2984747 0.9362911 -3.1568913e+38
3.3201101 1.280398 0.93898445 -3.0368454e+38
3.3200953 1.274438 0.93898445 -2.9029292e+38
3.3481104 1.2804347 0.9362911 -2.9148125e+38
3.3200655 1.262518 0.93898445 -2.9146583e+38
3.3200507 1.2565581 0.93898445 -2.6491257e+38
3.3200357 1.2505982 0.93898445 -2.3826546e+38
3.3200209 1.2446382 0.93898445 -2.3679581e+38
3.3200059 1.2386782 0.93898445 -2.3546657e+38
3.3480201 1.2443548 0.9362911 -2.3281849e+38
3.3199761 1.2267581 0.93898445 -2.2882041e+38
3.3199613 1.2207981 0.93898445 -2.2748596e+38
3.347975 1.2263149 0.9362911 -2.2484834e+38
3.34796 1.2203015 0.9362911 -2.275328e+38
3.3199165 1.2029183 0.93898445 -2.3020697e+38
3.3199017 1.1969583 0.93898445 -2.3684808e+38
3.3198869 1.1909983 0.93898445 -2.421338e+38
3.3198719 1.1850383 0.93898445 -2.4610067e+38
3.3198571 1.1790783 0.93898445 -2.5019243e+38
3.3198421 1.1731184 0.93898445 -2.4614785e+38
3.3198273 1.1671584 0.93898445 -2.422329e+38
3.3478398 1.1721951 0.9362911 -2.5150117e+38
3.3768535 1.1775159 0.9335016 -2.5952848e+38
3.3768382 1.1714474 0.9335016 -2.608214e+38
3.3768232 1.1653788 0.9335016 -2.608472e+38
3.3768079 1.1593102 0.9335016 -2.6076396e+38
3.4068215 1.1647381 0.9306159 -2.5947102e+38
3.3767776 1.147173 0.9335016 -2.5805348e+38
3.4067907 1.1524867 0.9306159 -2.554521e+38
3.3767474 1.1350361 0.9335016 -2.5012476e+38
3.4067602 1.1402353 0.9306159 -2.448129e+38
3.406745 1.1341096 0.9306159 -2.4614199e+38
3.3767018 1.1168303 0.9335016 -2.4750233e+38
3.3470886 0.87152934 0.9362911 nan
3.3760953 0.87408829 0.9335016 nan
3.37608 0.86801976 0.9335016 nan
3.3470435 0.8534894 0.9362911 nan
3.3470285 0.84747607 0.9362911 -2.7687603e+38
3.3760347 0.84981406 0.9335016 -1.8913156e+38
3.3760195 0.84374553 0.9335016 -2.1574225e+38
3.3760042 0.837677 0.9335016 -2.4099249e+38
3.3759892 0.83160841 0.9335016 -2.423322e+38
3.3759739 0.82553983 0.9335016 -2.4366149e+38
3.3759589 0.8194713 0.9335016 -2.4764924e+38
3.3759437 0.81340277 0.9335016 -2.5165777e+38
3.3759284 0.80733418 0.9335016 -2.5830399e+38
3.3759134 0.8012656 0.9335016 -2.6365214e+38
3.4059184 0.80332214 0.9306159 -2.6367818e+38
3.4059031 0.79719645 0.9306159 -2.6375105e+38
3.4359078 0.7990815 0.9277302 -2.771214e+38
3.4358926 0.79289865 0.9277302 -2.8911056e+38
3.4358771 0.78671581 0.9277302 -3.1838489e+38
3.4358616 0.7805329 0.9277302 nan
2.9448495 1.1765381 0.96981019 -2.8624767e+38
2.9448364 1.1712925 0.96981019 -2.7293976e+38
2.9448233 1.1660469 0.96981019 -2.5965253e+38
2.9448102 1.1608011 0.96981019 -2.5687449e+38
2.9678228 1.1657712 0.96755397 -2.541849e+38
3.3481705 1.3044879 0.93027782 -3.2899723e+38
3.3201251 1.286358 0.93302447 -3.2500424e+38
3.3201101 1.280398 0.93302447 -3.0633779e+38
3.3200953 1.274438 0.93302447 -2.8895329e+38
3.3481104 1.2804347 0.93027782 -2.8617991e+38
3.3200655 1.262518 0.93302447 -2.8351115e+38
3.3200507 1.2565581 0.93302447 -2.6485529e+38
3.3200357 1.2505982 0.93302447 -2.4752328e+38
3.3200209 1.2446382 0.93302447 -2.4348353e+38
3.3200059 1.2386782 0.93302447 -2.3948023e+38
3.3199911 1.2327181 0.93302447 -2.3547691e+38
3.3199761 1.2267581 0.93302447 -2.314684e+38
3.3199613 1.2207981 0.93302447 -2.3014949e+38
3.3199463 1.2148381 0.93302447 -2.2750152e+38
3.3199315 1.2088783 0.93302447 -2.2884121e+38
3.3199165 1.2029183 0.93302447 -2.3149448e+38
3.3199017 1.1969583 0.93302447 -2.3545101e+38
3.3198869 1.1909983 0.93302447 -2.3936057e+38
3.3198719 1.1850383 0.93302447 -2.5010316e+38
3.3478849 1.190235 0.93027782 -2.6079445e+38
3.3198421 1.1731184 0.93302447 -2.5417461e+38
3.3478549 1.1782084 0.93027782 -2.4749217e+38
3.3478398 1.1721951 0.93027782 -2.5150066e+38
3.4068825 1.1892408 0.92449021 -2.5681757e+38
3.3768382 1.1714474 0.92743301 -2.5682794e+38
3.406852 1.1769894 0.92449021 -2.5683814e+38
3.3768079 1.1593102 0.92743301 -2.5813601e+38
3.4068215 1.1647381 0.92449021 -2.5809956e+38
3.4368348 1.1700518 0.92154729 -2.5676504e+38
3.4067907 1.1524867 0.92449021 -2.5405483e+38
3.4067755 1.146361 0.92449021 -2.5011921e+38
3.4067602 1.1402353 0.92449021 -2.4612637e+38
3.406745 1.1341096 0.92449021 -2.4481793e+38
3.3767018 1.1168303 0.92743301 -2.4351463e+38
3.3761106 0.88015682 0.92743301 nan
3.3760953 0.87408829 0.92743301 -3.3300528e+38
3.37608 0.86801976 0.92743301 nan
3.376065 0.86195117 0.92743301 nan
3.3760498 0.85588264 0.92743301 -3.0087993e+38
3.3760347 0.84981406 0.92743301 -2.4229541e+38
3.3760195 0.84374553 0.92743301 -2.4630402e+38
3.3760042 0.837677 0.92743301 -2.5028664e+38
3.3759892 0.83160841 0.92743301 -2.4763348e+38
3.3759739 0.82553983 0.92743301 -2.4497512e+38
3.3759589 0.8194713 0.92743301 -2.503025e+38
3.3759437 0.81340277 0.92743301 -2.5431101e+38
3.3759284 0.80733418 0.92743301 -2.5963318e+38
3.3759134 0.8012656 0.92743301 -2.6630011e+38
3.3758981 0.79519713 0.92743301 -2.676657e+38
3.3758831 0.78912854 0.92743301 -2.690471e+38
3.4359078 0.7990815 0.92154729 -2.7574019e+38
3.4358926 0.79289865 0.92154729 -2.8379882e+38
3.4358771 0.78671581 0.92154729 -2.9845164e+38
3.4358616 0.7805329 0.92154729 -3.1440197e+38
2.9448364 1.1712925 0.96456444 -2.7291371e+38
2.9448233 1.1660469 0.96456444 -2.6624672e+38
2.9448102 1.1608011 0.96456444 -2.662051e+38
2.944797 1.1555554 0.96456444 -2.6483955e+38
3.3481705 1.3044879 0.92426443 -3.3433481e+38
3.3201251 1.286358 0.92706448 -3.3430887e+38
3.3201101 1.280398 0.92706448 -3.1036202e+38
3.3200953 1.274438 0.92706448 -2.8627936e+38
3.3200805 1.268478 0.92706448 -2.8076954e+38
3.3200655 1.262518 0.92706448 -2.7545786e+38
3.3200507 1.2565581 0.92706448 -2.6613253e+38
3.3200357 1.2505982 0.92706448 -2.5548301e+38
3.3200209 1.2446382 0.92706448 -2.5014002e+38
3.3480351 1.2503682 0.92426443 -2.4346787e+38
3.3480201 1.2443548 0.92426443 -2.3945938e+38
3.3199761 1.2267581 0.92706448 -2.3414241e+38
3.3199613 1.2207981 0.92706448 -2.3281831e+38
3.3199463 1.2148381 0.92706448 -2.3015992e+38
3.3199315 1.2088783 0.92706448 -2.3148921e+38
3.3199165 1.2029183 0.92706448 -2.3147882e+38
3.3199017 1.1969583 0.92706448 -2.3410614e+38
3.3198869 1.1909983 0.92706448 -2.35482e+38
3.3198719 1.1850383 0.92706448 -2.5414821e+38
3.3478849 1.190235 0.92426443 -2.7148044e+38
3.3478699 1.1842216 0.92426443 -2.6225409e+38
3.3478549 1.1782084 0.92426443 -2.5286626e+38
3.3478398 1.1721951 0.92426443 -2.5284013e+38
3.3478248 1.1661818 0.92426443 -2.5284015e+38
3.3478098 1.1601684 0.92426443 -2.5282981e+38
3.3477948 1.1541551 0.92426443 -2.528505e+38
3.3477798 1.1481417 0.92426443 -2.5550889e+38
3.4068215 1.1647381 0.91836447 -2.5684327e+38
3.406806 1.1586124 0.91836447 -2.5552439e+38
3.4368193 1.1638689 0.9153645 -2.5282441e+38
3.4067755 1.146361 0.91836447 -2.5016079e+38
3.4678178 1.1631467 0.91226447 -2.4616272e+38
3.4367731 1.1453204 0.9153645 -2.4216467e+38
3.4067295 1.1279839 0.91836447 -2.3818214e+38
3.3761106 0.88015682 0.92136443 -3.2080762e+38
3.3760953 0.87408829 0.92136443 -2.9562012e+38
3.37608 0.86801976 0.92136443 -3.2491538e+38
3.376065 0.86195117 0.92136443 nan
3.3760498 0.85588264 0.92136443 -3.2480577e+38
3.3760347 0.84981406 0.92136443 -2.9550593e+38
3.3760195 0.84374553 0.92136443 -2.7822103e+38
3.4060254 0.84620202 0.91836447 -2.5958602e+38
3.4060102 0.84007633 0.91836447 -2.5293483e+38
3.3759739 0.82553983 0.92136443 -2.4629396e+38
3.3759589 0.8194713 0.92136443 -2.5161096e+38
3.3759437 0.81340277 0.92136443 -2.5695389e+38
3.3759284 0.80733418 0.92136443 -2.6227089e+38
3.3759134 0.8012656 0.92136443 -2.6761899e+38
3.3758981 0.79519713 0.92136443 -2.7030864e+38
3.3758831 0.78912854 0.92136443 -2.7299839e+38
3.4359078 0.7990815 0.9153645 -2.7564141e+38
3.4358926 0.79289865 0.9153645 -2.7710067e+38
3.4358771 0.78671581 0.9153645 -2.7986841e+38
3.4358616 0.7805329 0.9153645 -2.8248498e+38
2.9448364 1.1712925 0.95931876 -2.7422209e+38
2.9448233 1.1660469 0.95931876 -2.6753961e+38
2.9448102 1.1608011 0.95931876 -2.6354152e+38
2.9678228 1.1657712 0.95697498 -2.608675e+38
2.9678097 1.1604817 0.95697498 -2.5415389e+38
2.9677963 1.1551923 0.95697498 -2.4744067e+38
3.3481705 1.3044879 0.91825116 -3.3165547e+38
3.3201251 1.286358 0.92110443 -3.236647e+38
3.3201101 1.280398 0.92110443 -3.0634336e+38
3.3200953 1.274438 0.92110443 -2.8895868e+38
3.3200805 1.268478 0.92110443 -2.7281494e+38
3.3200655 1.262518 0.92110443 -2.5813114e+38
3.3200507 1.2565581 0.92110443 -2.5548826e+38
3.3200357 1.2505982 0.92110443 -2.5281413e+38
3.3200209 1.2446382 0.92110443 -2.4614191e+38
3.3200059 1.2386782 0.92110443 -2.3946457e+38
3.3480201 1.2443548 0.91825116 -2.3547685e+38
3.3199761 1.2267581 0.92110443 -2.3148912e+38
3.3199613 1.2207981 0.92110443 -2.3148906e+38
3.347975 1.2263149 0.91825116 -2.3149428e+38
3.3199315 1.2088783 0.92110443 -2.3414237e+38
3.347945 1.2142882 0.91825116 -2.3811969e+38
3.3199017 1.1969583 0.92110443 -2.4481777e+38
3.3198869 1.1909983 0.92110443 -2.5153147e+38
3.3198719 1.1850383 0.92110443 -2.7416475e+38
3.3478849 1.190235 0.91825116 -2.9675161e+38
3.3478699 1.1842216 0.91825116 -2.8884928e+38
3.3478549 1.1782084 0.91825116 -2.8210931e+38
3.3478398 1.1721951 0.91825116 -2.7020301e+38
3.3478248 1.1661818 0.91825116 -2.5818293e+38
3.3478098 1.1601684 0.91825116 -2.595226e+38
3.3768232 1.1653788 0.9152959 -2.608415e+38
3.3768079 1.1593102 0.9152959 -2.5956426e+38
3.4068215 1.1647381 0.91223872 -2.5690063e+38
3.4368348 1.1700518 0.90918159 -2.5554544e+38
3.4368193 1.1638689 0.90918159 -2.5421611e+38
3.4368041 1.1576861 0.90918159 -2.5152121e+38
3.4678178 1.1631467 0.90602255 -2.4751793e+38
3.467802 1.1569048 0.90602255 -2.4350426e+38
3.4367576 1.1391375 0.90918159 -2.4083021e+38
3.3761106 0.88015682 0.9152959 -2.528553e+38
3.3760953 0.87408829 0.9152959 -2.4893557e+38
3.37608 0.86801976 0.9152959 -2.6356788e+38
3.376065 0.86195117 0.9152959 -2.7822558e+38
3.3760498 0.85588264 0.9152959 -2.7285139e+38
3.3760347 0.84981406 0.9152959 -2.6625236e+38
3.3760195 0.84374553 0.9152959 -2.5954949e+38
3.3760042 0.837677 0.9152959 -2.5290871e+38
3.4060102 0.84007633 0.91223872 -2.4760753e+38
3.3759739 0.82553983 0.9152959 -2.4363032e+38
3.3759589 0.8194713 0.9152959 -2.4895248e+38
3.3759437 0.81340277 0.9152959 -2.5429546e+38
3.3759284 0.80733418 0.9152959 -2.5827284e+38
3.3759134 0.8012656 0.9152959 -2.6229174e+38
3.3468783 0.78734291 0.91825116 -2.716587e+38
3.3758831 0.78912854 0.9152959 -2.8097374e+38
3.3758678 0.78305995 0.9152959 -2.889855e+38
3.3758526 0.77699149 0.9152959 -2.9832672e+38
3.4358771 0.78671581 0.90918159 -2.9441201e+38
2.9448364 1.1712925 0.95407307 -2.7554619e+38
2.9448233 1.1660469 0.95407307 -2.6753967e+38
2.9448102 1.1608011 0.95407307 -2.6221237e+38
2.944797 1.1555554 0.95407307 -2.5685905e+38
2.9447839 1.1503097 0.95407307 -2.4482846e+38
2.9447708 1.145064 0.95407307 -2.3159372e+38
2.9447446 1.1345726 0.95407307 nan
3.3201251 1.286358 0.91514444 -3.1170163e+38
3.3201101 1.280398 0.91514444 -3.0104726e+38
3.3200953 1.274438 0.91514444 -2.9024613e+38
3.3200805 1.268478 0.91514444 -2.6606445e+38
3.2920358 1.2506148 0.91805112 -2.4084568e+38
3.3200507 1.2565581 0.91514444 -2.4486996e+38
3.3200357 1.2505982 0.91514444 -2.4882121e+38
3.2919915 1.2328948 0.91805112 -2.4214384e+38
3.3200059 1.2386782 0.91514444 -2.3549245e+38
3.3199911 1.2327181 0.91514444 -2.3149432e+38
3.3199761 1.2267581 0.91514444 -2.275014e+38
3.3199613 1.2207981 0.91514444 -2.3014943e+38
3.347975 1.2263149 0.91223776 -2.328131e+38
3.34796 1.2203015 0.91223776 -2.3811443e+38
3.347945 1.2142882 0.91223776 -2.4347806e+38
3.3199017 1.1969583 0.91514444 -2.5550338e+38
3.3198869 1.1909983 0.91514444 -2.6752387e+38
3.3198719 1.1850383 0.91514444 -2.9422298e+38
3.3478849 1.190235 0.91223776 -3.2084423e+38
3.3478699 1.1842216 0.91223776 -3.1561591e+38
3.3478549 1.1782084 0.91223776 -3.1022609e+38
3.3478398 1.1721951 0.91223776 -2.863517e+38
3.3478248 1.1661818 0.91223776 -2.6231127e+38
3.3478098 1.1601684 0.91223776 -2.6622616e+38
3.3768232 1.1653788 0.90922731 -2.6889504e+38
3.3768079 1.1593102 0.90922731 -2.6367682e+38
3.4068215 1.1647381 0.90611303 -2.5694756e+38
3.4368348 1.1700518 0.90299875 -2.5686445e+38
3.4368193 1.1638689 0.90299875 -2.5552469e+38
3.4368041 1.1576861 0.90299875 -2.5285054e+38
3.4678178 1.1631467 0.89978063 -2.4883683e+38
3.467802 1.1569048 0.89978063 -2.4615757e+38
3.4677866 1.1506629 0.89978063 -2.4216467e+38
3.3761106 0.88015682 0.90922731 -1.8611887e+38
3.3760953 0.87408829 0.90922731 -2.0089116e+38
3.37608 0.86801976 0.90922731 -2.0219984e+38
3.376065 0.86195117 0.90922731 -2.0226728e+38
3.3760498 0.85588264 0.90922731 -2.1946932e+38
3.3760347 0.84981406 0.90922731 -2.3683244e+38
3.3760195 0.84374553 0.90922731 -2.4080463e+38
3.3760042 0.837677 0.90922731 -2.4487055e+38
3.3759892 0.83160841 0.90922731 -2.4360918e+38
3.3759739 0.82553983 0.90922731 -2.4095604e+38
3.3759589 0.8194713 0.90922731 -2.4627307e+38
3.3469234 0.80538285 0.91223776 -2.5026605e+38
3.3759284 0.80733418 0.90922731 -2.5423309e+38
3.3759134 0.8012656 0.90922731 -2.5698511e+38
3.3758981 0.79519713 0.90922731 -2.7305017e+38
3.3758831 0.78912854 0.90922731 -2.8898533e+38
3.4058878 0.79107076 0.90611303 -3.0365357e+38
3.4058726 0.78494507 0.90611303 -3.1825423e+38
3.4358771 0.78671581 0.90299875 -3.1029955e+38
2.9448233 1.1660469 0.94882733 -2.6618973e+38
2.9678359 1.1710608 0.94639587 -2.6085724e+38
2.9678228 1.1657712 0.94639587 -2.5553502e+38
2.9678097 1.1604817 0.94639587 -2.4219069e+38
