# .PCD v0.7 - Point Cloud Data file format
VERSION 0.7
FIELDS x y z rgb
SIZE 4 4 4 4
TYPE F F F F
COUNT 1 1 1 1
WIDTH 1062
HEIGHT 1
VIEWPOINT 0 0 0 1 0 0 0
POINTS 1062
DATA ascii
3.6645968 -1.3474317 1.1572263 -2.0751073e+38
3.6645815 -1.3540506 1.1572263 -2.0880355e+38
3.6645665 -1.3606697 1.1572263 -2.1015363e+38
3.6645513 -1.3672888 1.1572263 -2.1414661e+38
3.664536 -1.3739078 1.1572263 -2.181604e+38
3.5955803 -1.3545432 1.1588693 -2.2349301e+38
3.5955656 -1.3610308 1.1588693 -2.2749633e+38
3.5955505 -1.3675184 1.1588693 -2.3415291e+38
3.5955358 -1.374006 1.1588693 -2.4081978e+38
3.595521 -1.3804935 1.1588693 -2.5011395e+38
3.595506 -1.3869811 1.1588693 -2.5813125e+38
3.5954912 -1.3934689 1.1588693 -2.914662e+38
3.5954764 -1.3999565 1.1588693 -3.2496268e+38
3.6294308 -1.4197657 1.1580597 nan
3.5954466 -1.4129317 1.1588693 nan
3.5954318 -1.4194193 1.1588693 nan
3.7002256 -1.0727935 1.1497073 -2.129062e+38
3.6652334 -1.0694324 1.1506073 -2.5150044e+38
3.6652181 -1.0760514 1.1506073 -2.4750744e+38
3.6302261 -1.0724903 1.1515074 -2.4483335e+38
3.6302111 -1.0790427 1.1515074 -2.4349885e+38
3.6301961 -1.0855951 1.1515074 -2.4216441e+38
3.6301811 -1.0921475 1.1515074 -2.3950074e+38
3.6301661 -1.0986998 1.1515074 -2.3684224e+38
3.630151 -1.1052521 1.1515074 -2.3684218e+38
3.630136 -1.1118045 1.1515074 -2.3551297e+38
3.630121 -1.1183568 1.1515074 -2.3551297e+38
3.6650817 -1.1356227 1.1506073 -2.3550782e+38
3.630091 -1.1314616 1.1515074 -2.3550784e+38
3.6300759 -1.138014 1.1515074 -2.3418904e+38
3.6300611 -1.1445664 1.1515074 -2.3418908e+38
3.6300461 -1.1511186 1.1515074 -2.328547e+38
3.6300311 -1.1576711 1.1515074 -2.3552356e+38
3.6300161 -1.1642234 1.1515074 -2.3951132e+38
3.6300011 -1.1707758 1.1515074 -2.3284967e+38
3.629986 -1.1773282 1.1515074 -2.261926e+38
3.629971 -1.1838806 1.1515074 -2.3269798e+38
3.6649301 -1.201813 1.1506073 -2.3928392e+38
3.6649151 -1.208432 1.1506073 nan
3.7726469 -1.3256506 1.1478302 -2.0617165e+38
3.6996899 -1.306793 1.1497073 -2.3676979e+38
3.6996746 -1.3134786 1.1497073 -2.3011838e+38
3.6996591 -1.3201643 1.1497073 -2.2478058e+38
3.6996439 -1.3268501 1.1497073 -2.2345642e+38
3.6996286 -1.3335357 1.1497073 -2.2213753e+38
3.6996133 -1.3402214 1.1497073 -2.168102e+38
3.6995981 -1.3469071 1.1497073 -2.1282251e+38
3.6646118 -1.3408126 1.1506073 -2.1150367e+38
3.6645968 -1.3474317 1.1506073 -2.101588e+38
3.6645815 -1.3540506 1.1506073 -2.1148795e+38
3.6645665 -1.3606697 1.1506073 -2.1414651e+38
3.6645513 -1.3672888 1.1506073 -2.1682064e+38
3.664536 -1.3739078 1.1506073 -2.2081883e+38
3.5955803 -1.3545432 1.1523817 -2.2615664e+38
3.5955656 -1.3610308 1.1523817 -2.3015478e+38
3.5955505 -1.3675184 1.1523817 -2.3549255e+38
3.5625644 -1.3613905 1.1532302 -2.3950617e+38
3.595521 -1.3804935 1.1523817 -2.39475e+38
3.595506 -1.3869811 1.1523817 -2.3940807e+38
3.5954912 -1.3934689 1.1523817 -2.7159047e+38
3.5954764 -1.3999565 1.1523817 -3.0244393e+38
3.5954614 -1.4064441 1.1523817 nan
3.5954466 -1.4129317 1.1523817 nan
3.5624614 -1.4063637 1.1532302 nan
3.7002256 -1.0727935 1.1430216 -2.1562698e+38
3.7002103 -1.0794792 1.1430216 -2.5282965e+38
3.6652181 -1.0760514 1.1439883 -2.4882626e+38
3.6302261 -1.0724903 1.1449549 -2.435041e+38
3.6302111 -1.0790427 1.1449549 -2.4216441e+38
3.6301961 -1.0855951 1.1449549 -2.3950595e+38
3.6301811 -1.0921475 1.1449549 -2.3817153e+38
3.6301661 -1.0986998 1.1449549 -2.3684226e+38
3.630151 -1.1052521 1.1449549 -2.3684222e+38
3.665112 -1.1223845 1.1439883 -2.3551299e+38
3.630121 -1.1183568 1.1449549 -2.3551301e+38
3.630106 -1.1249093 1.1449549 -2.3551305e+38
3.630091 -1.1314616 1.1449549 -2.355079e+38
3.6300759 -1.138014 1.1449549 -2.3418389e+38
3.6300611 -1.1445664 1.1449549 -2.3418393e+38
3.6650212 -1.1620988 1.1439883 -2.3285991e+38
3.6300311 -1.1576711 1.1449549 -2.355236e+38
3.6300161 -1.1642234 1.1449549 -2.3817674e+38
3.6300011 -1.1707758 1.1449549 -2.2485319e+38
3.629986 -1.1773282 1.1449549 -2.1015406e+38
3.5959964 -1.1728903 1.1458941 -2.5928905e+38
3.6649301 -1.201813 1.1439883 -3.0892375e+38
3.6649151 -1.208432 1.1439883 nan
3.6997051 -1.3001072 1.1430216 -2.10164e+38
3.6996899 -1.306793 1.1430216 -2.4074155e+38
3.6996746 -1.3134786 1.1430216 -2.327819e+38
3.6996591 -1.3201643 1.1430216 -2.247753e+38
3.6996439 -1.3268501 1.1430216 -2.2343563e+38
3.6996286 -1.3335357 1.1430216 -2.2079269e+38
3.6996133 -1.3402214 1.1430216 -2.1546535e+38
3.6995981 -1.3469071 1.1430216 -2.1016404e+38
3.6646118 -1.3408126 1.1439883 -2.1150365e+38
3.6645968 -1.3474317 1.1439883 -2.1150363e+38
3.6645815 -1.3540506 1.1439883 -2.1416206e+38
3.6645665 -1.3606697 1.1439883 -2.1682579e+38
3.6645513 -1.3672888 1.1439883 -2.2082912e+38
3.629566 -1.3607944 1.1449549 -2.2348769e+38
3.5955803 -1.3545432 1.1458941 -2.288203e+38
3.5625939 -1.3485409 1.1468054 -2.3282363e+38
3.5625792 -1.3549657 1.1468054 -2.3550293e+38
3.5625644 -1.3613905 1.1468054 -2.3817699e+38
3.595521 -1.3804935 1.1458941 -2.3019647e+38
3.595506 -1.3869811 1.1458941 -2.2096499e+38
3.6294608 -1.4066609 1.1449549 -2.503746e+38
3.5954764 -1.3999565 1.1458941 -2.7969601e+38
3.5954614 -1.4064441 1.1458941 -3.0892917e+38
3.5954466 -1.4129317 1.1458941 -3.3689977e+38
3.7002411 -1.0661079 1.1363358 -1.7413493e+38
3.7002256 -1.0727935 1.1363358 -2.1023738e+38
3.6652334 -1.0694324 1.1373693 -2.4751273e+38
3.6302412 -1.065938 1.1384026 -2.4351452e+38
3.6652031 -1.0826705 1.1373693 -2.4084562e+38
3.6651878 -1.0892894 1.1373693 -2.3951112e+38
3.6301961 -1.0855951 1.1384026 -2.3817672e+38
3.6301811 -1.0921475 1.1384026 -2.3684749e+38
3.6301661 -1.0986998 1.1384026 -2.3551825e+38
3.630151 -1.1052521 1.1384026 -2.355182e+38
3.630136 -1.1118045 1.1384026 -2.3551303e+38
3.630121 -1.1183568 1.1384026 -2.3551303e+38
3.6650817 -1.1356227 1.1373693 -2.3551309e+38
3.630091 -1.1314616 1.1384026 -2.3550794e+38
3.6650515 -1.1488607 1.1373693 -2.3550798e+38
3.6300611 -1.1445664 1.1384026 -2.3551319e+38
3.6300461 -1.1511186 1.1384026 -2.3551841e+38
3.6300311 -1.1576711 1.1384026 -2.3818208e+38
3.6300161 -1.1642234 1.1384026 -2.4084542e+38
3.6300011 -1.1707758 1.1384026 -2.2344571e+38
3.629986 -1.1773282 1.1384026 -2.0605263e+38
3.629971 -1.1838806 1.1384026 -2.8490395e+38
3.6649301 -1.201813 1.1373693 nan
3.6998889 -1.2198789 1.1363358 nan
3.6997051 -1.3001072 1.1363358 -2.0743232e+38
3.6996899 -1.306793 1.1363358 -2.4070488e+38
3.6996746 -1.3134786 1.1363358 -2.3274542e+38
3.6996591 -1.3201643 1.1363358 -2.2474926e+38
3.6996439 -1.3268501 1.1363358 -2.2078752e+38
3.6996286 -1.3335357 1.1363358 -2.1681018e+38
3.6996133 -1.3402214 1.1363358 -2.1281724e+38
3.6646271 -1.3341936 1.1373693 -2.1016919e+38
3.6995826 -1.3535929 1.1363358 -2.1150363e+38
3.6645968 -1.3474317 1.1373693 -2.1283809e+38
3.6645815 -1.3540506 1.1373693 -2.1550176e+38
3.6645665 -1.3606697 1.1373693 -2.1949467e+38
3.6645513 -1.3672888 1.1373693 -2.2481682e+38
3.664536 -1.3739078 1.1373693 -2.2880463e+38
3.5955803 -1.3545432 1.1394064 -2.3280799e+38
3.5955656 -1.3610308 1.1394064 -2.3681652e+38
3.5955505 -1.3675184 1.1394064 -2.39501e+38
3.5625644 -1.3613905 1.1403806 -2.4218031e+38
3.595521 -1.3804935 1.1394064 -2.3423096e+38
3.595506 -1.3869811 1.1394064 -2.276838e+38
3.6294608 -1.4066609 1.1384026 -2.7964342e+38
3.5954764 -1.3999565 1.1394064 -3.3014392e+38
3.6294308 -1.4197657 1.1384026 nan
3.6294158 -1.4263179 1.1384026 nan
3.7002411 -1.0661079 1.1296502 -1.7024584e+38
3.7002256 -1.0727935 1.1296502 -2.0632754e+38
3.7002103 -1.0794792 1.1296502 -2.4086657e+38
3.6652181 -1.0760514 1.1307502 -2.3952167e+38
3.6652031 -1.0826705 1.1307502 -2.3685798e+38
3.6651878 -1.0892894 1.1307502 -2.3685277e+38
3.6301961 -1.0855951 1.1318502 -2.3551833e+38
3.6301811 -1.0921475 1.1318502 -2.341891e+38
3.6301661 -1.0986998 1.1318502 -2.3285985e+38
3.630151 -1.1052521 1.1318502 -2.3418906e+38
3.630136 -1.1118045 1.1318502 -2.3551307e+38
3.630121 -1.1183568 1.1318502 -2.3551307e+38
3.630106 -1.1249093 1.1318502 -2.3551307e+38
3.630091 -1.1314616 1.1318502 -2.355079e+38
3.6650515 -1.1488607 1.1307502 -2.3551313e+38
3.6300611 -1.1445664 1.1318502 -2.368424e+38
3.6650212 -1.1620988 1.1307502 -2.3684766e+38
3.6300311 -1.1576711 1.1318502 -2.3950617e+38
3.6649909 -1.1753368 1.1307502 -2.4211772e+38
3.6649756 -1.1819559 1.1307502 -2.2202856e+38
3.6649606 -1.1885749 1.1307502 -2.0235093e+38
3.629971 -1.1838806 1.1318502 -3.1187841e+38
3.6649301 -1.201813 1.1307502 nan
3.6998889 -1.2198789 1.1296502 nan
3.7356765 -1.3127038 1.1285188 -2.06062e+38
3.6996899 -1.306793 1.1296502 -2.3936549e+38
3.6996746 -1.3134786 1.1296502 -2.31411e+38
3.6996591 -1.3201643 1.1296502 -2.2344078e+38
3.6996439 -1.3268501 1.1296502 -2.1814981e+38
3.6996286 -1.3335357 1.1296502 -2.1281728e+38
3.6646421 -1.3275746 1.1307502 -2.1148284e+38
3.6646271 -1.3341936 1.1307502 -2.0883998e+38
3.6995826 -1.3535929 1.1296502 -2.1149846e+38
3.6645968 -1.3474317 1.1307502 -2.1283809e+38
3.6995521 -1.3669642 1.1296502 -2.1816023e+38
3.6645665 -1.3606697 1.1307502 -2.2215317e+38
3.6645513 -1.3672888 1.1307502 -2.2880456e+38
3.664536 -1.3739078 1.1307502 -2.3412158e+38
3.6295509 -1.3673468 1.1318502 -2.3810936e+38
3.5955656 -1.3610308 1.1329187 -2.4080942e+38
3.5955505 -1.3675184 1.1329187 -2.4349909e+38
3.5955358 -1.374006 1.1329187 -2.4483876e+38
3.6294909 -1.3935561 1.1318502 -2.395271e+38
3.6294758 -1.4001086 1.1318502 -2.3435602e+38
3.6294608 -1.4066609 1.1318502 -3.0771845e+38
3.6294458 -1.4132134 1.1318502 nan
3.6294308 -1.4197657 1.1318502 nan
3.6294158 -1.4263179 1.1318502 nan
3.7002563 -1.0594221 1.1229645 -2.8609071e+38
3.7002411 -1.0661079 1.1229645 -1.8344462e+38
3.7002256 -1.0727935 1.1229645 -2.1289054e+38
3.7002103 -1.0794792 1.1229645 -2.4086138e+38
3.6652181 -1.0760514 1.1241312 -2.3952688e+38
3.6652031 -1.0826705 1.1241312 -2.3686323e+38
3.6651878 -1.0892894 1.1241312 -2.3552362e+38
3.6301961 -1.0855951 1.1252978 -2.3418918e+38
3.6651576 -1.1025276 1.1241312 -2.3418914e+38
3.6301661 -1.0986998 1.1252978 -2.3418395e+38
3.630151 -1.1052521 1.1252978 -2.3418393e+38
3.630136 -1.1118045 1.1252978 -2.3550794e+38
3.630121 -1.1183568 1.1252978 -2.3551309e+38
3.6650817 -1.1356227 1.1241312 -2.3551307e+38
3.630091 -1.1314616 1.1252978 -2.3551305e+38
3.6650515 -1.1488607 1.1241312 -2.3551311e+38
3.6650362 -1.1554797 1.1241312 -2.3817161e+38
3.6650212 -1.1620988 1.1241312 -2.3950094e+38
3.6650059 -1.1687179 1.1241312 -2.4216469e+38
3.6649909 -1.1753368 1.1241312 -2.448231e+38
3.6649756 -1.1819559 1.1241312 -2.234983e+38
3.6649606 -1.1885749 1.1241312 -2.0368575e+38
3.6649454 -1.1951939 1.1241312 -3.064893e+38
3.6649301 -1.201813 1.1241312 nan
3.7356765 -1.3127038 1.1217644 -2.1011763e+38
3.6996899 -1.306793 1.1229645 -2.3542476e+38
3.6996746 -1.3134786 1.1229645 -2.2744406e+38
3.6996591 -1.3201643 1.1229645 -2.207875e+38
3.6996439 -1.3268501 1.1229645 -2.1681016e+38
3.6996286 -1.3335357 1.1229645 -2.1413093e+38
3.6646421 -1.3275746 1.1241312 -2.1282245e+38
3.6646271 -1.3341936 1.1241312 -2.1283805e+38
3.6646118 -1.3408126 1.1241312 -2.141673e+38
3.6645968 -1.3474317 1.1241312 -2.1683099e+38
3.6645815 -1.3540506 1.1241312 -2.1947908e+38
3.6645665 -1.3606697 1.1241312 -2.2348242e+38
3.629581 -1.354242 1.1252978 -2.2879941e+38
3.629566 -1.3607944 1.1252978 -2.3412162e+38
3.5955803 -1.3545432 1.1264311 -2.3680612e+38
3.5955656 -1.3610308 1.1264311 -2.4082502e+38
3.5955505 -1.3675184 1.1264311 -2.4216986e+38
3.5955358 -1.374006 1.1264311 -2.4351473e+38
3.6294909 -1.3935561 1.1252978 -2.3955305e+38
3.6294758 -1.4001086 1.1252978 -2.3560751e+38
3.6294608 -1.4066609 1.1252978 -2.6899976e+38
3.5954764 -1.3999565 1.1264311 -3.0246411e+38
3.5954614 -1.4064441 1.1264311 -3.0498757e+38
3.7002563 -1.0594221 1.1162788 -2.6718548e+38
3.7002411 -1.0661079 1.1162788 -1.9683032e+38
3.7002256 -1.0727935 1.1162788 -2.1959903e+38
3.7002103 -1.0794792 1.1162788 -2.4085623e+38
3.6652181 -1.0760514 1.1175121 -2.3952175e+38
3.6652031 -1.0826705 1.1175121 -2.3685806e+38
3.6651878 -1.0892894 1.1175121 -2.3419437e+38
3.6651728 -1.0959085 1.1175121 -2.315307e+38
3.6651576 -1.1025276 1.1175121 -2.3418397e+38
3.6651425 -1.1091465 1.1175121 -2.3551835e+38
3.6651273 -1.1157656 1.1175121 -2.3551831e+38
3.630136 -1.1118045 1.1187454 -2.3418387e+38
3.630121 -1.1183568 1.1187454 -2.3550788e+38
3.630106 -1.1249093 1.1187454 -2.3551827e+38
3.6650667 -1.1422417 1.1175121 -2.3551829e+38
3.6650515 -1.1488607 1.1175121 -2.3551833e+38
3.6650362 -1.1554797 1.1175121 -2.3950605e+38
3.6650212 -1.1620988 1.1175121 -2.4216465e+38
3.6650059 -1.1687179 1.1175121 -2.4482323e+38
3.6649909 -1.1753368 1.1175121 -2.4612645e+38
3.6649756 -1.1819559 1.1175121 -2.2612051e+38
3.6649606 -1.1885749 1.1175121 -2.0516558e+38
3.6649454 -1.1951939 1.1175121 -3.0135925e+38
3.6999042 -1.2131932 1.1162788 nan
3.6997204 -1.2934215 1.1162788 -1.9552206e+38
3.7356765 -1.3127038 1.1150101 -2.1286442e+38
3.6996899 -1.306793 1.1162788 -2.3012864e+38
3.6996746 -1.3134786 1.1162788 -2.2348236e+38
3.6996591 -1.3201643 1.1162788 -2.1682579e+38
3.6996439 -1.3268501 1.1162788 -2.1550174e+38
3.6996286 -1.3335357 1.1162788 -2.141621e+38
3.6996133 -1.3402214 1.1162788 -2.154965e+38
3.6646271 -1.3341936 1.1175121 -2.1549653e+38
3.6646118 -1.3408126 1.1175121 -2.1814979e+38
3.6645968 -1.3474317 1.1175121 -2.1947387e+38
3.6645815 -1.3540506 1.1175121 -2.221064e+38
3.6645665 -1.3606697 1.1175121 -2.2480124e+38
3.629581 -1.354242 1.1187454 -2.3011822e+38
3.629566 -1.3607944 1.1187454 -2.3413713e+38
3.5955803 -1.3545432 1.1199435 -2.3681644e+38
3.5955656 -1.3610308 1.1199435 -2.3950096e+38
3.5955505 -1.3675184 1.1199435 -2.4084069e+38
3.5955358 -1.374006 1.1199435 -2.4219596e+38
3.6294909 -1.3935561 1.1187454 -2.3955319e+38
3.6294758 -1.4001086 1.1187454 -2.3690536e+38
3.6294608 -1.4066609 1.1187454 -2.3021273e+38
3.5954764 -1.3999565 1.1199435 -2.2365464e+38
3.5954614 -1.4064441 1.1199435 -2.3415845e+38
3.7002563 -1.0594221 1.109593 -2.7402363e+38
3.7002411 -1.0661079 1.109593 -1.9417704e+38
3.7002256 -1.0727935 1.109593 -2.1689905e+38
3.7002103 -1.0794792 1.109593 -2.3952185e+38
3.6652181 -1.0760514 1.110893 -2.3818739e+38
3.6652031 -1.0826705 1.110893 -2.3685289e+38
3.6651878 -1.0892894 1.110893 -2.3551839e+38
3.6651728 -1.0959085 1.110893 -2.3418397e+38
3.6651576 -1.1025276 1.110893 -2.3418916e+38
3.6651425 -1.1091465 1.110893 -2.341891e+38
3.6651273 -1.1157656 1.110893 -2.3285979e+38
3.665112 -1.1223845 1.110893 -2.3285979e+38
3.665097 -1.1290036 1.110893 -2.3285979e+38
3.6650817 -1.1356227 1.110893 -2.3419425e+38
3.6650667 -1.1422417 1.110893 -2.3418908e+38
3.6650515 -1.1488607 1.110893 -2.3551315e+38
3.6650362 -1.1554797 1.110893 -2.3817684e+38
3.6650212 -1.1620988 1.110893 -2.4084065e+38
3.6650059 -1.1687179 1.110893 -2.4615254e+38
3.6649909 -1.1753368 1.110893 -2.5278827e+38
3.6649756 -1.1819559 1.110893 -2.4483363e+38
3.6649606 -1.1885749 1.110893 -2.370307e+38
3.6649454 -1.1951939 1.110893 -3.1315606e+38
3.6649301 -1.201813 1.110893 nan
3.7357075 -1.2991953 1.1082559 -2.3411655e+38
3.6997204 -1.2934215 1.109593 -2.1151967e+38
3.7356765 -1.3127038 1.1082559 -2.1817618e+38
3.6996899 -1.306793 1.109593 -2.2482215e+38
3.6996746 -1.3134786 1.109593 -2.2082392e+38
3.6996591 -1.3201643 1.109593 -2.155018e+38
3.6996439 -1.3268501 1.109593 -2.1417253e+38
3.6996286 -1.3335357 1.109593 -2.1417251e+38
3.6996133 -1.3402214 1.109593 -2.141673e+38
3.6646271 -1.3341936 1.110893 -2.141673e+38
3.6646118 -1.3408126 1.110893 -2.1682575e+38
3.6645968 -1.3474317 1.110893 -2.1947906e+38
3.6645815 -1.3540506 1.110893 -2.2213755e+38
3.6645665 -1.3606697 1.110893 -2.248168e+38
3.629581 -1.354242 1.1121931 -2.288097e+38
3.629566 -1.3607944 1.1121931 -2.3282342e+38
3.5955803 -1.3545432 1.1134559 -2.3417348e+38
3.5955656 -1.3610308 1.1134559 -2.3685808e+38
3.5955505 -1.3675184 1.1134559 -2.3952189e+38
3.5955358 -1.374006 1.1134559 -2.4221164e+38
3.6294909 -1.3935561 1.1121931 -2.4222217e+38
3.6294758 -1.4001086 1.1121931 -2.4358243e+38
3.6294608 -1.4066609 1.1121931 -2.3952193e+38
3.6294458 -1.4132134 1.1121931 -2.3677997e+38
3.5624909 -1.3935142 1.1146816 -2.4479126e+38
3.7002563 -1.0594221 1.1029073 -2.8183848e+38
3.7002411 -1.0661079 1.1029073 -1.902415e+38
3.7002256 -1.0727935 1.1029073 -2.1428733e+38
3.6652334 -1.0694324 1.104274 -2.3686859e+38
3.6652181 -1.0760514 1.104274 -2.3685816e+38
3.6652031 -1.0826705 1.104274 -2.368581e+38
3.6651878 -1.0892894 1.104274 -2.3684766e+38
3.6651728 -1.0959085 1.104274 -2.3684764e+38
3.6651576 -1.1025276 1.104274 -2.3418916e+38
3.6651425 -1.1091465 1.104274 -2.3153066e+38
3.6651273 -1.1157656 1.104274 -2.3152543e+38
3.665112 -1.1223845 1.104274 -2.3153062e+38
3.665097 -1.1290036 1.104274 -2.3153581e+38
3.6650817 -1.1356227 1.104274 -2.3153066e+38
3.6650667 -1.1422417 1.104274 -2.3418914e+38
3.6650515 -1.1488607 1.104274 -2.3551843e+38
3.6650362 -1.1554797 1.104274 -2.3817175e+38
3.6650212 -1.1620988 1.104274 -2.3950629e+38
3.6650059 -1.1687179 1.104274 -2.4880584e+38
3.6649909 -1.1753368 1.104274 -2.5810001e+38
3.6649756 -1.1819559 1.104274 -2.6339611e+38
3.6649606 -1.1885749 1.104274 -2.6896842e+38
3.6649454 -1.1951939 1.104274 -3.265416e+38
3.6649301 -1.201813 1.104274 nan
3.7357075 -1.2991953 1.1015016 -2.2740786e+38
3.735692 -1.3059496 1.1015016 -2.2745982e+38
3.7356765 -1.3127038 1.1015016 -2.2350335e+38
3.735661 -1.3194581 1.1015016 -2.1950516e+38
3.6996746 -1.3134786 1.1029073 -2.1683622e+38
3.6996591 -1.3201643 1.1029073 -2.1417774e+38
3.6996439 -1.3268501 1.1029073 -2.1417772e+38
3.6996286 -1.3335357 1.1029073 -2.1284328e+38
3.6996133 -1.3402214 1.1029073 -2.1283809e+38
3.6646271 -1.3341936 1.104274 -2.1284328e+38
3.6646118 -1.3408126 1.104274 -2.1549657e+38
3.6645968 -1.3474317 1.104274 -2.1816021e+38
3.6645815 -1.3540506 1.104274 -2.2082388e+38
3.6645665 -1.3606697 1.104274 -2.2349274e+38
3.629581 -1.354242 1.1056406 -2.2748564e+38
3.629566 -1.3607944 1.1056406 -2.3017014e+38
3.5955803 -1.3545432 1.1069683 -2.3152022e+38
3.5955656 -1.3610308 1.1069683 -2.3285997e+38
3.5955505 -1.3675184 1.1069683 -2.3685299e+38
3.5955358 -1.374006 1.1069683 -2.4086676e+38
3.595521 -1.3804935 1.1069683 -2.4487533e+38
3.6294758 -1.4001086 1.1056406 -2.4886291e+38
3.6294608 -1.4066609 1.1056406 -2.4884724e+38
3.6294458 -1.4132134 1.1056406 -2.4882101e+38
3.6294308 -1.4197657 1.1056406 -2.5414287e+38
3.7002563 -1.0594221 1.0962217 -2.7544202e+38
3.7002411 -1.0661079 1.0962217 -2.022567e+38
3.7002256 -1.0727935 1.0962217 -2.1958347e+38
3.6652334 -1.0694324 1.0976549 -2.3687378e+38
3.6652181 -1.0760514 1.0976549 -2.3686853e+38
3.6652031 -1.0826705 1.0976549 -2.3686331e+38
3.6651878 -1.0892894 1.0976549 -2.3685808e+38
3.6651728 -1.0959085 1.0976549 -2.3552362e+38
3.6651576 -1.1025276 1.0976549 -2.3418916e+38
3.6651425 -1.1091465 1.0976549 -2.3418916e+38
3.6651273 -1.1157656 1.0976549 -2.3285991e+38
3.665112 -1.1223845 1.0976549 -2.328651e+38
3.665097 -1.1290036 1.0976549 -2.3285991e+38
3.6650817 -1.1356227 1.0976549 -2.3418399e+38
3.6650667 -1.1422417 1.0976549 -2.341892e+38
3.6650515 -1.1488607 1.0976549 -2.3418928e+38
3.6650362 -1.1554797 1.0976549 -2.3552376e+38
3.6650212 -1.1620988 1.0976549 -2.3818751e+38
3.6650059 -1.1687179 1.0976549 -2.461526e+38
3.6649909 -1.1753368 1.0976549 -2.5545196e+38
3.6649756 -1.1819559 1.0976549 -2.6211362e+38
3.6649606 -1.1885749 1.0976549 -2.7016774e+38
3.6649454 -1.1951939 1.0976549 -3.050245e+38
3.6999042 -1.2131932 1.0962217 nan
3.7357075 -1.2991953 1.0947473 -2.3676932e+38
3.735692 -1.3059496 1.0947473 -2.1816023e+38
3.7356765 -1.3127038 1.0947473 -2.1951553e+38
3.735661 -1.3194581 1.0947473 -2.1951029e+38
3.6996746 -1.3134786 1.0962217 -2.1684658e+38
3.6996591 -1.3201643 1.0962217 -2.1418813e+38
3.6996439 -1.3268501 1.0962217 -2.1417772e+38
3.6996286 -1.3335357 1.0962217 -2.1417253e+38
3.6996133 -1.3402214 1.0962217 -2.1417251e+38
3.6646271 -1.3341936 1.0976549 -2.1417772e+38
3.6646118 -1.3408126 1.0976549 -2.168362e+38
3.6645968 -1.3474317 1.0976549 -2.1950502e+38
3.6645815 -1.3540506 1.0976549 -2.2083423e+38
3.6645665 -1.3606697 1.0976549 -2.234979e+38
3.629581 -1.354242 1.0990883 -2.2616676e+38
3.629566 -1.3607944 1.0990883 -2.3017531e+38
3.5955803 -1.3545432 1.1004807 -2.3151502e+38
3.5955656 -1.3610308 1.1004807 -2.3418397e+38
3.5955505 -1.3675184 1.1004807 -2.3817694e+38
3.5955358 -1.374006 1.1004807 -2.4084589e+38
3.6294909 -1.3935561 1.0990883 -2.4484925e+38
3.6294758 -1.4001086 1.0990883 -2.4751801e+38
3.6294608 -1.4066609 1.0990883 -2.4885235e+38
3.6294458 -1.4132134 1.0990883 -2.4885748e+38
3.6294308 -1.4197657 1.0990883 -2.5415354e+38
3.7002563 -1.0594221 1.089536 -2.7000576e+38
3.7002411 -1.0661079 1.089536 -2.1290092e+38
3.7002256 -1.0727935 1.089536 -2.2491596e+38
3.6652334 -1.0694324 1.0910358 -2.3554453e+38
3.6652181 -1.0760514 1.0910358 -2.3686853e+38
3.6652031 -1.0826705 1.0910358 -2.3687366e+38
3.6651878 -1.0892894 1.0910358 -2.355392e+38
3.6651728 -1.0959085 1.0910358 -2.3419954e+38
3.6651576 -1.1025276 1.0910358 -2.3551835e+38
3.6651425 -1.1091465 1.0910358 -2.3551835e+38
3.6651273 -1.1157656 1.0910358 -2.3551317e+38
3.665112 -1.1223845 1.0910358 -2.3418912e+38
3.665097 -1.1290036 1.0910358 -2.3551313e+38
3.6650817 -1.1356227 1.0910358 -2.3551315e+38
3.6650667 -1.1422417 1.0910358 -2.3418395e+38
3.6650515 -1.1488607 1.0910358 -2.3153076e+38
3.6650362 -1.1554797 1.0910358 -2.3419451e+38
3.6650212 -1.1620988 1.0910358 -2.3552386e+38
3.6650059 -1.1687179 1.0910358 -2.4348897e+38
3.6649909 -1.1753368 1.0910358 -2.5146442e+38
3.6649756 -1.1819559 1.0910358 -2.6076909e+38
3.6649606 -1.1885749 1.0910358 -2.7022451e+38
3.6649454 -1.1951939 1.0910358 -2.8499165e+38
3.6999042 -1.2131932 1.089536 -2.9833064e+38
3.6997356 -1.2867358 1.089536 -2.4605313e+38
3.6997204 -1.2934215 1.089536 -2.088712e+38
3.7356765 -1.3127038 1.087993 -2.1421936e+38
3.6996899 -1.306793 1.089536 -2.1952066e+38
3.6996746 -1.3134786 1.089536 -2.1685178e+38
3.6996591 -1.3201643 1.089536 -2.1417772e+38
3.6996439 -1.3268501 1.089536 -2.1417251e+38
3.6996286 -1.3335357 1.089536 -2.1417251e+38
3.6996133 -1.3402214 1.089536 -2.1550695e+38
3.6646271 -1.3341936 1.0910358 -2.1551216e+38
3.6646118 -1.3408126 1.0910358 -2.1817062e+38
3.6645968 -1.3474317 1.0910358 -2.1950504e+38
3.6645815 -1.3540506 1.0910358 -2.2215832e+38
3.6295958 -1.3476896 1.0925359 -2.2349796e+38
3.629581 -1.354242 1.0925359 -2.2616682e+38
3.629566 -1.3607944 1.0925359 -2.2884091e+38
3.5955803 -1.3545432 1.0939931 -2.3283906e+38
3.5955656 -1.3610308 1.0939931 -2.35508e+38
3.5955505 -1.3675184 1.0939931 -2.3816135e+38
3.5955358 -1.374006 1.0939931 -2.4083542e+38
3.6294909 -1.3935561 1.0925359 -2.4350432e+38
3.6294758 -1.4001086 1.0925359 -2.4618351e+38
3.6294608 -1.4066609 1.0925359 -2.4752308e+38
3.6294458 -1.4132134 1.0925359 -2.4884188e+38
3.6643996 -1.4334791 1.0910358 -2.5414318e+38
3.7002563 -1.0594221 1.0828502 -2.6881162e+38
3.7002411 -1.0661079 1.0828502 -2.3283938e+38
3.7002256 -1.0727935 1.0828502 -2.3553419e+38
3.6652334 -1.0694324 1.0844169 -2.3819779e+38
3.6652181 -1.0760514 1.0844169 -2.3554968e+38
3.6652031 -1.0826705 1.0844169 -2.3422557e+38
3.6651878 -1.0892894 1.0844169 -2.342151e+38
3.6651728 -1.0959085 1.0844169 -2.3420989e+38
3.6651576 -1.1025276 1.0844169 -2.3419427e+38
3.6651425 -1.1091465 1.0844169 -2.3551833e+38
3.6651273 -1.1157656 1.0844169 -2.3551315e+38
3.665112 -1.1223845 1.0844169 -2.3684236e+38
3.665097 -1.1290036 1.0844169 -2.3684232e+38
3.6650817 -1.1356227 1.0844169 -2.3684234e+38
3.6650667 -1.1422417 1.0844169 -2.3418908e+38
3.6650515 -1.1488607 1.0844169 -2.3286514e+38
3.6650362 -1.1554797 1.0844169 -2.3419447e+38
3.6650212 -1.1620988 1.0844169 -2.3552906e+38
3.6650059 -1.1687179 1.0844169 -2.4083572e+38
3.6649909 -1.1753368 1.0844169 -2.4614767e+38
3.6649756 -1.1819559 1.0844169 -2.4222769e+38
3.6649606 -1.1885749 1.0844169 -2.3837462e+38
3.6649454 -1.1951939 1.0844169 -2.5434052e+38
3.6649301 -1.201813 1.0844169 -2.7024011e+38
3.6997356 -1.2867358 1.0828502 -2.4477579e+38
3.6997204 -1.2934215 1.0828502 -2.1420886e+38
3.6997051 -1.3001072 1.0828502 -2.1687261e+38
3.6996899 -1.306793 1.0828502 -2.2085506e+38
3.6996746 -1.3134786 1.0828502 -2.181706e+38
3.6996591 -1.3201643 1.0828502 -2.1548097e+38
3.6996439 -1.3268501 1.0828502 -2.155017e+38
3.6996286 -1.3335357 1.0828502 -2.1550174e+38
3.6996133 -1.3402214 1.0828502 -2.168362e+38
3.6646271 -1.3341936 1.0844169 -2.1817062e+38
3.6646118 -1.3408126 1.0844169 -2.1949985e+38
3.6645968 -1.3474317 1.0844169 -2.2083431e+38
3.6645815 -1.3540506 1.0844169 -2.2216356e+38
3.6295958 -1.3476896 1.0859835 -2.2350319e+38
3.629581 -1.354242 1.0859835 -2.2617205e+38
3.629566 -1.3607944 1.0859835 -2.2884095e+38
3.5955803 -1.3545432 1.0875055 -2.3151502e+38
3.5955656 -1.3610308 1.0875055 -2.3550798e+38
3.5625792 -1.3549657 1.0889826 -2.3816652e+38
3.5955358 -1.374006 1.0875055 -2.4216459e+38
3.595521 -1.3804935 1.0875055 -2.448386e+38
3.6294758 -1.4001086 1.0859835 -2.4883669e+38
3.6294608 -1.4066609 1.0859835 -2.5017111e+38
3.6294458 -1.4132134 1.0859835 -2.5281918e+38
3.6294308 -1.4197657 1.0859835 -2.5548281e+38
3.7002563 -1.0594221 1.0761645 -2.6877525e+38
3.7002411 -1.0661079 1.0761645 -2.5149007e+38
3.7002256 -1.0727935 1.0761645 -2.4618874e+38
3.6652334 -1.0694324 1.0777978 -2.3953735e+38
3.6652181 -1.0760514 1.0777978 -2.3555997e+38
3.6652031 -1.0826705 1.0777978 -2.3155666e+38
3.6651878 -1.0892894 1.0777978 -2.3288064e+38
3.6651728 -1.0959085 1.0777978 -2.3286504e+38
3.6651576 -1.1025276 1.0777978 -2.3418385e+38
3.6651425 -1.1091465 1.0777978 -2.3551309e+38
3.6651273 -1.1157656 1.0777978 -2.3684232e+38
3.665112 -1.1223845 1.0777978 -2.3817155e+38
3.665097 -1.1290036 1.0777978 -2.3817676e+38
3.6650817 -1.1356227 1.0777978 -2.3684755e+38
3.6650667 -1.1422417 1.0777978 -2.3551837e+38
3.6650515 -1.1488607 1.0777978 -2.3286516e+38
3.6650362 -1.1554797 1.0777978 -2.3418928e+38
3.6650212 -1.1620988 1.0777978 -2.3419983e+38
3.6650059 -1.1687179 1.0777978 -2.3684808e+38
3.6649909 -1.1753368 1.0777978 -2.3952222e+38
3.6999502 -1.1931361 1.0761645 -2.2361314e+38
3.6999347 -1.1998217 1.0761645 -2.0640599e+38
3.6999195 -1.2065074 1.0761645 -2.250828e+38
3.6999042 -1.2131932 1.0761645 -2.4240459e+38
3.6997511 -1.2800502 1.0761645 -2.6884784e+38
3.6997356 -1.2867358 1.0761645 -2.4467186e+38
3.6997204 -1.2934215 1.0761645 -2.1948936e+38
3.6997051 -1.3001072 1.0761645 -2.2087067e+38
3.6996899 -1.306793 1.0761645 -2.2084986e+38
3.6996746 -1.3134786 1.0761645 -2.181706e+38
3.6996591 -1.3201643 1.0761645 -2.1550695e+38
3.6996439 -1.3268501 1.0761645 -2.1684135e+38
3.6996286 -1.3335357 1.0761645 -2.168362e+38
3.6996133 -1.3402214 1.0761645 -2.1816547e+38
3.6646271 -1.3341936 1.0777978 -2.195051e+38
3.6646118 -1.3408126 1.0777978 -2.2082916e+38
3.6645968 -1.3474317 1.0777978 -2.2083439e+38
3.6645815 -1.3540506 1.0777978 -2.2216364e+38
3.6295958 -1.3476896 1.0794312 -2.2350323e+38
3.629581 -1.354242 1.0794312 -2.2617207e+38
3.629566 -1.3607944 1.0794312 -2.2751692e+38
3.5955803 -1.3545432 1.0810179 -2.3152022e+38
3.5955656 -1.3610308 1.0810179 -2.3550798e+38
3.5625792 -1.3549657 1.0825578 -2.3949055e+38
3.5955358 -1.374006 1.0810179 -2.4217493e+38
3.595521 -1.3804935 1.0810179 -2.4617815e+38
3.595506 -1.3869811 1.0810179 -2.5016058e+38
3.5954912 -1.3934689 1.0810179 -2.541534e+38
3.5954764 -1.3999565 1.0810179 -2.5679107e+38
3.5954614 -1.4064441 1.0810179 -2.5681183e+38
3.6652789 -1.0495753 1.0711788 -2.6216022e+38
3.7002411 -1.0661079 1.0694788 -2.5150563e+38
3.7002256 -1.0727935 1.0694788 -2.4618351e+38
3.6652334 -1.0694324 1.0711788 -2.4219053e+38
3.6652181 -1.0760514 1.0711788 -2.3820274e+38
3.6652031 -1.0826705 1.0711788 -2.3419946e+38
3.6651878 -1.0892894 1.0711788 -2.3419425e+38
3.6651728 -1.0959085 1.0711788 -2.3284423e+38
3.6651576 -1.1025276 1.0711788 -2.341838e+38
3.6651425 -1.1091465 1.0711788 -2.341838e+38
3.6651273 -1.1157656 1.0711788 -2.3551303e+38
3.665112 -1.1223845 1.0711788 -2.3817153e+38
3.665097 -1.1290036 1.0711788 -2.3684234e+38
3.6650817 -1.1356227 1.0711788 -2.3551317e+38
3.6650667 -1.1422417 1.0711788 -2.3419437e+38
3.6650515 -1.1488607 1.0711788 -2.328704e+38
3.6650362 -1.1554797 1.0711788 -2.3419967e+38
3.6650212 -1.1620988 1.0711788 -2.3687388e+38
3.6650059 -1.1687179 1.0711788 -2.3952213e+38
3.6649909 -1.1753368 1.0711788 -2.4350984e+38
3.6649756 -1.1819559 1.0711788 -2.3284486e+38
3.6999347 -1.1998217 1.0694788 -2.2096554e+38
3.6999195 -1.2065074 1.0694788 -2.8240144e+38
3.6999042 -1.2131932 1.0694788 nan
3.6997511 -1.2800502 1.0694788 -3.1549574e+38
3.6997356 -1.2867358 1.0694788 -2.5805231e+38
3.6997204 -1.2934215 1.0694788 -1.9953532e+38
3.6997051 -1.3001072 1.0694788 -2.1154531e+38
3.6996899 -1.306793 1.0694788 -2.221739e+38
3.6996746 -1.3134786 1.0694788 -2.1950502e+38
3.6996591 -1.3201643 1.0694788 -2.1684139e+38
3.6996439 -1.3268501 1.0694788 -2.1684139e+38
3.6996286 -1.3335357 1.0694788 -2.155122e+38
3.6996133 -1.3402214 1.0694788 -2.1684664e+38
3.6646271 -1.3341936 1.0711788 -2.1818632e+38
3.6646118 -1.3408126 1.0711788 -2.195052e+38
3.6645968 -1.3474317 1.0711788 -2.2083966e+38
3.6645815 -1.3540506 1.0711788 -2.2216891e+38
3.6645665 -1.3606697 1.0711788 -2.2350329e+38
3.629581 -1.354242 1.0728787 -2.2485323e+38
3.629566 -1.3607944 1.0728787 -2.2619807e+38
3.5955803 -1.3545432 1.0745301 -2.3019097e+38
3.5955656 -1.3610308 1.0745301 -2.3418912e+38
3.5955505 -1.3675184 1.0745301 -2.3552362e+38
3.5955358 -1.374006 1.0745301 -2.3687356e+38
3.595521 -1.3804935 1.0745301 -2.382027e+38
3.595506 -1.3869811 1.0745301 -2.4083508e+38
3.5954912 -1.3934689 1.0745301 -2.2748037e+38
3.5625057 -1.3870894 1.076133 -2.1418807e+38
3.5954614 -1.4064441 1.0745301 -2.1283286e+38
3.6652939 -1.0429562 1.0645597 -2.5950678e+38
3.6652789 -1.0495753 1.0645597 -2.5550366e+38
3.6652637 -1.0561943 1.0645597 -2.5017632e+38
3.7002256 -1.0727935 1.062793 -2.4751265e+38
3.7002103 -1.0794792 1.062793 -2.4484371e+38
3.6652181 -1.0760514 1.0645597 -2.4085073e+38
3.6652031 -1.0826705 1.0645597 -2.3685782e+38
3.6651878 -1.0892894 1.0645597 -2.3551816e+38
3.6651728 -1.0959085 1.0645597 -2.3285973e+38
3.6651576 -1.1025276 1.0645597 -2.3285973e+38
3.6651425 -1.1091465 1.0645597 -2.3285977e+38
3.6651273 -1.1157656 1.0645597 -2.3551827e+38
3.665112 -1.1223845 1.0645597 -2.3684755e+38
3.665097 -1.1290036 1.0645597 -2.3551317e+38
3.6650817 -1.1356227 1.0645597 -2.3285995e+38
3.6650667 -1.1422417 1.0645597 -2.3287038e+38
3.6650515 -1.1488607 1.0645597 -2.3154121e+38
3.6650362 -1.1554797 1.0645597 -2.3552374e+38
3.6650212 -1.1620988 1.0645597 -2.3819272e+38
3.6650059 -1.1687179 1.0645597 -2.4350457e+38
3.6649909 -1.1753368 1.0645597 -2.4742962e+38
3.6999502 -1.1931361 1.062793 -2.419514e+38
3.6999347 -1.1998217 1.062793 -2.3568036e+38
3.6999195 -1.2065074 1.062793 nan
3.6999042 -1.2131932 1.062793 nan
3.6997511 -1.2800502 1.062793 nan
3.6997356 -1.2867358 1.062793 -2.711835e+38
3.6997204 -1.2934215 1.062793 -1.7955005e+38
3.6997051 -1.3001072 1.062793 -2.0226138e+38
3.6996899 -1.306793 1.062793 -2.2349266e+38
3.6996746 -1.3134786 1.062793 -2.2083419e+38
3.6996591 -1.3201643 1.062793 -2.1817058e+38
3.6996439 -1.3268501 1.062793 -2.1684139e+38
3.6996286 -1.3335357 1.062793 -2.1418296e+38
3.6996133 -1.3402214 1.062793 -2.1551218e+38
3.6646271 -1.3341936 1.0645597 -2.1684668e+38
3.6646118 -1.3408126 1.0645597 -2.1949482e+38
3.6645968 -1.3474317 1.0645597 -2.2082926e+38
3.6645815 -1.3540506 1.0645597 -2.2215851e+38
3.6645665 -1.3606697 1.0645597 -2.2217408e+38
3.6645513 -1.3672888 1.0645597 -2.2352927e+38
3.664536 -1.3739078 1.0645597 -2.2486373e+38
3.5955803 -1.3545432 1.0680425 -2.2885665e+38
3.5955656 -1.3610308 1.0680425 -2.3153074e+38
3.5955505 -1.3675184 1.0680425 -2.3153602e+38
3.5955358 -1.374006 1.0680425 -2.3017056e+38
3.595521 -1.3804935 1.0680425 -2.3157263e+38
3.595506 -1.3869811 1.0680425 -2.3154675e+38
3.5625203 -1.3806647 1.0697083 -2.0075131e+38
3.5625057 -1.3870894 1.0697083 -1.7033983e+38
3.6294308 -1.4197657 1.0663264 -1.7014232e+38
3.7002716 -1.0527364 1.0561073 -2.5548255e+38
3.7002563 -1.0594221 1.0561073 -2.5416918e+38
3.7002411 -1.0661079 1.0561073 -2.5282953e+38
3.7002256 -1.0727935 1.0561073 -2.4883661e+38
3.7002103 -1.0794792 1.0561073 -2.4616767e+38
3.6652181 -1.0760514 1.0579407 -2.4084544e+38
3.6652031 -1.0826705 1.0579407 -2.3685252e+38
3.6651878 -1.0892894 1.0579407 -2.3552843e+38
3.6651728 -1.0959085 1.0579407 -2.3420445e+38
3.6651576 -1.1025276 1.0579407 -2.3287007e+38
3.6651425 -1.1091465 1.0579407 -2.3286496e+38
3.6651273 -1.1157656 1.0579407 -2.3418908e+38
3.665112 -1.1223845 1.0579407 -2.3551837e+38
3.665097 -1.1290036 1.0579407 -2.341892e+38
3.6650817 -1.1356227 1.0579407 -2.3286001e+38
3.6650667 -1.1422417 1.0579407 -2.3287042e+38
3.6650515 -1.1488607 1.0579407 -2.3287567e+38
3.6650362 -1.1554797 1.0579407 -2.3420494e+38
3.6650212 -1.1620988 1.0579407 -2.3686348e+38
3.6650059 -1.1687179 1.0579407 -2.3552394e+38
3.6649909 -1.1753368 1.0579407 -2.3417328e+38
3.6649756 -1.1819559 1.0579407 -2.4072007e+38
3.6999347 -1.1998217 1.0561073 -2.474875e+38
3.6649454 -1.1951939 1.0579407 nan
3.6649301 -1.201813 1.0579407 nan
3.6997511 -1.2800502 1.0561073 -3.3818078e+38
3.6997356 -1.2867358 1.0561073 -2.5935531e+38
3.6997204 -1.2934215 1.0561073 -1.8079608e+38
3.6997051 -1.3001072 1.0561073 -2.0484183e+38
3.6996899 -1.306793 1.0561073 -2.2742832e+38
3.6996746 -1.3134786 1.0561073 -2.2347179e+38
3.6996591 -1.3201643 1.0561073 -2.2081861e+38
3.6996439 -1.3268501 1.0561073 -2.1817062e+38
3.6996286 -1.3335357 1.0561073 -2.1551216e+38
3.6996133 -1.3402214 1.0561073 -2.1551214e+38
3.6646271 -1.3341936 1.0579407 -2.1551224e+38
3.6646118 -1.3408126 1.0579407 -2.1683636e+38
3.6645968 -1.3474317 1.0579407 -2.1817078e+38
3.6645815 -1.3540506 1.0579407 -2.195052e+38
3.6645665 -1.3606697 1.0579407 -2.2216891e+38
3.6645513 -1.3672888 1.0579407 -2.2484818e+38
3.664536 -1.3739078 1.0579407 -2.2619304e+38
3.5955803 -1.3545432 1.0615549 -2.2886192e+38
3.5955656 -1.3610308 1.0615549 -2.3287044e+38
3.5955505 -1.3675184 1.0615549 -2.2614647e+38
3.5955358 -1.374006 1.0615549 -2.1936568e+38
3.595521 -1.3804935 1.0615549 -2.7021419e+38
3.595506 -1.3869811 1.0615549 -3.208134e+38
3.5625203 -1.3806647 1.0632836 -3.195779e+38
3.5625057 -1.3870894 1.0632836 -3.1958271e+38
3.7002716 -1.0527364 1.0494215 -2.5151062e+38
3.7002563 -1.0594221 1.0494215 -2.541952e+38
3.7002411 -1.0661079 1.0494215 -2.5549323e+38
3.7002256 -1.0727935 1.0494215 -2.5148995e+38
3.7002103 -1.0794792 1.0494215 -2.4616775e+38
3.6652181 -1.0760514 1.0513216 -2.421696e+38
3.6652031 -1.0826705 1.0513216 -2.3685784e+38
3.6651878 -1.0892894 1.0513216 -2.3553378e+38
3.6651728 -1.0959085 1.0513216 -2.3420455e+38
3.6651576 -1.1025276 1.0513216 -2.3419936e+38
3.6651425 -1.1091465 1.0513216 -2.3286502e+38
3.6651273 -1.1157656 1.0513216 -2.3418916e+38
3.665112 -1.1223845 1.0513216 -2.3419439e+38
3.665097 -1.1290036 1.0513216 -2.3419443e+38
3.6650817 -1.1356227 1.0513216 -2.3286522e+38
3.6650667 -1.1422417 1.0513216 -2.3287044e+38
3.6650515 -1.1488607 1.0513216 -2.3288084e+38
3.6650362 -1.1554797 1.0513216 -2.342153e+38
3.6650212 -1.1620988 1.0513216 -2.3421532e+38
3.6650059 -1.1687179 1.0513216 -2.2755363e+38
3.6649909 -1.1753368 1.0513216 -2.2079299e+38
3.6649756 -1.1819559 1.0513216 -2.4059615e+38
3.6999347 -1.1998217 1.0494215 -2.5965356e+38
3.6649454 -1.1951939 1.0513216 nan
3.6649301 -1.201813 1.0513216 nan
3.6997511 -1.2800502 1.0494215 -3.1403626e+38
3.6997356 -1.2867358 1.0494215 -2.4858647e+38
3.6997204 -1.2934215 1.0494215 -1.8218762e+38
3.6997051 -1.3001072 1.0494215 -2.0754185e+38
3.6996899 -1.306793 1.0494215 -2.3145237e+38
3.6996746 -1.3134786 1.0494215 -2.2746469e+38
3.6996591 -1.3201643 1.0494215 -2.2215301e+38
3.6996439 -1.3268501 1.0494215 -2.1949981e+38
3.6646574 -1.3209555 1.0513216 -2.1683616e+38
3.6646421 -1.3275746 1.0513216 -2.1550695e+38
3.6646271 -1.3341936 1.0513216 -2.1284334e+38
3.6646118 -1.3408126 1.0513216 -2.1417261e+38
3.6645968 -1.3474317 1.0513216 -2.1417782e+38
3.6645815 -1.3540506 1.0513216 -2.1817072e+38
3.6295958 -1.3476896 1.0532216 -2.2217404e+38
3.629581 -1.354242 1.0532216 -2.2484296e+38
3.629566 -1.3607944 1.0532216 -2.275171e+38
3.5955803 -1.3545432 1.0550673 -2.3018604e+38
3.5955656 -1.3610308 1.0550673 -2.3283922e+38
3.5955505 -1.3675184 1.0550673 -2.2080342e+38
3.5955358 -1.374006 1.0550673 -2.0895015e+38
3.595521 -1.3804935 1.0550673 -3.0909995e+38
3.595506 -1.3869811 1.0550673 nan
3.5625203 -1.3806647 1.0568588 nan
3.5625057 -1.3870894 1.0568588 nan
3.7002869 -1.0460507 1.0427359 -2.782147e+38
3.7362487 -1.062796 1.0407131 -2.4751791e+38
3.7362332 -1.0695502 1.0407131 -2.5150565e+38
3.7002411 -1.0661079 1.0427359 -2.5548293e+38
3.7002256 -1.0727935 1.0427359 -2.5016079e+38
3.7002103 -1.0794792 1.0427359 -2.4483343e+38
3.7001951 -1.086165 1.0427359 -2.4085086e+38
3.6652031 -1.0826705 1.0447025 -2.3686317e+38
3.6651878 -1.0892894 1.0447025 -2.3686315e+38
3.6651728 -1.0959085 1.0447025 -2.3553388e+38
3.6651576 -1.1025276 1.0447025 -2.3552865e+38
3.6651425 -1.1091465 1.0447025 -2.3552356e+38
3.6651273 -1.1157656 1.0447025 -2.3552364e+38
3.665112 -1.1223845 1.0447025 -2.3419443e+38
3.665097 -1.1290036 1.0447025 -2.3419445e+38
3.6650817 -1.1356227 1.0447025 -2.3419967e+38
3.6650667 -1.1422417 1.0447025 -2.3420488e+38
3.6650515 -1.1488607 1.0447025 -2.3421007e+38
3.6650362 -1.1554797 1.0447025 -2.3687891e+38
3.6650212 -1.1620988 1.0447025 -2.3954771e+38
3.6650059 -1.1687179 1.0447025 -2.3682171e+38
3.6649909 -1.1753368 1.0447025 -2.3268881e+38
3.6649756 -1.1819559 1.0447025 -2.5400854e+38
3.6649606 -1.1885749 1.0447025 -2.768769e+38
3.6649454 -1.1951939 1.0447025 nan
3.6649301 -1.201813 1.0447025 nan
3.6997511 -1.2800502 1.0427359 -2.4459935e+38
3.6997356 -1.2867358 1.0427359 -2.20709e+38
3.6997204 -1.2934215 1.0427359 -1.9683509e+38
3.6997051 -1.3001072 1.0427359 -2.1418281e+38
3.6996899 -1.306793 1.0427359 -2.3280239e+38
3.6996746 -1.3134786 1.0427359 -2.2880432e+38
3.6646876 -1.3077174 1.0447025 -2.261355e+38
3.6646726 -1.3143365 1.0447025 -2.2082378e+38
3.6646574 -1.3209555 1.0447025 -2.1683095e+38
3.6646421 -1.3275746 1.0447025 -2.1550174e+38
3.6646271 -1.3341936 1.0447025 -2.1416213e+38
3.6646118 -1.3408126 1.0447025 -2.1550174e+38
3.6645968 -1.3474317 1.0447025 -2.168362e+38
3.6645815 -1.3540506 1.0447025 -2.1950506e+38
3.6295958 -1.3476896 1.0466692 -2.2350323e+38
3.629581 -1.354242 1.0466692 -2.2617217e+38
3.629566 -1.3607944 1.0466692 -2.2883596e+38
3.5955803 -1.3545432 1.0485797 -2.3151533e+38
3.5955656 -1.3610308 1.0485797 -2.3553396e+38
3.5955505 -1.3675184 1.0485797 -2.1285381e+38
3.5955358 -1.374006 1.0485797 -1.9153024e+38
3.595521 -1.3804935 1.0485797 -3.0504022e+38
3.6294758 -1.4001086 1.0466692 nan
3.5625203 -1.3806647 1.050434 nan
3.5625057 -1.3870894 1.050434 nan
3.7002869 -1.0460507 1.0360502 -2.5429377e+38
3.7362487 -1.062796 1.0339588 -2.4356138e+38
3.7362332 -1.0695502 1.0339588 -2.4882125e+38
3.7002411 -1.0661079 1.0360502 -2.5415368e+38
3.7002256 -1.0727935 1.0360502 -2.4883671e+38
3.7002103 -1.0794792 1.0360502 -2.4218532e+38
3.7001951 -1.086165 1.0360502 -2.3953199e+38
3.6652031 -1.0826705 1.0380836 -2.3686315e+38
3.6651878 -1.0892894 1.0380836 -2.3686315e+38
3.6651728 -1.0959085 1.0380836 -2.3686313e+38
3.6651576 -1.1025276 1.0380836 -2.3818717e+38
3.6651425 -1.1091465 1.0380836 -2.3818723e+38
3.6651273 -1.1157656 1.0380836 -2.3685285e+38
3.665112 -1.1223845 1.0380836 -2.3419441e+38
3.665097 -1.1290036 1.0380836 -2.3419443e+38
3.6650817 -1.1356227 1.0380836 -2.3419965e+38
3.6650667 -1.1422417 1.0380836 -2.3420486e+38
3.6650515 -1.1488607 1.0380836 -2.3421007e+38
3.6650362 -1.1554797 1.0380836 -2.3953222e+38
3.6650212 -1.1620988 1.0380836 -2.4484913e+38
3.6650059 -1.1687179 1.0380836 -2.4483355e+38
3.6649909 -1.1753368 1.0380836 -2.4472459e+38
3.6649756 -1.1819559 1.0380836 -2.6852095e+38
3.6649606 -1.1885749 1.0380836 -2.9296273e+38
3.6649454 -1.1951939 1.0380836 nan
3.6649301 -1.201813 1.0380836 nan
3.6997511 -1.2800502 1.0360502 -1.7556251e+38
3.6997356 -1.2867358 1.0360502 -1.9280584e+38
3.6997204 -1.2934215 1.0360502 -2.101587e+38
3.6997051 -1.3001072 1.0360502 -2.2219984e+38
3.6996899 -1.306793 1.0360502 -2.3281282e+38
3.6996746 -1.3134786 1.0360502 -2.3147312e+38
3.6646876 -1.3077174 1.0380836 -2.2879911e+38
3.6646726 -1.3143365 1.0380836 -2.2347704e+38
3.6646574 -1.3209555 1.0380836 -2.1683093e+38
3.6646421 -1.3275746 1.0380836 -2.1549655e+38
3.6646271 -1.3341936 1.0380836 -2.1416732e+38
3.6646118 -1.3408126 1.0380836 -2.1683099e+38
3.6645968 -1.3474317 1.0380836 -2.1816543e+38
3.6645815 -1.3540506 1.0380836 -2.208291e+38
3.6645665 -1.3606697 1.0380836 -2.2350323e+38
3.6645513 -1.3672888 1.0380836 -2.2749623e+38
3.664536 -1.3739078 1.0380836 -2.3016521e+38
3.6295509 -1.3673468 1.0401168 -2.3415825e+38
3.6295359 -1.3738991 1.0401168 -2.3683214e+38
3.6295209 -1.3804514 1.0401168 -2.0486824e+38
3.6295059 -1.3870038 1.0401168 -1.7307181e+38
3.595521 -1.3804935 1.0420921 -2.9986892e+38
3.6294758 -1.4001086 1.0401168 nan
3.6294608 -1.4066609 1.0401168 nan
3.7362642 -1.0560417 1.0272045 -3.0218231e+38
3.7362487 -1.062796 1.0272045 -2.4487503e+38
3.7362332 -1.0695502 1.0272045 -2.5016606e+38
3.7002411 -1.0661079 1.0293645 -2.568225e+38
3.7002256 -1.0727935 1.0293645 -2.5017107e+38
3.7002103 -1.0794792 1.0293645 -2.435145e+38
3.7001951 -1.086165 1.0293645 -2.4085601e+38
3.6652031 -1.0826705 1.0314645 -2.3685794e+38
3.6651878 -1.0892894 1.0314645 -2.3819236e+38
3.6651728 -1.0959085 1.0314645 -2.381924e+38
3.6651576 -1.1025276 1.0314645 -2.3818723e+38
3.6651425 -1.1091465 1.0314645 -2.3818725e+38
3.6651273 -1.1157656 1.0314645 -2.355236e+38
3.665112 -1.1223845 1.0314645 -2.341892e+38
3.665097 -1.1290036 1.0314645 -2.3419441e+38
3.6650817 -1.1356227 1.0314645 -2.3419962e+38
3.6650667 -1.1422417 1.0314645 -2.3553405e+38
3.6650515 -1.1488607 1.0314645 -2.3554451e+38
3.6650362 -1.1554797 1.0314645 -2.3952187e+38
3.6650212 -1.1620988 1.0314645 -2.4351998e+38
3.6650059 -1.1687179 1.0314645 -2.2755371e+38
3.6649909 -1.1753368 1.0314645 -2.1158218e+38
3.6649756 -1.1819559 1.0314645 -2.527415e+38
3.6649606 -1.1885749 1.0314645 -2.9425053e+38
3.6649454 -1.1951939 1.0314645 nan
3.6649301 -1.201813 1.0314645 nan
3.6997511 -1.2800502 1.0293645 -2.1535102e+38
3.6997356 -1.2867358 1.0293645 -2.1407371e+38
3.6997204 -1.2934215 1.0293645 -2.1417251e+38
3.6997051 -1.3001072 1.0293645 -2.2351879e+38
3.6996899 -1.306793 1.0293645 -2.3414206e+38
3.6996746 -1.3134786 1.0293645 -2.3146787e+38
3.6646876 -1.3077174 1.0314645 -2.287939e+38
3.6646726 -1.3143365 1.0314645 -2.2347704e+38
3.6646574 -1.3209555 1.0314645 -2.1815496e+38
3.6646421 -1.3275746 1.0314645 -2.1682056e+38
3.6646271 -1.3341936 1.0314645 -2.1549655e+38
3.6646118 -1.3408126 1.0314645 -2.1816021e+38
3.6645968 -1.3474317 1.0314645 -2.2082388e+38
3.6645815 -1.3540506 1.0314645 -2.221635e+38
3.6645665 -1.3606697 1.0314645 -2.2483765e+38
3.6645513 -1.3672888 1.0314645 -2.2883584e+38
3.629566 -1.3607944 1.0335644 -2.328289e+38
3.6295509 -1.3673468 1.0335644 -2.3550309e+38
3.6295359 -1.3738991 1.0335644 -2.3953745e+38
3.6295209 -1.3804514 1.0335644 -2.0614571e+38
3.6295059 -1.3870038 1.0335644 -1.728072e+38
3.595521 -1.3804935 1.0356045 -3.0774583e+38
3.6294758 -1.4001086 1.0335644 nan
3.6294608 -1.4066609 1.0335644 nan
3.7362642 -1.0560417 1.0204502 nan
3.7002716 -1.0527364 1.0226787 -2.448284e+38
3.7002563 -1.0594221 1.0226787 -2.5280387e+38
3.7002411 -1.0661079 1.0226787 -2.5947587e+38
3.7002256 -1.0727935 1.0226787 -2.5283482e+38
3.7002103 -1.0794792 1.0226787 -2.4485418e+38
3.6652181 -1.0760514 1.0248454 -2.4086643e+38
3.6652031 -1.0826705 1.0248454 -2.368684e+38
3.6651878 -1.0892894 1.0248454 -2.3819767e+38
3.6651728 -1.0959085 1.0248454 -2.3951652e+38
3.6651576 -1.1025276 1.0248454 -2.381821e+38
3.6651425 -1.1091465 1.0248454 -2.3685285e+38
3.6651273 -1.1157656 1.0248454 -2.3551841e+38
3.665112 -1.1223845 1.0248454 -2.3419439e+38
3.665097 -1.1290036 1.0248454 -2.3419443e+38
3.6650817 -1.1356227 1.0248454 -2.3419965e+38
3.6650667 -1.1422417 1.0248454 -2.3552889e+38
3.6650515 -1.1488607 1.0248454 -2.3685814e+38
3.6650362 -1.1554797 1.0248454 -2.3949587e+38
3.6650212 -1.1620988 1.0248454 -2.4085106e+38
3.6650059 -1.1687179 1.0248454 -2.1026845e+38
3.6649909 -1.1753368 1.0248454 -1.7826851e+38
3.6649756 -1.1819559 1.0248454 -2.3661453e+38
3.6649606 -1.1885749 1.0248454 -2.9569934e+38
3.6649454 -1.1951939 1.0248454 nan
3.6649301 -1.201813 1.0248454 nan
3.6997511 -1.2800502 1.0226787 -2.5407038e+38
3.7357075 -1.2991953 1.0204502 -2.3530013e+38
3.735692 -1.3059496 1.0204502 -2.1683115e+38
3.6997051 -1.3001072 1.0226787 -2.2620846e+38
3.6996899 -1.306793 1.0226787 -2.3414734e+38
3.6647029 -1.3010985 1.0248454 -2.3146797e+38
3.6646876 -1.3077174 1.0248454 -2.2879913e+38
3.6646726 -1.3143365 1.0248454 -2.2481144e+38
3.6646574 -1.3209555 1.0248454 -2.19479e+38
3.6646421 -1.3275746 1.0248454 -2.181394e+38
3.6646271 -1.3341936 1.0248454 -2.1549135e+38
3.6646118 -1.3408126 1.0248454 -2.1948425e+38
3.6645968 -1.3474317 1.0248454 -2.2215832e+38
3.6645815 -1.3540506 1.0248454 -2.2482199e+38
3.6295958 -1.3476896 1.0270121 -2.2616692e+38
3.629581 -1.354242 1.0270121 -2.301703e+38
3.629566 -1.3607944 1.0270121 -2.3415293e+38
3.6295509 -1.3673468 1.0270121 -2.3814078e+38
3.5955656 -1.3610308 1.0291169 -2.4077814e+38
3.5955505 -1.3675184 1.0291169 -2.0604654e+38
3.5955358 -1.374006 1.0291169 -1.7171145e+38
3.595521 -1.3804935 1.0291169 -3.1462581e+38
3.595506 -1.3869811 1.0291169 nan
3.5954912 -1.3934689 1.0291169 nan
3.7362642 -1.0560417 1.013696 -3.3938012e+38
3.7002716 -1.0527364 1.015993 -2.1543491e+38
3.7002563 -1.0594221 1.015993 -2.3816169e+38
3.7002411 -1.0661079 1.015993 -2.6081558e+38
3.7002256 -1.0727935 1.015993 -2.5416413e+38
3.7002103 -1.0794792 1.015993 -2.4883675e+38
3.6652181 -1.0760514 1.0182264 -2.4484896e+38
3.6652031 -1.0826705 1.0182264 -2.4085098e+38
3.6651878 -1.0892894 1.0182264 -2.4084585e+38
3.6651728 -1.0959085 1.0182264 -2.4083544e+38
3.6651576 -1.1025276 1.0182264 -2.3950617e+38
3.6651425 -1.1091465 1.0182264 -2.3684248e+38
3.6651273 -1.1157656 1.0182264 -2.3551839e+38
3.665112 -1.1223845 1.0182264 -2.3419441e+38
3.665097 -1.1290036 1.0182264 -2.3419965e+38
3.6650817 -1.1356227 1.0182264 -2.3420486e+38
3.6650667 -1.1422417 1.0182264 -2.3553411e+38
3.6650515 -1.1488607 1.0182264 -2.3819256e+38
3.6650362 -1.1554797 1.0182264 -2.3952698e+38
3.6650212 -1.1620988 1.0182264 -2.4220619e+38
3.6650059 -1.1687179 1.0182264 -2.1021121e+38
3.6649909 -1.1753368 1.0182264 -1.7822186e+38
3.6649756 -1.1819559 1.0182264 -2.7020378e+38
3.6649606 -1.1885749 1.0182264 nan
3.629971 -1.1838806 1.0204597 nan
3.629956 -1.1904329 1.0204597 nan
3.7726781 -1.312001 1.0113349 -2.2210159e+38
3.7726626 -1.3188257 1.0113349 -2.3284957e+38
3.6997051 -1.3001072 1.015993 -2.3416312e+38
3.6996899 -1.306793 1.015993 -2.367903e+38
3.6996746 -1.3134786 1.015993 -2.3279728e+38
3.6646876 -1.3077174 1.0182264 -2.3011801e+38
3.6646726 -1.3143365 1.0182264 -2.2480104e+38
3.6646574 -1.3209555 1.0182264 -2.1945821e+38
3.6646421 -1.3275746 1.0182264 -2.181446e+38
3.6646271 -1.3341936 1.0182264 -2.1682058e+38
3.6646118 -1.3408126 1.0182264 -2.1816021e+38
3.6296258 -1.3345848 1.0204597 -2.2083431e+38
3.6645815 -1.3540506 1.0182264 -2.23498e+38
3.6295958 -1.3476896 1.0204597 -2.2749099e+38
3.629581 -1.354242 1.0204597 -2.3015476e+38
3.629566 -1.3607944 1.0204597 -2.3414776e+38
3.6295509 -1.3673468 1.0204597 -2.3814595e+38
3.6295359 -1.3738991 1.0204597 -2.4215903e+38
3.5955505 -1.3675184 1.0226293 -2.0742717e+38
3.5955358 -1.374006 1.0226293 -1.7147763e+38
3.595521 -1.3804935 1.0226293 -3.184631e+38
3.595506 -1.3869811 1.0226293 nan
3.5305486 -1.3682486 1.0267768 nan
3.7002869 -1.0460507 1.0093074 -3.259007e+38
3.7002716 -1.0527364 1.0093074 -1.8493525e+38
3.7002563 -1.0594221 1.0093074 -2.2359215e+38
3.7002411 -1.0661079 1.0093074 -2.608156e+38
3.7002256 -1.0727935 1.0093074 -2.5682778e+38
3.6652334 -1.0694324 1.0116073 -2.5282445e+38
3.6652181 -1.0760514 1.0116073 -2.4883154e+38
3.6652031 -1.0826705 1.0116073 -2.448387e+38
3.6651878 -1.0892894 1.0116073 -2.4350432e+38
3.6651728 -1.0959085 1.0116073 -2.4216467e+38
3.6651576 -1.1025276 1.0116073 -2.39501e+38
3.6651425 -1.1091465 1.0116073 -2.368477e+38
3.6651273 -1.1157656 1.0116073 -2.3552364e+38
3.665112 -1.1223845 1.0116073 -2.3287042e+38
