# .PCD v0.7 - Point Cloud Data file format
VERSION 0.7
FIELDS x y z rgb
SIZE 4 4 4 4
TYPE F F F F
COUNT 1 1 1 1
WIDTH 1038
HEIGHT 1
VIEWPOINT 0 0 0 1 0 0 0
POINTS 1038
DATA ascii
2.7762783 -0.23995316 1.2473617 -2.2752229e+38
2.7762666 -0.24488458 1.2473617 -2.2884633e+38
2.7762549 -0.249816 1.2473617 -2.2885152e+38
2.7762432 -0.25474742 1.2473617 -2.275275e+38
2.7762315 -0.25967881 1.2473617 -2.2619828e+38
2.7762198 -0.26461023 1.2473617 -2.2753272e+38
2.7762082 -0.26954165 1.2473617 -2.2753274e+38
2.7761965 -0.27447307 1.2473617 -2.2753795e+38
2.7761848 -0.27940449 1.2473617 -2.2753797e+38
2.7761731 -0.28433591 1.2473617 -2.2753797e+38
2.7761614 -0.28926733 1.2473617 -2.2753799e+38
2.7761497 -0.29419872 1.2473617 -2.2754837e+38
2.7761381 -0.29913014 1.2473617 -2.2754316e+38
2.7761264 -0.30406156 1.2473617 -2.2887237e+38
2.7761147 -0.30899298 1.2473617 -2.2888275e+38
2.776103 -0.3139244 1.2473617 -2.3288084e+38
2.7760913 -0.31885579 1.2473617 -2.3686853e+38
2.7760797 -0.32378721 1.2473617 -2.3553932e+38
2.776068 -0.32871863 1.2473617 -2.342153e+38
2.7760563 -0.33365005 1.2473617 -2.3554457e+38
2.7960396 -0.34066692 1.2474188 -2.3554978e+38
2.7960279 -0.34563646 1.2474188 -2.3953751e+38
2.7760212 -0.34844428 1.2473617 -2.422012e+38
2.7760096 -0.3533757 1.2473617 -2.5150583e+38
2.7759979 -0.35830709 1.2473617 -2.5947601e+38
2.7759862 -0.36323854 1.2473617 -2.6343771e+38
2.795969 -0.37048399 1.2474188 -2.6620513e+38
2.7759628 -0.37310135 1.2473617 -3.3694492e+38
2.7759511 -0.37803277 1.2473617 nan
2.8778327 -0.0058187321 1.2425264 nan
2.8778205 -0.01094253 1.2425264 nan
2.8568077 -0.016476586 1.2425064 nan
2.8167937 -0.022265647 1.2424682 -2.4881115e+38
2.816782 -0.027273249 1.2424682 -2.4874812e+38
2.8167701 -0.032280855 1.2424682 -2.4877943e+38
2.7967575 -0.037526805 1.2424493 -2.4615746e+38
2.7967458 -0.042496316 1.2424493 -2.4351459e+38
2.7767336 -0.047627985 1.2424302 -2.395269e+38
2.776722 -0.052559398 1.2424302 -2.3687366e+38
2.7767103 -0.057490811 1.2424302 -2.3686849e+38
2.7576985 -0.062467705 1.2424121 -2.3686851e+38
2.7386866 -0.067372218 1.242394 -2.3819773e+38
2.7386751 -0.072231248 1.242394 -2.3952181e+38
2.7196636 -0.077027187 1.242376 -2.3819779e+38
2.7016525 -0.081755973 1.2423588 -2.3819264e+38
2.7016411 -0.086544529 1.2423588 -2.3687382e+38
2.7196293 -0.091495723 1.242376 -2.3555502e+38
2.7196178 -0.096318565 1.242376 -2.3555506e+38
2.7196066 -0.10114141 1.242376 -2.3554463e+38
2.7195952 -0.10596426 1.242376 -2.3553938e+38
2.7195837 -0.1107871 1.242376 -2.3685818e+38
2.7385716 -0.11596256 1.242394 -2.3419967e+38
2.73856 -0.1208216 1.242394 -2.3287046e+38
2.7575476 -0.12610562 1.2424121 -2.3153606e+38
2.7575362 -0.13100085 1.2424121 -2.3153604e+38
2.7575245 -0.13589607 1.2424121 -2.302016e+38
2.7765119 -0.14132488 1.2424302 -2.3019121e+38
2.7765002 -0.14625628 1.2424302 -2.2886196e+38
2.7764885 -0.15118769 1.2424302 -2.2885677e+38
2.7764769 -0.15611911 1.2424302 -2.2753274e+38
2.7764652 -0.16105053 1.2424302 -2.2753274e+38
2.7764535 -0.16598195 1.2424302 -2.2752752e+38
2.7764418 -0.17091337 1.2424302 -2.2885673e+38
2.796428 -0.1766731 1.2424493 -2.275171e+38
2.8164141 -0.18250902 1.2424682 -2.275118e+38
2.8164024 -0.18751663 1.2424682 -2.2751168e+38
2.8163905 -0.19252422 1.2424682 -2.2618248e+38
2.8163786 -0.19753185 1.2424682 -2.2618248e+38
2.8163669 -0.20253944 1.2424682 -2.2485329e+38
2.816355 -0.20754704 1.2424682 -2.2485333e+38
2.7963455 -0.21145967 1.2424493 -2.2485337e+38
2.7963338 -0.21642917 1.2424493 -2.2618781e+38
2.7963221 -0.22139868 1.2424493 -2.2618783e+38
2.7963102 -0.22636819 1.2424493 -2.2619302e+38
2.7763016 -0.23009035 1.2424302 -2.2752227e+38
2.7762899 -0.23502174 1.2424302 -2.2752229e+38
2.7762783 -0.23995316 1.2424302 -2.2885152e+38
2.7762666 -0.24488458 1.2424302 -2.2885669e+38
2.7762549 -0.249816 1.2424302 -2.3018596e+38
2.7762432 -0.25474742 1.2424302 -2.3018598e+38
2.7762315 -0.25967881 1.2424302 -2.30186e+38
2.7762198 -0.26461023 1.2424302 -2.3152044e+38
2.7762082 -0.26954165 1.2424302 -2.3152046e+38
2.7761965 -0.27447307 1.2424302 -2.3152046e+38
2.7761848 -0.27940449 1.2424302 -2.3151527e+38
2.7761731 -0.28433591 1.2424302 -2.3019121e+38
2.7761614 -0.28926733 1.2424302 -2.3019125e+38
2.7761497 -0.29419872 1.2424302 -2.2887245e+38
2.7761381 -0.29913014 1.2424302 -2.2887243e+38
2.7761264 -0.30406156 1.2424302 -2.3020683e+38
2.7761147 -0.30899298 1.2424302 -2.3021721e+38
2.776103 -0.3139244 1.2424302 -2.3287567e+38
2.7760913 -0.31885579 1.2424302 -2.3419971e+38
2.7760797 -0.32378721 1.2424302 -2.3421007e+38
2.776068 -0.32871863 1.2424302 -2.342153e+38
2.7760563 -0.33365005 1.2424302 -2.3554457e+38
2.7960396 -0.34066692 1.2424493 -2.35555e+38
2.7960279 -0.34563646 1.2424493 -2.3820828e+38
2.7760212 -0.34844428 1.2424302 -2.3953757e+38
2.7760096 -0.3533757 1.2424302 -2.4086684e+38
2.7759979 -0.35830709 1.2424302 -2.4086159e+38
2.7759862 -0.36323854 1.2424302 -2.6082069e+38
2.795969 -0.37048399 1.2424493 -2.8214544e+38
2.7759628 -0.37310135 1.2424302 nan
2.7759511 -0.37803277 1.2424302 nan
2.8778205 -0.01094253 1.2374026 nan
2.8568077 -0.016476586 1.2374226 nan
2.8367946 -0.021913014 1.2374417 -2.4756521e+38
2.816782 -0.027273249 1.2374607 -2.4066904e+38
2.8167701 -0.032280855 1.2374607 -2.3414245e+38
2.7967575 -0.037526805 1.2374797 -2.3819773e+38
2.7967458 -0.042496316 1.2374797 -2.4085617e+38
2.7767336 -0.047627985 1.2374988 -2.3952173e+38
2.776722 -0.052559398 1.2374988 -2.3686329e+38
2.75771 -0.05757248 1.2375169 -2.3819252e+38
2.7576985 -0.062467705 1.2375169 -2.3819254e+38
2.7386866 -0.067372218 1.237535 -2.3951658e+38
2.7386751 -0.072231248 1.237535 -2.4085104e+38
2.7196636 -0.077027187 1.237553 -2.4085108e+38
2.7016525 -0.081755973 1.2375702 -2.3952706e+38
2.7016411 -0.086544529 1.2375702 -2.3687382e+38
2.7196293 -0.091495723 1.237553 -2.3422579e+38
2.7016184 -0.096121654 1.2375702 -2.3556025e+38
2.7196066 -0.10114141 1.237553 -2.355498e+38
2.7195952 -0.10596426 1.237553 -2.368738e+38
2.7195837 -0.1107871 1.237553 -2.3686337e+38
2.7385716 -0.11596256 1.237535 -2.342049e+38
2.7575593 -0.1212104 1.2375169 -2.3154125e+38
2.7575476 -0.12610562 1.2375169 -2.3153606e+38
2.7575362 -0.13100085 1.2375169 -2.3153604e+38
2.7765236 -0.13639346 1.2374988 -2.3020162e+38
2.7765119 -0.14132488 1.2374988 -2.2753795e+38
2.7765002 -0.14625628 1.2374988 -2.2753793e+38
2.7764885 -0.15118769 1.2374988 -2.2753793e+38
2.7764769 -0.15611911 1.2374988 -2.2753793e+38
2.7764652 -0.16105053 1.2374988 -2.2620351e+38
2.7764535 -0.16598195 1.2374988 -2.2752752e+38
2.7764418 -0.17091337 1.2374988 -2.2752231e+38
2.796428 -0.1766731 1.2374797 -2.2618785e+38
2.8164141 -0.18250902 1.2374607 -2.2485854e+38
2.8164024 -0.18751663 1.2374607 -2.2485844e+38
2.8163905 -0.19252422 1.2374607 -2.2485327e+38
2.8163786 -0.19753185 1.2374607 -2.2485327e+38
2.8163669 -0.20253944 1.2374607 -2.2352406e+38
2.816355 -0.20754704 1.2374607 -2.235241e+38
2.7963455 -0.21145967 1.2374797 -2.222053e+38
2.7963338 -0.21642917 1.2374797 -2.2486899e+38
2.7963221 -0.22139868 1.2374797 -2.2752227e+38
2.7963102 -0.22636819 1.2374797 -2.2752229e+38
2.7763016 -0.23009035 1.2374988 -2.2619306e+38
2.7762899 -0.23502174 1.2374988 -2.2751712e+38
2.7762783 -0.23995316 1.2374988 -2.2885152e+38
2.7762666 -0.24488458 1.2374988 -2.3019113e+38
2.7762549 -0.249816 1.2374988 -2.3019115e+38
2.7762432 -0.25474742 1.2374988 -2.3284963e+38
2.7762315 -0.25967881 1.2374988 -2.3417888e+38
2.7762198 -0.26461023 1.2374988 -2.3550812e+38
2.7762082 -0.26954165 1.2374988 -2.3550812e+38
2.7761965 -0.27447307 1.2374988 -2.3550295e+38
2.7761848 -0.27940449 1.2374988 -2.3550293e+38
2.7761731 -0.28433591 1.2374988 -2.341789e+38
2.7761614 -0.28926733 1.2374988 -2.3152567e+38
2.7761497 -0.29419872 1.2374988 -2.3153091e+38
2.7761381 -0.29913014 1.2374988 -2.3020687e+38
2.7761264 -0.30406156 1.2374988 -2.315361e+38
2.7761147 -0.30899298 1.2374988 -2.3154129e+38
2.776103 -0.3139244 1.2374988 -2.3154129e+38
2.7760913 -0.31885579 1.2374988 -2.3155168e+38
2.7760797 -0.32378721 1.2374988 -2.3288608e+38
2.776068 -0.32871863 1.2374988 -2.3421013e+38
2.7760563 -0.33365005 1.2374988 -2.3553419e+38
2.7760446 -0.33858144 1.2374988 -2.3554459e+38
2.7760329 -0.34351289 1.2374988 -2.3687905e+38
2.7760212 -0.34844428 1.2374988 -2.3688429e+38
2.7760096 -0.3533757 1.2374988 -2.3023301e+38
2.7759979 -0.35830709 1.2374988 -2.2226272e+38
2.7759862 -0.36323854 1.2374988 -2.5950177e+38
2.795969 -0.37048399 1.2374797 -2.9685527e+38
2.7959571 -0.3754535 1.2374797 nan
2.7759511 -0.37803277 1.2374988 nan
2.8568196 -0.011392787 1.2323388 nan
2.8368065 -0.016867314 1.2323959 nan
2.8167937 -0.022265647 1.2324531 -2.568181e+38
2.816782 -0.027273249 1.2324531 -2.4607956e+38
2.8167701 -0.032280855 1.2324531 -2.3684254e+38
2.7967575 -0.037526805 1.2325102 -2.3952183e+38
2.7967458 -0.042496316 1.2325102 -2.4351467e+38
2.7767336 -0.047627985 1.2325673 -2.4085098e+38
2.776722 -0.052559398 1.2325673 -2.3951656e+38
2.75771 -0.05757248 1.2326217 -2.3952175e+38
2.7576985 -0.062467705 1.2326217 -2.3952177e+38
2.7386866 -0.067372218 1.2326759 -2.40851e+38
2.7386751 -0.072231248 1.2326759 -2.4219065e+38
2.7196636 -0.077027187 1.2327302 -2.4085627e+38
2.7196522 -0.081850037 1.2327302 -2.3952706e+38
2.7016411 -0.086544529 1.2327816 -2.3820305e+38
2.7196293 -0.091495723 1.2327302 -2.3554982e+38
2.7196178 -0.096318565 1.2327302 -2.3687907e+38
2.7196066 -0.10114141 1.2327302 -2.3819788e+38
2.7195952 -0.10596426 1.2327302 -2.368738e+38
2.7195837 -0.1107871 1.2327302 -2.3686339e+38
2.7385716 -0.11596256 1.2326759 -2.3553415e+38
2.7575593 -0.1212104 1.2326217 -2.3552376e+38
2.7575476 -0.12610562 1.2326217 -2.3286529e+38
2.7575362 -0.13100085 1.2326217 -2.3020683e+38
2.7575245 -0.13589607 1.2326217 -2.2887239e+38
2.7765119 -0.14132488 1.2325673 -2.2754314e+38
2.7765002 -0.14625628 1.2325673 -2.2753793e+38
2.7764885 -0.15118769 1.2325673 -2.262087e+38
2.7764769 -0.15611911 1.2325673 -2.2753793e+38
2.7764652 -0.16105053 1.2325673 -2.2752754e+38
2.7764535 -0.16598195 1.2325673 -2.2752752e+38
2.7764418 -0.17091337 1.2325673 -2.2752229e+38
2.796428 -0.1766731 1.2325102 -2.2619302e+38
2.8164141 -0.18250902 1.2324531 -2.2486373e+38
2.8164024 -0.18751663 1.2324531 -2.2618769e+38
2.8163905 -0.19252422 1.2324531 -2.2618252e+38
2.8163786 -0.19753185 1.2324531 -2.2618252e+38
2.8163669 -0.20253944 1.2324531 -2.2617734e+38
2.816355 -0.20754704 1.2324531 -2.2618773e+38
2.7963455 -0.21145967 1.2325102 -2.2619817e+38
2.7963338 -0.21642917 1.2325102 -2.2752225e+38
2.7963221 -0.22139868 1.2325102 -2.2885152e+38
2.7963102 -0.22636819 1.2325102 -2.2751712e+38
2.7962985 -0.2313377 1.2325102 -2.2751712e+38
2.7762899 -0.23502174 1.2325673 -2.2751712e+38
2.7762783 -0.23995316 1.2325673 -2.2752231e+38
2.7762666 -0.24488458 1.2325673 -2.288619e+38
2.7762549 -0.249816 1.2325673 -2.2886712e+38
2.7762432 -0.25474742 1.2325673 -2.3152038e+38
2.7762315 -0.25967881 1.2325673 -2.3417368e+38
2.7762198 -0.26461023 1.2325673 -2.3550293e+38
2.7762082 -0.26954165 1.2325673 -2.3550293e+38
2.7761965 -0.27447307 1.2325673 -2.3550293e+38
2.7761848 -0.27940449 1.2325673 -2.3550293e+38
2.7761731 -0.28433591 1.2325673 -2.341789e+38
2.7761614 -0.28926733 1.2325673 -2.328549e+38
2.7761497 -0.29419872 1.2325673 -2.3286013e+38
2.7761381 -0.29913014 1.2325673 -2.3286535e+38
2.7761264 -0.30406156 1.2325673 -2.3286535e+38
2.7761147 -0.30899298 1.2325673 -2.3419459e+38
2.776103 -0.3139244 1.2325673 -2.3287575e+38
2.7760913 -0.31885579 1.2325673 -2.3288614e+38
2.7760797 -0.32378721 1.2325673 -2.3421534e+38
2.776068 -0.32871863 1.2325673 -2.3553419e+38
2.7760563 -0.33365005 1.2325673 -2.3686861e+38
2.7760446 -0.33858144 1.2325673 -2.3687382e+38
2.7960279 -0.34563646 1.2325102 -2.3821345e+38
2.7760212 -0.34844428 1.2325673 -2.3955313e+38
2.7760096 -0.3533757 1.2325673 -2.3289664e+38
2.7759979 -0.35830709 1.2325673 -2.275692e+38
2.7759862 -0.36323854 1.2325673 -2.7016667e+38
2.795969 -0.37048399 1.2325102 -3.1279049e+38
2.7959571 -0.3754535 1.2325102 nan
2.7959454 -0.38042301 1.2325102 nan
2.8368187 -0.011821616 1.2273502 nan
2.8368065 -0.016867314 1.2273502 nan
2.8167937 -0.022265647 1.2274455 -2.6488667e+38
2.816782 -0.027273249 1.2274455 -2.5130776e+38
2.8167701 -0.032280855 1.2274455 -2.3812999e+38
2.7967575 -0.037526805 1.2275407 -2.4219065e+38
2.7967458 -0.042496316 1.2275407 -2.4617312e+38
2.7767336 -0.047627985 1.2276359 -2.4350426e+38
2.776722 -0.052559398 1.2276359 -2.4084581e+38
2.75771 -0.05757248 1.2277263 -2.4084581e+38
2.7576985 -0.062467705 1.2277263 -2.3952179e+38
2.7386866 -0.067372218 1.2278168 -2.4085104e+38
2.7386751 -0.072231248 1.2278168 -2.421855e+38
2.7196636 -0.077027187 1.2279073 -2.4085631e+38
2.7196522 -0.081850037 1.2279073 -2.395271e+38
2.7196407 -0.08667288 1.2279073 -2.3819272e+38
2.7196293 -0.091495723 1.2279073 -2.3687388e+38
2.7196178 -0.096318565 1.2279073 -2.3820832e+38
2.7196066 -0.10114141 1.2279073 -2.3953751e+38
2.7195952 -0.10596426 1.2279073 -2.3820824e+38
2.7195837 -0.1107871 1.2279073 -2.3686859e+38
2.7385716 -0.11596256 1.2278168 -2.381926e+38
2.73856 -0.1208216 1.2278168 -2.3818739e+38
2.7575476 -0.12610562 1.2277263 -2.3419451e+38
2.7575362 -0.13100085 1.2277263 -2.288776e+38
2.7575245 -0.13589607 1.2277263 -2.2887239e+38
2.7765119 -0.14132488 1.2276359 -2.2754314e+38
2.7765002 -0.14625628 1.2276359 -2.2620872e+38
2.7764885 -0.15118769 1.2276359 -2.2487947e+38
2.7764769 -0.15611911 1.2276359 -2.2753793e+38
2.7764652 -0.16105053 1.2276359 -2.2886196e+38
2.7764535 -0.16598195 1.2276359 -2.2752754e+38
2.7964396 -0.17170359 1.2275407 -2.2619828e+38
2.796428 -0.1766731 1.2275407 -2.2620345e+38
2.8164141 -0.18250902 1.2274455 -2.2486897e+38
2.8164024 -0.18751663 1.2274455 -2.2619294e+38
2.8163905 -0.19252422 1.2274455 -2.2751176e+38
2.8163786 -0.19753185 1.2274455 -2.2750655e+38
2.8163669 -0.20253944 1.2274455 -2.2750657e+38
2.816355 -0.20754704 1.2274455 -2.2884618e+38
2.8163431 -0.21255463 1.2274455 -2.2884103e+38
2.7963338 -0.21642917 1.2275407 -2.2884107e+38
2.7963221 -0.22139868 1.2275407 -2.2884629e+38
2.7963102 -0.22636819 1.2275407 -2.2884113e+38
2.7962985 -0.2313377 1.2275407 -2.2751712e+38
2.7962868 -0.2363072 1.2275407 -2.2751714e+38
2.7762783 -0.23995316 1.2276359 -2.2619828e+38
2.7762666 -0.24488458 1.2276359 -2.2753787e+38
2.7762549 -0.249816 1.2276359 -2.2753789e+38
2.7762432 -0.25474742 1.2276359 -2.3152561e+38
2.7762315 -0.25967881 1.2276359 -2.341789e+38
2.7762198 -0.26461023 1.2276359 -2.3550295e+38
2.7762082 -0.26954165 1.2276359 -2.3550814e+38
2.7761965 -0.27447307 1.2276359 -2.3550295e+38
2.7761848 -0.27940449 1.2276359 -2.3550816e+38
2.7761731 -0.28433591 1.2276359 -2.3418415e+38
2.7761614 -0.28926733 1.2276359 -2.3285492e+38
2.7761497 -0.29419872 1.2276359 -2.3418417e+38
2.7761381 -0.29913014 1.2276359 -2.3419455e+38
2.7761264 -0.30406156 1.2276359 -2.355238e+38
2.7761147 -0.30899298 1.2276359 -2.3685822e+38
2.776103 -0.3139244 1.2276359 -2.355394e+38
2.7760913 -0.31885579 1.2276359 -2.3288612e+38
2.7760797 -0.32378721 1.2276359 -2.3554974e+38
2.776068 -0.32871863 1.2276359 -2.368738e+38
2.7760563 -0.33365005 1.2276359 -2.3820303e+38
2.7960396 -0.34066692 1.2275407 -2.3820824e+38
2.7960279 -0.34563646 1.2275407 -2.3954789e+38
2.796016 -0.35060596 1.2275407 -2.4088237e+38
2.7960043 -0.35557547 1.2275407 -2.3689477e+38
2.7759979 -0.35830709 1.2276359 -2.3290701e+38
2.7959807 -0.36551449 1.2275407 -2.8081108e+38
2.795969 -0.37048399 1.2275407 -3.2879843e+38
2.7959571 -0.3754535 1.2275407 nan
2.7759511 -0.37803277 1.2276359 nan
2.8368065 -0.016867314 1.2223045 nan
2.8167937 -0.022265647 1.2224379 -2.9814826e+38
2.816782 -0.027273249 1.2224379 -2.6203979e+38
2.8167701 -0.032280855 1.2224379 -2.2617191e+38
2.7967575 -0.037526805 1.2225711 -2.3552891e+38
2.7967458 -0.042496316 1.2225711 -2.4351467e+38
2.7767336 -0.047627985 1.2227045 -2.4350945e+38
2.776722 -0.052559398 1.2227045 -2.4217505e+38
2.75771 -0.05757248 1.2228311 -2.4084583e+38
2.7576985 -0.062467705 1.2228311 -2.4085106e+38
2.7386866 -0.067372218 1.2229578 -2.4085108e+38
2.7386751 -0.072231248 1.2229578 -2.4085112e+38
2.7196636 -0.077027187 1.2230844 -2.4085633e+38
2.7196522 -0.081850037 1.2230844 -2.4085637e+38
2.7196407 -0.08667288 1.2230844 -2.3952719e+38
2.7196293 -0.091495723 1.2230844 -2.3819796e+38
2.7196178 -0.096318565 1.2230844 -2.3820315e+38
2.7196066 -0.10114141 1.2230844 -2.3953753e+38
2.7195952 -0.10596426 1.2230844 -2.3820305e+38
2.7195837 -0.1107871 1.2230844 -2.3819782e+38
2.7385716 -0.11596256 1.2229578 -2.3686335e+38
2.73856 -0.1208216 1.2229578 -2.3685297e+38
2.7385485 -0.12568063 1.2229578 -2.3287048e+38
2.7575362 -0.13100085 1.2228311 -2.3020164e+38
2.7575245 -0.13589607 1.2228311 -2.2887758e+38
2.7765119 -0.14132488 1.2227045 -2.2887239e+38
2.7765002 -0.14625628 1.2227045 -2.2887237e+38
2.7764885 -0.15118769 1.2227045 -2.2886718e+38
2.7764769 -0.15611911 1.2227045 -2.2886196e+38
2.7964633 -0.16176456 1.2225711 -2.30186e+38
2.7964516 -0.16673407 1.2225711 -2.2753274e+38
2.7964396 -0.17170359 1.2225711 -2.2620349e+38
2.796428 -0.1766731 1.2225711 -2.2619828e+38
2.8364122 -0.18337543 1.2223045 -2.2752227e+38
2.8364003 -0.18842113 1.2223045 -2.2884627e+38
2.8363883 -0.19346683 1.2223045 -2.3016507e+38
2.8363764 -0.19851252 1.2223045 -2.3148904e+38
2.8163669 -0.20253944 1.2224379 -2.328131e+38
2.816355 -0.20754704 1.2224379 -2.3281829e+38
2.8163431 -0.21255463 1.2224379 -2.3281312e+38
2.7963338 -0.21642917 1.2225711 -2.314943e+38
2.7963221 -0.22139868 1.2225711 -2.301703e+38
2.7963102 -0.22636819 1.2225711 -2.2884629e+38
2.7962985 -0.2313377 1.2225711 -2.2885152e+38
2.7962868 -0.2363072 1.2225711 -2.2752752e+38
2.7762783 -0.23995316 1.2227045 -2.2620347e+38
2.7762666 -0.24488458 1.2227045 -2.2620864e+38
2.7762549 -0.249816 1.2227045 -2.2620349e+38
2.7762432 -0.25474742 1.2227045 -2.2886718e+38
2.7762315 -0.25967881 1.2227045 -2.3286007e+38
2.7762198 -0.26461023 1.2227045 -2.3285488e+38
2.7762082 -0.26954165 1.2227045 -2.3285488e+38
2.7761965 -0.27447307 1.2227045 -2.3285488e+38
2.7761848 -0.27940449 1.2227045 -2.3418415e+38
2.7761731 -0.28433591 1.2227045 -2.3285496e+38
2.7761614 -0.28926733 1.2227045 -2.3152573e+38
2.7761497 -0.29419872 1.2227045 -2.3286533e+38
2.7761381 -0.29913014 1.2227045 -2.3286533e+38
2.7761264 -0.30406156 1.2227045 -2.3419975e+38
2.7761147 -0.30899298 1.2227045 -2.3553419e+38
2.776103 -0.3139244 1.2227045 -2.3421017e+38
2.7760913 -0.31885579 1.2227045 -2.3421534e+38
2.7760797 -0.32378721 1.2227045 -2.342205e+38
2.776068 -0.32871863 1.2227045 -2.3554974e+38
2.7760563 -0.33365005 1.2227045 -2.3554976e+38
2.7760446 -0.33858144 1.2227045 -2.3688422e+38
2.7760329 -0.34351289 1.2227045 -2.3688944e+38
2.7760212 -0.34844428 1.2227045 -2.3822396e+38
2.7760096 -0.3533757 1.2227045 -2.3289674e+38
2.7759979 -0.35830709 1.2227045 -2.288935e+38
2.7759862 -0.36323854 1.2227045 -2.8485089e+38
2.7759745 -0.36816993 1.2227045 nan
2.7759628 -0.37310135 1.2227045 nan
2.7759511 -0.37803277 1.2227045 nan
2.8368065 -0.016867314 1.2172588 nan
2.8167937 -0.022265647 1.2174302 -3.3010699e+38
2.816782 -0.027273249 1.2174302 -2.7253869e+38
2.8167701 -0.032280855 1.2174302 -2.1418294e+38
2.7967575 -0.037526805 1.2176017 -2.2757953e+38
2.7967458 -0.042496316 1.2176017 -2.4085621e+38
2.7767336 -0.047627985 1.2177731 -2.4217503e+38
2.776722 -0.052559398 1.2177731 -2.4350947e+38
2.7767103 -0.057490811 1.2177731 -2.4217507e+38
2.7576985 -0.062467705 1.2179359 -2.4085106e+38
2.7386866 -0.067372218 1.2180988 -2.3952187e+38
2.7386751 -0.072231248 1.2180988 -2.3819264e+38
2.7196636 -0.077027187 1.2182616 -2.3952189e+38
2.7196522 -0.081850037 1.2182616 -2.4085635e+38
2.7196407 -0.08667288 1.2182616 -2.3952716e+38
2.7196293 -0.091495723 1.2182616 -2.3819792e+38
2.7196178 -0.096318565 1.2182616 -2.3819792e+38
2.7196066 -0.10114141 1.2182616 -2.381979e+38
2.7195952 -0.10596426 1.2182616 -2.3819788e+38
2.7195837 -0.1107871 1.2182616 -2.3819784e+38
2.7385716 -0.11596256 1.2180988 -2.3686859e+38
2.73856 -0.1208216 1.2180988 -2.3553415e+38
2.7385485 -0.12568063 1.2180988 -2.3288088e+38
2.7575362 -0.13100085 1.2179359 -2.3021721e+38
2.7575245 -0.13589607 1.2179359 -2.30212e+38
2.757513 -0.1407913 1.2179359 -2.3020681e+38
2.7765002 -0.14625628 1.2177731 -2.3153082e+38
2.7764885 -0.15118769 1.2177731 -2.3152563e+38
2.7764769 -0.15611911 1.2177731 -2.3151525e+38
2.7964633 -0.16176456 1.2176017 -2.3019119e+38
2.7964516 -0.16673407 1.2176017 -2.2753272e+38
2.7964396 -0.17170359 1.2176017 -2.248742e+38
2.796428 -0.1766731 1.2176017 -2.2752742e+38
2.8364122 -0.18337543 1.2172588 -2.2884107e+38
2.8364003 -0.18842113 1.2172588 -2.3017032e+38
2.8363883 -0.19346683 1.2172588 -2.314891e+38
2.8363764 -0.19851252 1.2172588 -2.341475e+38
2.8163669 -0.20253944 1.2174302 -2.3680078e+38
2.8363526 -0.20860395 1.2172588 -2.36806e+38
2.8163431 -0.21255463 1.2174302 -2.3548196e+38
2.8163311 -0.21756226 1.2174302 -2.328287e+38
2.7963221 -0.22139868 1.2176017 -2.3017547e+38
2.7963102 -0.22636819 1.2176017 -2.3017551e+38
2.7962985 -0.2313377 1.2176017 -2.2885671e+38
2.7962868 -0.2363072 1.2176017 -2.2753791e+38
2.7762783 -0.23995316 1.2177731 -2.2620868e+38
2.7762666 -0.24488458 1.2177731 -2.2621387e+38
2.7762549 -0.249816 1.2177731 -2.2488466e+38
2.7762432 -0.25474742 1.2177731 -2.2754314e+38
2.7762315 -0.25967881 1.2177731 -2.302016e+38
2.7762198 -0.26461023 1.2177731 -2.3019642e+38
2.7762082 -0.26954165 1.2177731 -2.3019642e+38
2.7761965 -0.27447307 1.2177731 -2.3152567e+38
2.7761848 -0.27940449 1.2177731 -2.3153089e+38
2.7761731 -0.28433591 1.2177731 -2.3152571e+38
2.7761614 -0.28926733 1.2177731 -2.3020687e+38
2.7761497 -0.29419872 1.2177731 -2.3154648e+38
2.7761381 -0.29913014 1.2177731 -2.3154648e+38
2.7761264 -0.30406156 1.2177731 -2.3287571e+38
2.7761147 -0.30899298 1.2177731 -2.3420496e+38
2.776103 -0.3139244 1.2177731 -2.3421017e+38
2.7760913 -0.31885579 1.2177731 -2.3421534e+38
2.7760797 -0.32378721 1.2177731 -2.3421534e+38
2.776068 -0.32871863 1.2177731 -2.3289131e+38
2.7760563 -0.33365005 1.2177731 -2.3421536e+38
2.7760446 -0.33858144 1.2177731 -2.3422579e+38
2.7760329 -0.34351289 1.2177731 -2.3422585e+38
2.796016 -0.35060596 1.2176017 -2.3423634e+38
2.7960043 -0.35557547 1.2176017 -2.3023835e+38
2.7759979 -0.35830709 1.2177731 -2.2494738e+38
2.7759862 -0.36323854 1.2177731 -2.9022493e+38
2.7759745 -0.36816993 1.2177731 nan
2.7759628 -0.37310135 1.2177731 nan
2.7759511 -0.37803277 1.2177731 nan
2.8168056 -0.017258037 1.2124226 nan
2.8167937 -0.022265647 1.2124226 -3.0490893e+38
2.816782 -0.027273249 1.2124226 -2.6074188e+38
2.8167701 -0.032280855 1.2124226 -2.1684662e+38
2.7967575 -0.037526805 1.2126321 -2.2888279e+38
2.7967458 -0.042496316 1.2126321 -2.4085621e+38
2.7767336 -0.047627985 1.2128416 -2.4085619e+38
2.776722 -0.052559398 1.2128416 -2.4218546e+38
2.75771 -0.05757248 1.2130407 -2.4218029e+38
2.7576985 -0.062467705 1.2130407 -2.4085108e+38
2.7386866 -0.067372218 1.2132397 -2.408511e+38
2.7386751 -0.072231248 1.2132397 -2.3951668e+38
2.7196636 -0.077027187 1.2134387 -2.3952187e+38
2.7196522 -0.081850037 1.2134387 -2.3952191e+38
2.7196407 -0.08667288 1.2134387 -2.381979e+38
2.7196293 -0.091495723 1.2134387 -2.3687386e+38
2.7196178 -0.096318565 1.2134387 -2.3686865e+38
2.7196066 -0.10114141 1.2134387 -2.3819268e+38
2.7195952 -0.10596426 1.2134387 -2.3686346e+38
2.7195837 -0.1107871 1.2134387 -2.3686344e+38
2.7385716 -0.11596256 1.2132397 -2.3553938e+38
2.73856 -0.1208216 1.2132397 -2.3553936e+38
2.7575476 -0.12610562 1.2130407 -2.3288088e+38
2.7575362 -0.13100085 1.2130407 -2.3155163e+38
2.7575245 -0.13589607 1.2130407 -2.30212e+38
2.7765119 -0.14132488 1.2128416 -2.3020681e+38
2.7765002 -0.14625628 1.2128416 -2.302016e+38
2.7764885 -0.15118769 1.2128416 -2.301964e+38
2.7764769 -0.15611911 1.2128416 -2.301964e+38
2.7964633 -0.16176456 1.2126321 -2.2886714e+38
2.7964516 -0.16673407 1.2126321 -2.288671e+38
2.7964396 -0.17170359 1.2126321 -2.2753779e+38
2.796428 -0.1766731 1.2126321 -2.3016501e+38
2.8364122 -0.18337543 1.212213 -2.3280795e+38
2.8364003 -0.18842113 1.212213 -2.4749182e+38
2.8363883 -0.19346683 1.212213 -2.6336981e+38
2.8363764 -0.19851252 1.212213 -2.5007747e+38
2.8363645 -0.20355824 1.212213 -2.3810926e+38
2.8363526 -0.20860395 1.212213 -2.3547679e+38
2.8163431 -0.21255463 1.2124226 -2.3415273e+38
2.8163311 -0.21756226 1.2124226 -2.3282866e+38
2.7963221 -0.22139868 1.2126321 -2.3150468e+38
2.7963102 -0.22636819 1.2126321 -2.3018069e+38
2.7962985 -0.2313377 1.2126321 -2.2885152e+38
2.7962868 -0.2363072 1.2126321 -2.2753272e+38
2.7962749 -0.24127671 1.2126321 -2.2620351e+38
2.7762666 -0.24488458 1.2128416 -2.2488468e+38
2.7762549 -0.249816 1.2128416 -2.2223142e+38
2.7962396 -0.25618526 1.2126321 -2.2488466e+38
2.7762315 -0.25967881 1.2128416 -2.2754314e+38
2.7762198 -0.26461023 1.2128416 -2.2886718e+38
2.7762082 -0.26954165 1.2128416 -2.3019125e+38
2.7761965 -0.27447307 1.2128416 -2.3019647e+38
2.7761848 -0.27940449 1.2128416 -2.3153608e+38
2.7761731 -0.28433591 1.2128416 -2.3153606e+38
2.7761614 -0.28926733 1.2128416 -2.3154646e+38
2.7761497 -0.29419872 1.2128416 -2.3154646e+38
2.7761381 -0.29913014 1.2128416 -2.3155168e+38
2.7761264 -0.30406156 1.2128416 -2.328809e+38
2.7761147 -0.30899298 1.2128416 -2.3420496e+38
2.776103 -0.3139244 1.2128416 -2.3421015e+38
2.7760913 -0.31885579 1.2128416 -2.3421017e+38
2.7760797 -0.32378721 1.2128416 -2.3288614e+38
2.776068 -0.32871863 1.2128416 -2.3289133e+38
2.7760563 -0.33365005 1.2128416 -2.3422056e+38
2.7760446 -0.33858144 1.2128416 -2.3423102e+38
2.7760329 -0.34351289 1.2128416 -2.3424149e+38
2.7760212 -0.34844428 1.2128416 -2.3558639e+38
2.7960043 -0.35557547 1.2126321 -2.3022802e+38
2.7759979 -0.35830709 1.2128416 -2.2486434e+38
2.7759862 -0.36323854 1.2128416 -2.9819511e+38
2.7759745 -0.36816993 1.2128416 nan
2.7759628 -0.37310135 1.2128416 nan
2.8168056 -0.017258037 1.207415 nan
2.8167937 -0.022265647 1.207415 -2.7964317e+38
2.816782 -0.027273249 1.207415 -2.4867498e+38
2.8167701 -0.032280855 1.207415 -2.1818102e+38
2.8167582 -0.037288461 1.207415 -2.2891912e+38
2.7967458 -0.042496316 1.2076626 -2.3953735e+38
2.7967341 -0.047465827 1.2076626 -2.4086655e+38
2.7967222 -0.052435338 1.2076626 -2.4085621e+38
2.7767103 -0.057490811 1.2079102 -2.4085106e+38
2.7766986 -0.062422227 1.2079102 -2.4085106e+38
2.7576869 -0.067362927 1.2081454 -2.4084587e+38
2.7386751 -0.072231248 1.2083807 -2.4085108e+38
2.7196636 -0.077027187 1.2086159 -2.3952187e+38
2.7196522 -0.081850037 1.2086159 -2.3819266e+38
2.7196407 -0.08667288 1.2086159 -2.3686865e+38
2.7196293 -0.091495723 1.2086159 -2.3553942e+38
2.7196178 -0.096318565 1.2086159 -2.3686346e+38
2.7196066 -0.10114141 1.2086159 -2.3686344e+38
2.7195952 -0.10596426 1.2086159 -2.3553421e+38
2.7195837 -0.1107871 1.2086159 -2.3421017e+38
2.7385716 -0.11596256 1.2083807 -2.3421017e+38
2.7575593 -0.1212104 1.2081454 -2.3420496e+38
2.7575476 -0.12610562 1.2081454 -2.3287571e+38
2.7575362 -0.13100085 1.2081454 -2.3154646e+38
2.7575245 -0.13589607 1.2081454 -2.3154125e+38
2.7765119 -0.14132488 1.2079102 -2.3020683e+38
2.7765002 -0.14625628 1.2079102 -2.3020162e+38
2.7764885 -0.15118769 1.2079102 -2.2887758e+38
2.7964749 -0.15679505 1.2076626 -2.2888277e+38
2.7964633 -0.16176456 1.2076626 -2.2754316e+38
2.7964516 -0.16673407 1.2076626 -2.288672e+38
2.816438 -0.1724938 1.207415 -2.3017561e+38
2.8364241 -0.17832974 1.2071674 -2.3279251e+38
2.8564103 -0.18424183 1.2069197 -2.3553936e+38
2.8563983 -0.18932563 1.2069197 -2.6494867e+38
2.8563862 -0.19440943 1.2069197 -2.9408234e+38
2.8563743 -0.19949323 1.2069197 -2.660021e+38
2.8563621 -0.20457703 1.2069197 -2.3810401e+38
2.8363526 -0.20860395 1.2071674 -2.3549241e+38
2.8363407 -0.21364963 1.2071674 -2.315047e+38
2.8363287 -0.21869534 1.2071674 -2.3283393e+38
2.8163195 -0.22256985 1.207415 -2.3283916e+38
2.8163075 -0.22757745 1.207415 -2.3018075e+38
2.7962985 -0.2313377 1.2076626 -2.2752748e+38
2.7962868 -0.2363072 1.2076626 -2.275327e+38
2.7962749 -0.24127671 1.2076626 -2.2620868e+38
2.7962632 -0.24624625 1.2076626 -2.2355546e+38
2.7962515 -0.25121576 1.2076626 -2.1957297e+38
2.7962396 -0.25618526 1.2076626 -2.2222623e+38
2.7962279 -0.26115477 1.2076626 -2.2488468e+38
2.796216 -0.26612428 1.2076626 -2.2753795e+38
2.7762082 -0.26954165 1.2079102 -2.3019642e+38
2.7961926 -0.27606329 1.2076626 -2.3019645e+38
2.7961807 -0.2810328 1.2076626 -2.3020683e+38
2.796169 -0.28600231 1.2076626 -2.3153606e+38
2.7761614 -0.28926733 1.2079102 -2.3154646e+38
2.7761497 -0.29419872 1.2079102 -2.3154129e+38
2.7761381 -0.29913014 1.2079102 -2.3155168e+38
2.7761264 -0.30406156 1.2079102 -2.3288092e+38
2.7761147 -0.30899298 1.2079102 -2.3421015e+38
2.7960985 -0.31581938 1.2076626 -2.3421017e+38
2.7960865 -0.32078889 1.2076626 -2.3288094e+38
2.7960749 -0.3257584 1.2076626 -2.3287577e+38
2.7960632 -0.33072791 1.2076626 -2.3288618e+38
2.7760563 -0.33365005 1.2079102 -2.342154e+38
2.7760446 -0.33858144 1.2079102 -2.3423104e+38
2.7960279 -0.34563646 1.2076626 -2.3557072e+38
2.796016 -0.35060596 1.2076626 -2.3556558e+38
2.7960043 -0.35557547 1.2076626 -2.3022279e+38
2.7959924 -0.36054498 1.2076626 -2.2493695e+38
2.7959807 -0.36551449 1.2076626 -3.0756708e+38
2.7759745 -0.36816993 1.2079102 nan
2.7759628 -0.37310135 1.2079102 nan
2.8168175 -0.012250438 1.2024074 nan
2.8168056 -0.017258037 1.2024074 nan
2.8167937 -0.022265647 1.2024074 -3.1165884e+38
2.816782 -0.027273249 1.2024074 -2.634107e+38
2.8167701 -0.032280855 1.2024074 -2.1683103e+38
2.8167582 -0.037288461 1.2024074 -2.2887756e+38
2.7967458 -0.042496316 1.2026931 -2.4219059e+38
2.7967341 -0.047465827 1.2026931 -2.4218538e+38
2.7967222 -0.052435338 1.2026931 -2.4084581e+38
2.7967105 -0.057404846 1.2026931 -2.4084585e+38
2.7766986 -0.062422227 1.2029787 -2.4217507e+38
2.7576869 -0.067362927 1.2032502 -2.3952179e+38
2.7576752 -0.072258152 1.2032502 -2.3819779e+38
2.7196636 -0.077027187 1.203793 -2.3819782e+38
2.7196522 -0.081850037 1.203793 -2.3819264e+38
2.7196407 -0.08667288 1.203793 -2.3686861e+38
2.7196293 -0.091495723 1.203793 -2.355394e+38
2.7196178 -0.096318565 1.203793 -2.3553421e+38
2.7196066 -0.10114141 1.203793 -2.3552902e+38
2.7195952 -0.10596426 1.203793 -2.3420496e+38
2.7385831 -0.11110353 1.2035216 -2.3421017e+38
2.7385716 -0.11596256 1.2035216 -2.3421017e+38
2.7575593 -0.1212104 1.2032502 -2.3419977e+38
2.7575476 -0.12610562 1.2032502 -2.3287571e+38
2.7575362 -0.13100085 1.2032502 -2.3154648e+38
2.7575245 -0.13589607 1.2032502 -2.3021204e+38
2.7765119 -0.14132488 1.2029787 -2.3020685e+38
2.7765002 -0.14625628 1.2029787 -2.288776e+38
2.7764885 -0.15118769 1.2029787 -2.2755357e+38
2.7964749 -0.15679505 1.2026931 -2.2754835e+38
2.7964633 -0.16176456 1.2026931 -2.262088e+38
2.8164499 -0.16748619 1.2024074 -2.2487442e+38
2.816438 -0.1724938 1.2024074 -2.222056e+38
2.8364241 -0.17832974 1.2021216 -2.4613171e+38
2.8564103 -0.18424183 1.2018359 -2.714288e+38
2.8563983 -0.18932563 1.2018359 -2.9691279e+38
2.8563862 -0.19440943 1.2018359 -3.2219873e+38
2.8563743 -0.19949323 1.2018359 -2.6738828e+38
2.8563621 -0.20457703 1.2018359 -2.1280708e+38
2.8563502 -0.20966083 1.2018359 -2.2085534e+38
2.8363407 -0.21364963 1.2021216 -2.2885669e+38
2.8363287 -0.21869534 1.2021216 -2.3018592e+38
2.8163195 -0.22256985 1.2024074 -2.3018596e+38
2.8163075 -0.22757745 1.2024074 -2.2885675e+38
2.7962985 -0.2313377 1.2026931 -2.2753789e+38
2.7962868 -0.2363072 1.2026931 -2.2620345e+38
2.7962749 -0.24127671 1.2026931 -2.2487426e+38
2.7962632 -0.24624625 1.2026931 -2.2222621e+38
2.7762549 -0.249816 1.2029787 -2.2090219e+38
2.7762432 -0.25474742 1.2029787 -2.2223142e+38
2.7962279 -0.26115477 1.2026931 -2.2488988e+38
2.7762198 -0.26461023 1.2029787 -2.2754833e+38
2.7762082 -0.26954165 1.2029787 -2.3020681e+38
2.7761965 -0.27447307 1.2029787 -2.3020681e+38
2.7961807 -0.2810328 1.2026931 -2.3021202e+38
2.796169 -0.28600231 1.2026931 -2.2888799e+38
2.7761614 -0.28926733 1.2029787 -2.288932e+38
2.7961454 -0.29594132 1.2026931 -2.3022245e+38
2.7961338 -0.30091083 1.2026931 -2.315517e+38
2.7961218 -0.30588037 1.2026931 -2.3288092e+38
2.7961102 -0.31084988 1.2026931 -2.3288614e+38
2.7960985 -0.31581938 1.2026931 -2.3288094e+38
2.7960865 -0.32078889 1.2026931 -2.3287577e+38
2.7960749 -0.3257584 1.2026931 -2.3155695e+38
2.7960632 -0.33072791 1.2026931 -2.3156216e+38
2.7960513 -0.33569741 1.2026931 -2.3289141e+38
2.7960396 -0.34066692 1.2026931 -2.3422587e+38
2.7960279 -0.34563646 1.2026931 -2.3822396e+38
2.796016 -0.35060596 1.2026931 -2.4088248e+38
2.7960043 -0.35557547 1.2026931 -2.3551889e+38
2.7959924 -0.36054498 1.2026931 -2.3014475e+38
2.7959807 -0.36551449 1.2026931 -3.1150792e+38
2.795969 -0.37048399 1.2026931 nan
2.7759628 -0.37310135 1.2029787 nan
2.7759511 -0.37803277 1.2029787 nan
2.8368065 -0.016867314 1.197076 nan
2.8367946 -0.021913014 1.197076 nan
2.8367827 -0.026958711 1.197076 -2.7780887e+38
2.8167701 -0.032280855 1.1973997 -2.1414657e+38
2.8167582 -0.037288461 1.1973997 -2.3023275e+38
2.8167462 -0.042296063 1.1973997 -2.4484385e+38
2.7967341 -0.047465827 1.1977235 -2.4350424e+38
2.7967222 -0.052435338 1.1977235 -2.4084581e+38
2.7967105 -0.057404846 1.1977235 -2.4217505e+38
2.7966986 -0.062374357 1.1977235 -2.4218025e+38
2.7576869 -0.067362927 1.198355 -2.3953217e+38
2.7576752 -0.072258152 1.198355 -2.3554453e+38
2.7196636 -0.077027187 1.1989702 -2.3687899e+38
2.7196522 -0.081850037 1.1989702 -2.3686861e+38
2.7196407 -0.08667288 1.1989702 -2.3686342e+38
2.7196293 -0.091495723 1.1989702 -2.3553419e+38
2.7196178 -0.096318565 1.1989702 -2.3552902e+38
2.7196066 -0.10114141 1.1989702 -2.3420498e+38
2.7195952 -0.10596426 1.1989702 -2.3421017e+38
2.7385831 -0.11110353 1.1986625 -2.3288094e+38
2.7385716 -0.11596256 1.1986625 -2.3288094e+38
2.7575593 -0.1212104 1.198355 -2.3287575e+38
2.7575476 -0.12610562 1.198355 -2.3287054e+38
2.7575362 -0.13100085 1.198355 -2.315465e+38
2.7575245 -0.13589607 1.198355 -2.3021206e+38
2.7765119 -0.14132488 1.1980474 -2.2888281e+38
2.7765002 -0.14625628 1.1980474 -2.2755357e+38
2.7764885 -0.15118769 1.1980474 -2.2621913e+38
2.7964749 -0.15679505 1.1977235 -2.2621393e+38
2.7964633 -0.16176456 1.1977235 -2.2488475e+38
2.8164499 -0.16748619 1.1973997 -2.1955751e+38
2.816438 -0.1724938 1.1973997 -2.1421979e+38
2.8364241 -0.17832974 1.197076 -2.607583e+38
2.8564103 -0.18424183 1.1967521 -3.0618626e+38
2.8563983 -0.18932563 1.1967521 -3.2774001e+38
2.8563862 -0.19440943 1.1967521 nan
2.8563743 -0.19949323 1.1967521 -2.6854093e+38
2.8563621 -0.20457703 1.1967521 -1.8755173e+38
2.8563502 -0.20966083 1.1967521 -2.0758904e+38
2.856338 -0.21474463 1.1967521 -2.2619823e+38
2.8363287 -0.21869534 1.197076 -2.2752748e+38
2.8163195 -0.22256985 1.1973997 -2.2752748e+38
2.8163075 -0.22757745 1.1973997 -2.2752748e+38
2.7962985 -0.2313377 1.1977235 -2.2619825e+38
2.7962868 -0.2363072 1.1977235 -2.2486383e+38
2.7962749 -0.24127671 1.1977235 -2.235502e+38
2.7962632 -0.24624625 1.1977235 -2.2223138e+38
2.7762549 -0.249816 1.1980474 -2.2090215e+38
2.7962396 -0.25618526 1.1977235 -2.2356063e+38
2.7962279 -0.26115477 1.1977235 -2.2488986e+38
2.7762198 -0.26461023 1.1980474 -2.2754833e+38
2.7962043 -0.27109379 1.1977235 -2.2887756e+38
2.7961926 -0.27606329 1.1977235 -2.2887758e+38
2.7961807 -0.2810328 1.1977235 -2.2888279e+38
2.796169 -0.28600231 1.1977235 -2.275588e+38
2.7961574 -0.29097182 1.1977235 -2.2623996e+38
2.7961454 -0.29594132 1.1977235 -2.289036e+38
2.7961338 -0.30091083 1.1977235 -2.3155687e+38
2.7961218 -0.30588037 1.1977235 -2.3155168e+38
2.7961102 -0.31084988 1.1977235 -2.3155687e+38
2.7960985 -0.31581938 1.1977235 -2.3288092e+38
2.7960865 -0.32078889 1.1977235 -2.3288614e+38
2.7960749 -0.3257584 1.1977235 -2.3156212e+38
2.7960632 -0.33072791 1.1977235 -2.2890368e+38
2.7960513 -0.33569741 1.1977235 -2.3156735e+38
2.7960396 -0.34066692 1.1977235 -2.3423102e+38
2.7960279 -0.34563646 1.1977235 -2.4088237e+38
2.796016 -0.35060596 1.1977235 -2.4618365e+38
2.7960043 -0.35557547 1.1977235 -2.4082514e+38
2.7759979 -0.35830709 1.1980474 -2.3553956e+38
2.7959807 -0.36551449 1.1977235 -3.1690304e+38
2.795969 -0.37048399 1.1977235 nan
2.7759628 -0.37310135 1.1980474 nan
2.7759511 -0.37803277 1.1980474 nan
2.8568077 -0.016476586 1.1916683 nan
2.8567955 -0.021560378 1.1916683 nan
2.8367827 -0.026958711 1.1920302 -2.8201457e+38
2.8367708 -0.032004412 1.1920302 -1.9419253e+38
2.8167582 -0.037288461 1.1923921 -2.1955737e+38
2.8167462 -0.042296063 1.1923921 -2.461731e+38
2.8167346 -0.047303673 1.1923921 -2.4350945e+38
2.7967222 -0.052435338 1.192754 -2.4217503e+38
2.7967105 -0.057404846 1.192754 -2.4218023e+38
2.7966986 -0.062374357 1.192754 -2.4218544e+38
2.7576869 -0.067362927 1.1934597 -2.3952698e+38
2.7576752 -0.072258152 1.1934597 -2.3686337e+38
2.7196636 -0.077027187 1.1941473 -2.3686342e+38
2.7196522 -0.081850037 1.1941473 -2.3685822e+38
2.7196407 -0.08667288 1.1941473 -2.3552897e+38
2.7196293 -0.091495723 1.1941473 -2.3419977e+38
2.7196178 -0.096318565 1.1941473 -2.3421017e+38
2.7196066 -0.10114141 1.1941473 -2.3421538e+38
2.7385945 -0.10624449 1.1938035 -2.3288096e+38
2.7385831 -0.11110353 1.1938035 -2.3287577e+38
2.757571 -0.11631518 1.1934597 -2.3420498e+38
2.7575593 -0.1212104 1.1934597 -2.3552902e+38
2.7575476 -0.12610562 1.1934597 -2.3552902e+38
2.7575362 -0.13100085 1.1934597 -2.3553421e+38
2.7765236 -0.13639346 1.1931159 -2.3287054e+38
2.7765119 -0.14132488 1.1931159 -2.3154129e+38
2.7765002 -0.14625628 1.1931159 -2.3020683e+38
2.7764885 -0.15118769 1.1931159 -2.2887239e+38
2.7964749 -0.15679505 1.192754 -2.2754314e+38
2.7964633 -0.16176456 1.192754 -2.2621917e+38
2.8164499 -0.16748619 1.1923921 -2.1687826e+38
2.816438 -0.1724938 1.1923921 -2.0618724e+38
2.8364241 -0.17832974 1.1920302 -2.6884261e+38
2.8364122 -0.18337543 1.1920302 -3.3290604e+38
2.8563983 -0.18932563 1.1916683 nan
2.8563862 -0.19440943 1.1916683 nan
2.8563743 -0.19949323 1.1916683 -2.7004146e+38
2.8563621 -0.20457703 1.1916683 -1.8754651e+38
2.8563502 -0.20966083 1.1916683 -2.0756308e+38
2.856338 -0.21474463 1.1916683 -2.288619e+38
2.8363287 -0.21869534 1.1920302 -2.2885152e+38
2.8163195 -0.22256985 1.1923921 -2.2884631e+38
2.8163075 -0.22757745 1.1923921 -2.2885148e+38
2.8162956 -0.23258507 1.1923921 -2.2885669e+38
2.7962868 -0.2363072 1.192754 -2.2619823e+38
2.7962749 -0.24127671 1.192754 -2.2355018e+38
2.7962632 -0.24624625 1.192754 -2.2222615e+38
2.7962515 -0.25121576 1.192754 -2.2222098e+38
2.7962396 -0.25618526 1.192754 -2.235554e+38
2.7962279 -0.26115477 1.192754 -2.2488984e+38
2.796216 -0.26612428 1.192754 -2.2754831e+38
2.7962043 -0.27109379 1.192754 -2.2888275e+38
2.7961926 -0.27606329 1.192754 -2.2888275e+38
2.7961807 -0.2810328 1.192754 -2.2888281e+38
2.796169 -0.28600231 1.192754 -2.2756401e+38
2.7961574 -0.29097182 1.192754 -2.2624517e+38
2.7961454 -0.29594132 1.192754 -2.2757438e+38
2.7961338 -0.30091083 1.192754 -2.3023281e+38
2.7961218 -0.30588037 1.192754 -2.3023279e+38
2.7961102 -0.31084988 1.192754 -2.3156723e+38
2.7960985 -0.31581938 1.192754 -2.3156206e+38
2.7960865 -0.32078889 1.192754 -2.3289131e+38
2.7960749 -0.3257584 1.192754 -2.3156208e+38
2.7960632 -0.33072791 1.192754 -2.3155693e+38
2.7960513 -0.33569741 1.192754 -2.3422579e+38
2.7760446 -0.33858144 1.1931159 -2.3556542e+38
2.7960279 -0.34563646 1.192754 -2.4221156e+38
2.796016 -0.35060596 1.192754 -2.4885752e+38
2.7960043 -0.35557547 1.192754 -2.4346771e+38
2.7959924 -0.36054498 1.192754 -2.3802669e+38
2.7959807 -0.36551449 1.192754 -3.208547e+38
2.795969 -0.37048399 1.192754 nan
2.7959571 -0.3754535 1.192754 nan
2.7959454 -0.38042301 1.192754 nan
2.8568077 -0.016476586 1.1865845 nan
2.8567955 -0.021560378 1.1865845 nan
2.8367827 -0.026958711 1.1869845 -2.8713412e+38
2.8367708 -0.032004412 1.1869845 -1.7424369e+38
2.8167582 -0.037288461 1.1873845 -2.1029429e+38
2.8167462 -0.042296063 1.1873845 -2.4617825e+38
2.8167346 -0.047303673 1.1873845 -2.4484385e+38
2.8167226 -0.052311279 1.1873845 -2.421854e+38
2.7967105 -0.057404846 1.1877844 -2.4218542e+38
2.7966986 -0.062374357 1.1877844 -2.4219063e+38
2.7766869 -0.067353643 1.1881845 -2.3953217e+38
2.7576752 -0.072258152 1.1885645 -2.3686337e+38
2.7386637 -0.077090286 1.1889445 -2.3685822e+38
2.7196522 -0.081850037 1.1893245 -2.368582e+38
2.7196407 -0.08667288 1.1893245 -2.3552897e+38
2.7196293 -0.091495723 1.1893245 -2.3288092e+38
2.7196178 -0.096318565 1.1893245 -2.3288612e+38
2.7386062 -0.10138546 1.1889445 -2.3288092e+38
2.7385945 -0.10624449 1.1889445 -2.3287575e+38
2.7385831 -0.11110353 1.1889445 -2.3287575e+38
2.757571 -0.11631518 1.1885645 -2.3553423e+38
2.7575593 -0.1212104 1.1885645 -2.3685826e+38
2.7575476 -0.12610562 1.1885645 -2.3818749e+38
2.7765353 -0.13146204 1.1881845 -2.381823e+38
2.7765236 -0.13639346 1.1881845 -2.3684267e+38
2.7765119 -0.14132488 1.1881845 -2.3418419e+38
2.7765002 -0.14625628 1.1881845 -2.3285492e+38
2.7964869 -0.15182555 1.1877844 -2.3019642e+38
2.7964749 -0.15679505 1.1877844 -2.2886718e+38
2.7964633 -0.16176456 1.1877844 -2.2753274e+38
2.8164499 -0.16748619 1.1873845 -2.1289046e+38
2.816438 -0.1724938 1.1873845 -1.9827424e+38
2.816426 -0.17750141 1.1873845 -2.7816824e+38
2.8364122 -0.18337543 1.1869845 nan
2.8563983 -0.18932563 1.1865845 nan
2.8563862 -0.19440943 1.1865845 nan
2.8563743 -0.19949323 1.1865845 -2.7120955e+38
2.8563621 -0.20457703 1.1865845 -1.8619641e+38
2.8363526 -0.20860395 1.1869845 -2.0891825e+38
2.8363407 -0.21364963 1.1869845 -2.3018071e+38
2.8363287 -0.21869534 1.1869845 -2.3017032e+38
2.8163195 -0.22256985 1.1873845 -2.2884627e+38
2.8163075 -0.22757745 1.1873845 -2.3017549e+38
2.8162956 -0.23258507 1.1873845 -2.3018071e+38
2.8162837 -0.23759267 1.1873845 -2.2619825e+38
2.816272 -0.24260026 1.1873845 -2.2221576e+38
2.7962632 -0.24624625 1.1877844 -2.2222096e+38
2.7962515 -0.25121576 1.1877844 -2.2222098e+38
2.7962396 -0.25618526 1.1877844 -2.2355022e+38
2.7962279 -0.26115477 1.1877844 -2.2488464e+38
2.796216 -0.26612428 1.1877844 -2.2753793e+38
2.7962043 -0.27109379 1.1877844 -2.2887235e+38
2.7961926 -0.27606329 1.1877844 -2.2887756e+38
2.7961807 -0.2810328 1.1877844 -2.2755357e+38
2.796169 -0.28600231 1.1877844 -2.2755882e+38
2.7961574 -0.29097182 1.1877844 -2.2623476e+38
2.7961454 -0.29594132 1.1877844 -2.2756399e+38
2.7961338 -0.30091083 1.1877844 -2.2756916e+38
2.7961218 -0.30588037 1.1877844 -2.3023281e+38
2.7961102 -0.31084988 1.1877844 -2.3156206e+38
2.7960985 -0.31581938 1.1877844 -2.3156208e+38
2.7960865 -0.32078889 1.1877844 -2.315621e+38
2.7960749 -0.3257584 1.1877844 -2.3289135e+38
2.7960632 -0.33072791 1.1877844 -2.342206e+38
2.7960513 -0.33569741 1.1877844 -2.3555504e+38
2.7960396 -0.34066692 1.1877844 -2.3689465e+38
2.7960279 -0.34563646 1.1877844 -2.4354598e+38
2.796016 -0.35060596 1.1877844 -2.5018156e+38
2.7960043 -0.35557547 1.1877844 -2.4483331e+38
2.7959924 -0.36054498 1.1877844 -2.3959473e+38
2.7959807 -0.36551449 1.1877844 -3.2368963e+38
2.795969 -0.37048399 1.1877844 nan
2.7959571 -0.3754535 1.1877844 nan
2.8568077 -0.016476586 1.1815007 nan
2.8777962 -0.021190118 1.1810406 nan
2.8367827 -0.026958711 1.1819388 -2.8998982e+38
2.8367708 -0.032004412 1.1819388 -1.7682422e+38
2.8167582 -0.037288461 1.1823769 -2.1289559e+38
2.8167462 -0.042296063 1.1823769 -2.4750227e+38
2.8167346 -0.047303673 1.1823769 -2.4484381e+38
2.7967222 -0.052435338 1.182815 -2.4351982e+38
2.7967105 -0.057404846 1.182815 -2.4219061e+38
2.7966986 -0.062374357 1.182815 -2.4086659e+38
2.7576869 -0.067362927 1.1836692 -2.3953217e+38
2.7576752 -0.072258152 1.1836692 -2.3951664e+38
2.7386637 -0.077090286 1.1840855 -2.3686339e+38
2.7386522 -0.081949316 1.1840855 -2.3553417e+38
2.7196407 -0.08667288 1.1845016 -2.3420494e+38
2.7196293 -0.091495723 1.1845016 -2.328861e+38
2.7386177 -0.096526422 1.1840855 -2.3155168e+38
2.7386062 -0.10138546 1.1840855 -2.3155168e+38
2.7385945 -0.10624449 1.1840855 -2.3154648e+38
2.7575824 -0.11141995 1.1836692 -2.3287056e+38
2.757571 -0.11631518 1.1836692 -2.3552904e+38
2.7575593 -0.1212104 1.1836692 -2.3685309e+38
2.7575476 -0.12610562 1.1836692 -2.3685309e+38
2.7765353 -0.13146204 1.183253 -2.3817193e+38
2.7765236 -0.13639346 1.183253 -2.3683749e+38
2.7765119 -0.14132488 1.183253 -2.3550305e+38
2.7765002 -0.14625628 1.183253 -2.3284975e+38
2.7964869 -0.15182555 1.182815 -2.3019125e+38
2.7964749 -0.15679505 1.182815 -2.3019119e+38
2.7964633 -0.16176456 1.182815 -2.288619e+38
2.8164499 -0.16748619 1.1823769 -2.1552283e+38
2.816438 -0.1724938 1.1823769 -2.0350816e+38
2.816426 -0.17750141 1.1823769 -2.7824117e+38
2.8364122 -0.18337543 1.1819388 nan
2.8563983 -0.18932563 1.1815007 nan
2.8563862 -0.19440943 1.1815007 nan
2.8563743 -0.19949323 1.1815007 -2.740028e+38
2.8563621 -0.20457703 1.1815007 -1.7945671e+38
2.8363526 -0.20860395 1.1819388 -2.0487343e+38
2.8363407 -0.21364963 1.1819388 -2.3017028e+38
2.8363287 -0.21869534 1.1819388 -2.3017545e+38
2.8363166 -0.22374102 1.1819388 -2.3017026e+38
2.8163075 -0.22757745 1.1823769 -2.3017545e+38
2.8162956 -0.23258507 1.1823769 -2.3017032e+38
2.8162837 -0.23759267 1.1823769 -2.2619306e+38
2.816272 -0.24260026 1.1823769 -2.2220538e+38
2.7962632 -0.24624625 1.182815 -2.2354499e+38
2.7962515 -0.25121576 1.182815 -2.235554e+38
2.7962396 -0.25618526 1.182815 -2.2487945e+38
2.7962279 -0.26115477 1.182815 -2.2620868e+38
2.796216 -0.26612428 1.182815 -2.2752752e+38
2.7962043 -0.27109379 1.182815 -2.2885677e+38
2.7961926 -0.27606329 1.182815 -2.2886718e+38
2.7961807 -0.2810328 1.182815 -2.2754318e+38
2.796169 -0.28600231 1.182815 -2.2755361e+38
2.7961574 -0.29097182 1.182815 -2.2623476e+38
2.7961454 -0.29594132 1.182815 -2.2756397e+38
2.7961338 -0.30091083 1.182815 -2.3022762e+38
2.7961218 -0.30588037 1.182815 -2.3022762e+38
2.7961102 -0.31084988 1.182815 -2.3155168e+38
2.7960985 -0.31581938 1.182815 -2.3288612e+38
2.7960865 -0.32078889 1.182815 -2.3421538e+38
2.7960749 -0.3257584 1.182815 -2.342154e+38
2.7960632 -0.33072791 1.182815 -2.3555504e+38
2.7960513 -0.33569741 1.182815 -2.3556023e+38
2.7960396 -0.34066692 1.182815 -2.3557061e+38
2.7960279 -0.34563646 1.182815 -2.4221673e+38
2.796016 -0.35060596 1.182815 -2.4754387e+38
2.7960043 -0.35557547 1.182815 -2.4884176e+38
2.7959924 -0.36054498 1.182815 -2.501818e+38
2.7959807 -0.36551449 1.182815 -3.3024223e+38
2.795969 -0.37048399 1.182815 nan
2.7959571 -0.3754535 1.182815 nan
2.8778083 -0.01606632 1.1759169 nan
2.8777962 -0.021190118 1.1759169 nan
2.8567836 -0.026644178 1.1764169 -2.9244588e+38
2.8367708 -0.032004412 1.176893 -1.7953466e+38
2.8367589 -0.037050113 1.176893 -2.1429757e+38
2.8167462 -0.042296063 1.1773692 -2.488419e+38
2.8167346 -0.047303673 1.1773692 -2.4617306e+38
2.8167226 -0.052311279 1.1773692 -2.435198e+38
2.7967105 -0.057404846 1.1778455 -2.4219576e+38
2.7966986 -0.062374357 1.1778455 -2.3953735e+38
2.7766869 -0.067353643 1.1783216 -2.408614e+38
2.7766752 -0.072285056 1.1783216 -2.4085625e+38
2.7386637 -0.077090286 1.1792264 -2.3686861e+38
2.7386522 -0.081949316 1.1792264 -2.3288092e+38
2.7386405 -0.086808354 1.1792264 -2.3287573e+38
2.7386291 -0.091667384 1.1792264 -2.315517e+38
2.7386177 -0.096526422 1.1792264 -2.3021725e+38
2.7386062 -0.10138546 1.1792264 -2.2888803e+38
2.7575941 -0.10652473 1.178774 -2.3154127e+38
2.7575824 -0.11141995 1.178774 -2.3286533e+38
2.757571 -0.11631518 1.178774 -2.3551859e+38
2.7575593 -0.1212104 1.178774 -2.3684782e+38
2.7575476 -0.12610562 1.178774 -2.3684784e+38
2.7765353 -0.13146204 1.1783216 -2.3684265e+38
2.7765236 -0.13639346 1.1783216 -2.3683228e+38
2.7765119 -0.14132488 1.1783216 -2.3550301e+38
2.7765002 -0.14625628 1.1783216 -2.3283934e+38
2.7964869 -0.15182555 1.1778455 -2.3018604e+38
2.7964749 -0.15679505 1.1778455 -2.3018602e+38
2.7964633 -0.16176456 1.1778455 -2.3017557e+38
2.8164499 -0.16748619 1.1773692 -2.1948979e+38
2.816438 -0.1724938 1.1773692 -2.0760486e+38
2.816426 -0.17750141 1.1773692 -2.7964305e+38
2.8364122 -0.18337543 1.176893 nan
2.8563983 -0.18932563 1.1764169 nan
2.8563862 -0.19440943 1.1764169 nan
2.8563743 -0.19949323 1.1764169 -2.7649512e+38
2.8563621 -0.20457703 1.1764169 -1.7153846e+38
2.8363526 -0.20860395 1.176893 -2.0095327e+38
2.8363407 -0.21364963 1.176893 -2.2885146e+38
2.8363287 -0.21869534 1.176893 -2.3018067e+38
2.8363166 -0.22374102 1.176893 -2.3017547e+38
2.8363047 -0.22878674 1.176893 -2.3017547e+38
2.8162956 -0.23258507 1.1773692 -2.2884629e+38
2.8162837 -0.23759267 1.1773692 -2.2619306e+38
