# .PCD v0.7 - Point Cloud Data file format
VERSION 0.7
FIELDS x y z rgb
SIZE 4 4 4 4
TYPE F F F F
COUNT 1 1 1 1
WIDTH 1066
HEIGHT 1
VIEWPOINT 0 0 0 1 0 0 0
POINTS 1066
DATA ascii
2.1405911 0.92177069 1.6349274 nan
2.1405821 0.91806209 1.6349274 nan
2.1405733 0.91435361 1.6349274 nan
2.1405644 0.91064501 1.6349274 nan
2.1295424 0.90142095 1.6326959 nan
2.1295333 0.89773333 1.6326959 -3.0631136e+38
2.1295245 0.89404577 1.6326959 -2.7165278e+38
2.1295156 0.89035815 1.6326959 -2.7828334e+38
2.1184936 0.88123888 1.6304646 -2.8491901e+38
2.118485 0.87757218 1.6304646 -2.7959164e+38
2.1184759 0.8739056 1.6304646 -2.7427468e+38
2.1184673 0.8702389 1.6304646 -2.7291943e+38
2.1084466 0.86171055 1.628436 -2.7290909e+38
2.108438 0.85806292 1.628436 -2.7156431e+38
2.1084292 0.8544153 1.628436 -2.7022467e+38
2.1084204 0.85076773 1.628436 -2.6757137e+38
2.1084118 0.84712011 1.628436 -2.6625768e+38
2.108403 0.84347254 1.628436 -2.6625244e+38
2.1083941 0.83982491 1.628436 -2.64918e+38
2.1183968 0.84090561 1.6304646 -2.6226989e+38
2.1183882 0.83723897 1.6304646 -2.5961142e+38
2.1183791 0.83357233 1.6304646 -2.595958e+38
2.1293828 0.83504397 1.6326959 -2.5958543e+38
2.129374 0.83135641 1.6326959 -2.5958026e+38
2.1293652 0.82766879 1.6326959 -2.6090432e+38
2.1293564 0.82398117 1.6326959 -2.6223874e+38
2.1183352 0.81523901 1.6304646 -2.6357316e+38
2.1183264 0.81157237 1.6304646 -2.6489719e+38
2.1183176 0.80790573 1.6304646 -2.6488683e+38
2.118309 0.80423909 1.6304646 -2.6356279e+38
2.1183 0.8005724 1.6304646 -2.6223878e+38
2.1182914 0.79690576 1.6304646 -2.6091476e+38
2.1182823 0.79323906 1.6304646 -2.5959079e+38
2.1182737 0.78957248 1.6304646 -2.6092525e+38
2.1182649 0.78590584 1.6304646 -2.6226488e+38
2.1182561 0.78223914 1.6304646 -2.6225971e+38
2.1182473 0.7785725 1.6304646 -2.6225971e+38
2.1182384 0.7749058 1.6304646 -2.622649e+38
2.1182296 0.77123916 1.6304646 -2.6093048e+38
2.1182208 0.76757252 1.6304646 -2.5960643e+38
2.1182122 0.76390588 1.6304646 -2.5961681e+38
2.1182032 0.76023918 1.6304646 -2.6093563e+38
2.1181946 0.75657254 1.6304646 -2.6359405e+38
2.1181855 0.75290585 1.6304646 -2.6491285e+38
2.1181769 0.74923921 1.6304646 -2.6490247e+38
2.1291795 0.750229 1.6326959 -2.6358362e+38
2.1291704 0.74654144 1.6326959 -2.6358362e+38
2.1291618 0.74285382 1.6326959 -2.622492e+38
2.1291528 0.7391662 1.6326959 -2.6224405e+38
2.129144 0.73547858 1.6326959 -2.6224407e+38
2.1291351 0.73179096 1.6326959 -2.6356292e+38
2.1291263 0.7281034 1.6326959 -2.6223369e+38
2.1291175 0.72441578 1.6326959 -2.6090959e+38
2.1291084 0.72072816 1.6326959 -2.5825627e+38
2.1401105 0.72150838 1.6349274 -2.5559779e+38
2.1401014 0.71779984 1.6349274 -2.5559777e+38
2.1400926 0.71409124 1.6349274 -2.5692183e+38
2.1400838 0.7103827 1.6349274 -2.5559262e+38
2.1400747 0.70667416 1.6349274 -2.5559264e+38
2.1400659 0.70296562 1.6349274 -2.5426343e+38
2.1400571 0.69925702 1.6349274 -2.5159461e+38
2.140048 0.69554847 1.6349274 -2.5159982e+38
2.1400392 0.69183987 1.6349274 -2.5159982e+38
2.1400304 0.68813133 1.6349274 -2.5292903e+38
2.1400213 0.68442279 1.6349274 -2.5425826e+38
2.1510227 0.68495166 1.6371589 -2.5425307e+38
2.1510139 0.68122214 1.6371589 -2.555771e+38
2.1510048 0.67749262 1.6371589 -2.569115e+38
2.1509957 0.6737631 1.6371589 -2.5824592e+38
2.1509869 0.67003357 1.6371589 -2.5957515e+38
2.1509781 0.66630405 1.6371589 -2.6090442e+38
2.150969 0.66257459 1.6371589 -2.6223367e+38
2.15096 0.65884507 1.6371589 -2.635629e+38
2.1619611 0.65918529 1.6393902 -2.6224403e+38
2.161952 0.65543485 1.6393902 -2.6092004e+38
2.161943 0.65168434 1.6393902 -2.6224409e+38
2.1729436 0.65194082 1.6416216 -2.6224933e+38
2.1729345 0.6481694 1.6416216 -2.595857e+38
2.1729255 0.64439797 1.6416216 -2.5825643e+38
2.1729164 0.64062655 1.6416216 -2.5692197e+38
2.1729074 0.63685513 1.6416216 -2.5559791e+38
2.1728983 0.6330837 1.6416216 -2.5559789e+38
2.1728892 0.62931228 1.6416216 -2.5559272e+38
2.1728802 0.62554085 1.6416216 -2.5558753e+38
2.1728711 0.62176949 1.6416216 -2.5558233e+38
2.1848722 0.62216353 1.644056 -2.5292386e+38
2.1848631 0.61836928 1.644056 -2.5159463e+38
2.184854 0.61457497 1.644056 -2.5292384e+38
2.1848447 0.61078072 1.644056 -2.5425309e+38
2.1958447 0.61072093 1.6462874 -2.5558751e+38
2.1958356 0.6069057 1.6462874 -2.5692714e+38
2.1958265 0.60309047 1.6462874 -2.5825118e+38
2.195817 0.59927529 1.6462874 -2.6090967e+38
2.2078176 0.59944272 1.6487217 -2.6089933e+38
2.2078085 0.5956046 1.6487217 -2.6222336e+38
2.2077994 0.59176654 1.6487217 -2.6089931e+38
2.2197995 0.59184247 1.6511559 -2.6090448e+38
2.2197905 0.58798152 1.6511559 -2.58246e+38
2.2197809 0.58412057 1.6511559 -2.5691678e+38
2.231781 0.58410513 1.6535902 -2.582512e+38
2.2437806 0.58404398 1.6560245 -2.5825641e+38
2.2317624 0.57633758 1.6535902 -2.5958046e+38
2.243762 0.5762307 1.6560245 -2.6090454e+38
2.2437525 0.57232404 1.6560245 -2.6090975e+38
2.2557526 0.57214856 1.6584588 -2.6092014e+38
2.255743 0.56821907 1.6584588 -2.6092014e+38
2.2557335 0.56428951 1.6584588 -2.6092014e+38
2.2687335 0.56432778 1.661096 -2.5959608e+38
2.268724 0.5603736 1.661096 -2.5960123e+38
2.2687149 0.55641931 1.661096 -2.5827714e+38
2.2807136 0.55605906 1.6635302 -2.5694274e+38
2.280704 0.55208194 1.6635302 -2.5827196e+38
2.293704 0.55194885 1.6661674 -2.5825637e+38
2.2936945 0.54794693 1.6661674 -2.5825635e+38
2.293685 0.54394501 1.6661674 -2.5691676e+38
2.3066845 0.54371285 1.6688045 -2.5425311e+38
2.3066745 0.53968626 1.6688045 -2.5159988e+38
2.3196735 0.53937984 1.6714417 -2.5027068e+38
2.319664 0.53532839 1.6714417 -2.4895181e+38
2.3196545 0.531277 1.6714417 -2.4762256e+38
2.3326535 0.53087145 1.6740788 -2.4761733e+38
2.3326435 0.52679527 1.6740788 -2.4760169e+38
2.3456426 0.52631551 1.676716 -2.4759652e+38
2.359642 0.52606094 1.6795559 -2.5159978e+38
2.373641 0.52575314 1.6823959 -2.5560308e+38
2.3736315 0.52159882 1.6823959 -2.5960636e+38
2.3736215 0.51744461 1.6823959 -2.6360967e+38
2.3736115 0.51329029 1.6823959 -2.6226488e+38
2.3736014 0.50913602 1.6823959 -2.622388e+38
2.3865995 0.50840479 1.6850331 -2.6094577e+38
2.1406267 0.93660498 1.6312188 nan
2.1406178 0.93289638 1.6312188 nan
2.1406088 0.92918777 1.6312188 nan
2.1295865 0.91985899 1.6290083 nan
2.1295776 0.91617137 1.6290083 nan
2.1295686 0.91248381 1.6290083 nan
2.1405733 0.91435361 1.6312188 nan
2.1405644 0.91064501 1.6312188 nan
2.1295424 0.90142095 1.6290083 -3.2639581e+38
2.1295333 0.89773333 1.6290083 -2.996236e+38
2.1295245 0.89404577 1.6290083 -2.7297158e+38
2.1295156 0.89035815 1.6290083 -2.7822623e+38
2.1295068 0.88667053 1.6290083 -2.8356383e+38
2.118485 0.87757218 1.6267979 -2.7824685e+38
2.1184759 0.8739056 1.6267979 -2.7291432e+38
2.1184673 0.8702389 1.6267979 -2.7422793e+38
2.1084466 0.86171055 1.6247883 -2.7422274e+38
2.1184497 0.86290556 1.6267979 -2.7288315e+38
2.1184409 0.85923892 1.6267979 -2.7155388e+38
2.1084204 0.85076773 1.6247883 -2.6889021e+38
2.1084118 0.84712011 1.6247883 -2.662421e+38
2.108403 0.84347254 1.6247883 -2.6624206e+38
2.1184058 0.84457231 1.6267979 -2.64918e+38
2.1183968 0.84090561 1.6267979 -2.6226989e+38
2.1183882 0.83723897 1.6267979 -2.5959584e+38
2.1183791 0.83357233 1.6267979 -2.6090947e+38
2.1293828 0.83504397 1.6290083 -2.6223353e+38
2.129374 0.83135641 1.6290083 -2.5957509e+38
2.1293652 0.82766879 1.6290083 -2.5691667e+38
2.1183441 0.81890571 1.6267979 -2.5825111e+38
2.1183352 0.81523901 1.6267979 -2.5825111e+38
2.1183264 0.81157237 1.6267979 -2.5825111e+38
2.1183176 0.80790573 1.6267979 -2.5825109e+38
2.118309 0.80423909 1.6267979 -2.6090955e+38
2.1183 0.8005724 1.6267979 -2.6223882e+38
2.1182914 0.79690576 1.6267979 -2.6223365e+38
2.1182823 0.79323906 1.6267979 -2.6092004e+38
2.1182737 0.78957248 1.6267979 -2.6225452e+38
2.1182649 0.78590584 1.6267979 -2.6225971e+38
2.1182561 0.78223914 1.6267979 -2.6225973e+38
2.1182473 0.7785725 1.6267979 -2.6225971e+38
2.1182384 0.7749058 1.6267979 -2.6226488e+38
2.1182296 0.77123916 1.6267979 -2.6226488e+38
2.1182208 0.76757252 1.6267979 -2.6093565e+38
2.1182122 0.76390588 1.6267979 -2.5961162e+38
2.1182032 0.76023918 1.6267979 -2.622545e+38
2.1181946 0.75657254 1.6267979 -2.6491808e+38
2.1181855 0.75290585 1.6267979 -2.6624208e+38
2.1181769 0.74923921 1.6267979 -2.6623689e+38
2.1291795 0.750229 1.6290083 -2.6624208e+38
2.1291704 0.74654144 1.6290083 -2.6490768e+38
2.1291618 0.74285382 1.6290083 -2.6357326e+38
2.1291528 0.7391662 1.6290083 -2.6090963e+38
2.129144 0.73547858 1.6290083 -2.6090965e+38
2.1291351 0.73179096 1.6290083 -2.6090965e+38
2.1291263 0.7281034 1.6290083 -2.5957523e+38
2.1291175 0.72441578 1.6290083 -2.5692714e+38
2.1291084 0.72072816 1.6290083 -2.5560826e+38
2.1290998 0.71704054 1.6290083 -2.5427382e+38
2.1290908 0.71335292 1.6290083 -2.5560304e+38
2.129082 0.7096653 1.6290083 -2.5559266e+38
2.1290731 0.70597774 1.6290083 -2.5558747e+38
2.1290643 0.70229012 1.6290083 -2.5559264e+38
2.1400659 0.70296562 1.6312188 -2.5426341e+38
2.1400571 0.69925702 1.6312188 -2.5292382e+38
2.140048 0.69554847 1.6312188 -2.5291863e+38
2.1400392 0.69183987 1.6312188 -2.5159459e+38
2.1400304 0.68813133 1.6312188 -2.5292901e+38
2.1510315 0.68868113 1.6334293 -2.5292382e+38
2.1510227 0.68495166 1.6334293 -2.5558229e+38
2.1510139 0.68122214 1.6334293 -2.5690631e+38
2.1510048 0.67749262 1.6334293 -2.5956477e+38
2.1509957 0.6737631 1.6334293 -2.6089919e+38
2.1509869 0.67003357 1.6334293 -2.6089921e+38
2.1509781 0.66630405 1.6334293 -2.6089923e+38
2.161979 0.66668618 1.6356398 -2.6223367e+38
2.1619699 0.66293579 1.6356398 -2.6356287e+38
2.1619611 0.65918529 1.6356398 -2.6224403e+38
2.161952 0.65543485 1.6356398 -2.595804e+38
2.161943 0.65168434 1.6356398 -2.6090446e+38
2.1619339 0.6479339 1.6356398 -2.6223892e+38
2.1729345 0.6481694 1.6378503 -2.595857e+38
2.1729255 0.64439797 1.6378503 -2.5692201e+38
2.1729164 0.64062655 1.6378503 -2.5692197e+38
2.1729074 0.63685513 1.6378503 -2.556083e+38
2.1728983 0.6330837 1.6378503 -2.5693748e+38
2.1728892 0.62931228 1.6378503 -2.5692712e+38
2.1728802 0.62554085 1.6378503 -2.5691676e+38
2.1728711 0.62176949 1.6378503 -2.5691154e+38
2.1728621 0.61799806 1.6378503 -2.5558231e+38
2.1848631 0.61836928 1.6402617 -2.5292386e+38
2.184854 0.61457497 1.6402617 -2.5292384e+38
2.1848447 0.61078072 1.6402617 -2.5292903e+38
2.1958447 0.61072093 1.6424721 -2.5426345e+38
2.1958356 0.6069057 1.6424721 -2.5559268e+38
2.1958265 0.60309047 1.6424721 -2.5824073e+38
2.2078271 0.60328072 1.6448836 -2.6089923e+38
2.2078176 0.59944272 1.6448836 -2.6221811e+38
2.2078085 0.5956046 1.6448836 -2.622233e+38
2.2077994 0.59176654 1.6448836 -2.6089927e+38
2.2077899 0.58792841 1.6448836 -2.5957523e+38
2.2197905 0.58798152 1.647295 -2.58246e+38
2.2197809 0.58412057 1.647295 -2.5692197e+38
2.231781 0.58410513 1.6497064 -2.582512e+38
2.2317715 0.58022135 1.6497064 -2.5825639e+38
2.2317624 0.57633758 1.6497064 -2.5957525e+38
2.243762 0.5762307 1.6521178 -2.5958046e+38
2.2437525 0.57232404 1.6521178 -2.5958568e+38
2.2557526 0.57214856 1.6545293 -2.5959089e+38
2.255743 0.56821907 1.6545293 -2.6091497e+38
2.2557335 0.56428951 1.6545293 -2.6092014e+38
2.255724 0.56036007 1.6545293 -2.5959608e+38
2.268724 0.5603736 1.6571417 -2.5694278e+38
2.2687149 0.55641931 1.6571417 -2.5694795e+38
2.2807136 0.55605906 1.6595531 -2.5694276e+38
2.280704 0.55208194 1.6595531 -2.5827718e+38
2.293704 0.55194885 1.6621654 -2.5826158e+38
2.2936945 0.54794693 1.6621654 -2.582512e+38
2.306694 0.54773951 1.6647779 -2.5690639e+38
2.3066845 0.54371285 1.6647779 -2.5290313e+38
2.3196836 0.54343122 1.6673902 -2.4760179e+38
2.3196735 0.53937984 1.6673902 -2.4760701e+38
2.319664 0.53532839 1.6673902 -2.4628295e+38
2.3196545 0.531277 1.6673902 -2.4761218e+38
2.3326535 0.53087145 1.6700026 -2.4894135e+38
2.3326435 0.52679527 1.6700026 -2.5026015e+38
2.3456426 0.52631551 1.6726151 -2.5026015e+38
2.359642 0.52606094 1.6754284 -2.5425305e+38
2.373641 0.52575314 1.6782417 -2.5692191e+38
2.3736315 0.52159882 1.6782417 -2.6092521e+38
2.3736215 0.51744461 1.6782417 -2.635889e+38
2.3736115 0.51329029 1.6782417 -2.6891625e+38
2.3736014 0.50913602 1.6782417 -2.7289347e+38
2.3735914 0.50498176 1.6782417 -2.7289341e+38
2.1406355 0.94031358 1.6275102 nan
2.1406267 0.93660498 1.6275102 nan
2.1406178 0.93289638 1.6275102 nan
2.1406088 0.92918777 1.6275102 nan
2.1406 0.92547923 1.6275102 nan
2.1295776 0.91617137 1.6253207 nan
2.1295686 0.91248381 1.6253207 nan
2.1405733 0.91435361 1.6275102 nan
2.1405644 0.91064501 1.6275102 -3.3976135e+38
2.1295424 0.90142095 1.6253207 -3.0912611e+38
2.1295333 0.89773333 1.6253207 -2.8900006e+38
2.1295245 0.89404577 1.6253207 -2.7029231e+38
2.1295156 0.89035815 1.6253207 -2.7692296e+38
2.1295068 0.88667053 1.6253207 -2.8355865e+38
2.118485 0.87757218 1.6231312 -2.7822608e+38
2.1184759 0.8739056 1.6231312 -2.7420723e+38
2.1184673 0.8702389 1.6231312 -2.7288317e+38
2.1184585 0.86657226 1.6231312 -2.7287276e+38
2.1184497 0.86290556 1.6231312 -2.7021948e+38
2.1184409 0.85923892 1.6231312 -2.6889023e+38
2.118432 0.85557222 1.6231312 -2.6756098e+38
2.1184232 0.85190564 1.6231312 -2.6623172e+38
2.1184144 0.84823895 1.6231312 -2.6623687e+38
2.1184058 0.84457231 1.6231312 -2.6624204e+38
2.1183968 0.84090561 1.6231312 -2.6491277e+38
2.1183882 0.83723897 1.6231312 -2.6224393e+38
2.1183791 0.83357233 1.6231312 -2.6223353e+38
2.1293828 0.83504397 1.6253207 -2.6222316e+38
2.129374 0.83135641 1.6253207 -2.5956992e+38
2.1293652 0.82766879 1.6253207 -2.5691152e+38
2.1183441 0.81890571 1.6231312 -2.5692195e+38
2.1183352 0.81523901 1.6231312 -2.5559272e+38
2.1183264 0.81157237 1.6231312 -2.5692193e+38
2.1183176 0.80790573 1.6231312 -2.5692191e+38
2.118309 0.80423909 1.6231312 -2.5957515e+38
2.1183 0.8005724 1.6231312 -2.6223884e+38
2.1182914 0.79690576 1.6231312 -2.6224926e+38
2.1182823 0.79323906 1.6231312 -2.6226488e+38
2.1182737 0.78957248 1.6231312 -2.6358896e+38
2.1182649 0.78590584 1.6231312 -2.6491819e+38
2.1182561 0.78223914 1.6231312 -2.6492338e+38
2.1182473 0.7785725 1.6231312 -2.6491817e+38
2.1182384 0.7749058 1.6231312 -2.6359409e+38
2.1182296 0.77123916 1.6231312 -2.6359409e+38
2.1182208 0.76757252 1.6231312 -2.6227005e+38
2.1182122 0.76390588 1.6231312 -2.6094604e+38
2.1182032 0.76023918 1.6231312 -2.6225969e+38
2.1181946 0.75657254 1.6231312 -2.6358886e+38
2.1181855 0.75290585 1.6231312 -2.6491283e+38
2.1181769 0.74923921 1.6231312 -2.6623689e+38
2.1291795 0.750229 1.6253207 -2.6490247e+38
2.1291704 0.74654144 1.6253207 -2.648921e+38
2.1291618 0.74285382 1.6253207 -2.6224405e+38
2.1291528 0.7391662 1.6253207 -2.5957523e+38
2.129144 0.73547858 1.6253207 -2.6090965e+38
2.1291351 0.73179096 1.6253207 -2.6091484e+38
2.1291263 0.7281034 1.6253207 -2.5958562e+38
2.1291175 0.72441578 1.6253207 -2.5826158e+38
2.1291084 0.72072816 1.6253207 -2.5560312e+38
2.1290998 0.71704054 1.6253207 -2.5293948e+38
2.1401014 0.71779984 1.6275102 -2.5293946e+38
2.1400926 0.71409124 1.6275102 -2.5293424e+38
2.1400838 0.7103827 1.6275102 -2.5293422e+38
2.1400747 0.70667416 1.6275102 -2.529342e+38
2.1400659 0.70296562 1.6275102 -2.5292897e+38
2.1400571 0.69925702 1.6275102 -2.5424262e+38
2.140048 0.69554847 1.6275102 -2.5557704e+38
2.1400392 0.69183987 1.6275102 -2.5558225e+38
2.1400304 0.68813133 1.6275102 -2.5558225e+38
2.1510315 0.68868113 1.6296997 -2.5557708e+38
2.1510227 0.68495166 1.6296997 -2.5557708e+38
2.1510139 0.68122214 1.6296997 -2.5690631e+38
2.1510048 0.67749262 1.6296997 -2.5690631e+38
2.1509957 0.6737631 1.6296997 -2.5823556e+38
2.1509869 0.67003357 1.6296997 -2.5956479e+38
2.1509781 0.66630405 1.6296997 -2.5956481e+38
2.161979 0.66668618 1.6318893 -2.6089923e+38
2.1619699 0.66293579 1.6318893 -2.6355768e+38
2.1619611 0.65918529 1.6318893 -2.6222843e+38
2.161952 0.65543485 1.6318893 -2.6089923e+38
2.161943 0.65168434 1.6318893 -2.6089925e+38
2.1619339 0.6479339 1.6318893 -2.6089929e+38
2.1729345 0.6481694 1.6340787 -2.5824087e+38
2.1729255 0.64439797 1.6340787 -2.555824e+38
2.1729164 0.64062655 1.6340787 -2.542739e+38
2.1729074 0.63685513 1.6340787 -2.529654e+38
2.1728983 0.6330837 1.6340787 -2.542842e+38
2.1728892 0.62931228 1.6340787 -2.5560826e+38
2.1728802 0.62554085 1.6340787 -2.5558751e+38
2.1728711 0.62176949 1.6340787 -2.5424789e+38
2.1728621 0.61799806 1.6340787 -2.5424789e+38
2.1848631 0.61836928 1.6364673 -2.5291347e+38
2.184854 0.61457497 1.6364673 -2.5291865e+38
2.1848447 0.61078072 1.6364673 -2.5292384e+38
2.1848357 0.6069864 1.6364673 -2.5425824e+38
2.1958356 0.6069057 1.6386569 -2.5558745e+38
2.1958265 0.60309047 1.6386569 -2.5691144e+38
2.195817 0.59927529 1.6386569 -2.5956994e+38
2.2078176 0.59944272 1.6410455 -2.6089399e+38
2.2078085 0.5956046 1.6410455 -2.6222324e+38
2.2077994 0.59176654 1.6410455 -2.6089923e+38
2.2077899 0.58792841 1.6410455 -2.5957002e+38
2.2197905 0.58798152 1.643434 -2.5824598e+38
2.2197809 0.58412057 1.643434 -2.582512e+38
2.2197719 0.58025968 1.643434 -2.5692716e+38
2.2317715 0.58022135 1.6458226 -2.5693235e+38
2.2317624 0.57633758 1.6458226 -2.5825637e+38
2.243762 0.5762307 1.6482112 -2.6091484e+38
2.2437525 0.57232404 1.6482112 -2.6091484e+38
2.2557526 0.57214856 1.6505997 -2.609201e+38
2.255743 0.56821907 1.6505997 -2.6092016e+38
2.2557335 0.56428951 1.6505997 -2.6092533e+38
2.255724 0.56036007 1.6505997 -2.5959606e+38
2.268724 0.5603736 1.6531874 -2.5960125e+38
2.2687149 0.55641931 1.6531874 -2.5960125e+38
2.2687054 0.55246502 1.6531874 -2.5959604e+38
2.280704 0.55208194 1.655576 -2.5959602e+38
2.2806945 0.54810476 1.655576 -2.5959085e+38
2.2936945 0.54794693 1.6581635 -2.5824604e+38
2.293685 0.54394501 1.6581635 -2.5822008e+38
2.3066845 0.54371285 1.6607512 -2.5424276e+38
2.3196836 0.54343122 1.6633388 -2.5025506e+38
2.3196735 0.53937984 1.6633388 -2.48931e+38
2.319664 0.53532839 1.6633388 -2.48931e+38
2.3196545 0.531277 1.6633388 -2.4893619e+38
2.3326535 0.53087145 1.6659265 -2.5026538e+38
2.3456526 0.53041649 1.668514 -2.5026015e+38
2.3456426 0.52631551 1.668514 -2.5157899e+38
2.359642 0.52606094 1.6713006 -2.5424264e+38
2.373641 0.52575314 1.6740874 -2.5691152e+38
2.3736315 0.52159882 1.6740874 -2.5825118e+38
2.3736215 0.51744461 1.6740874 -2.6090969e+38
2.3736115 0.51329029 1.6740874 -2.6491301e+38
2.3736014 0.50913602 1.6740874 -2.7023512e+38
2.3735914 0.50498176 1.6740874 -2.6623705e+38
2.129622 0.93460953 1.6216331 nan
2.1406267 0.93660498 1.6238017 nan
2.1406178 0.93289638 1.6238017 nan
2.1406088 0.92918777 1.6238017 nan
2.1406 0.92547923 1.6238017 nan
2.1295776 0.91617137 1.6216331 nan
2.1295686 0.91248381 1.6216331 nan
2.12956 0.90879619 1.6216331 nan
2.1295509 0.90510857 1.6216331 -3.357009e+38
2.1295424 0.90142095 1.6216331 -2.9174757e+38
2.1295333 0.89773333 1.6216331 -2.7961265e+38
2.1295245 0.89404577 1.6216331 -2.6632033e+38
2.1295156 0.89035815 1.6216331 -2.742801e+38
2.1184936 0.88123888 1.6194645 -2.8222941e+38
2.118485 0.87757218 1.6194645 -2.7821568e+38
2.1184759 0.8739056 1.6194645 -2.7422278e+38
2.1184673 0.8702389 1.6194645 -2.7288834e+38
2.1184585 0.86657226 1.6194645 -2.7021948e+38
2.1184497 0.86290556 1.6194645 -2.6889025e+38
2.1184409 0.85923892 1.6194645 -2.6623695e+38
2.118432 0.85557222 1.6194645 -2.6623693e+38
2.1184232 0.85190564 1.6194645 -2.6623689e+38
2.1184144 0.84823895 1.6194645 -2.675661e+38
2.1184058 0.84457231 1.6194645 -2.6756605e+38
2.1183968 0.84090561 1.6194645 -2.6622642e+38
2.1183882 0.83723897 1.6194645 -2.64892e+38
2.1183791 0.83357233 1.6194645 -2.6355758e+38
2.1293828 0.83504397 1.6216331 -2.6222314e+38
2.129374 0.83135641 1.6216331 -2.5956468e+38
2.1293652 0.82766879 1.6216331 -2.5691148e+38
2.1183441 0.81890571 1.6194645 -2.5559272e+38
2.1183352 0.81523901 1.6194645 -2.5293426e+38
2.1183264 0.81157237 1.6194645 -2.5426349e+38
2.1183176 0.80790573 1.6194645 -2.5559272e+38
2.118309 0.80423909 1.6194645 -2.582356e+38
2.1183 0.8005724 1.6194645 -2.6092004e+38
2.1182914 0.79690576 1.6194645 -2.6226488e+38
2.1182823 0.79323906 1.6194645 -2.6359413e+38
2.1182737 0.78957248 1.6194645 -2.6625261e+38
2.1182649 0.78590584 1.6194645 -2.6758185e+38
2.1182561 0.78223914 1.6194645 -2.6758705e+38
2.1182473 0.7785725 1.6194645 -2.6759222e+38
2.1182384 0.7749058 1.6194645 -2.6626297e+38
2.1182296 0.77123916 1.6194645 -2.635993e+38
2.1182208 0.76757252 1.6194645 -2.6227007e+38
2.1182122 0.76390588 1.6194645 -2.6093044e+38
2.1182032 0.76023918 1.6194645 -2.6092006e+38
2.1181946 0.75657254 1.6194645 -2.6092002e+38
2.1181855 0.75290585 1.6194645 -2.6357326e+38
2.1181769 0.74923921 1.6194645 -2.6490768e+38
2.1291795 0.750229 1.6216331 -2.6490249e+38
2.1291704 0.74654144 1.6216331 -2.6357326e+38
2.1291618 0.74285382 1.6216331 -2.6092521e+38
2.1291528 0.7391662 1.6216331 -2.5825639e+38
2.129144 0.73547858 1.6216331 -2.5958564e+38
2.1291351 0.73179096 1.6216331 -2.6090967e+38
2.1291263 0.7281034 1.6216331 -2.6090969e+38
2.1291175 0.72441578 1.6216331 -2.5958044e+38
2.1291084 0.72072816 1.6216331 -2.5559274e+38
2.1290998 0.71704054 1.6216331 -2.5160504e+38
2.1290908 0.71335292 1.6216331 -2.50281e+38
2.129082 0.7096653 1.6216331 -2.4895175e+38
2.1290731 0.70597774 1.6216331 -2.4895173e+38
2.1400747 0.70667416 1.6238017 -2.4894652e+38
2.1400659 0.70296562 1.6238017 -2.5292899e+38
2.1400571 0.69925702 1.6238017 -2.5558223e+38
2.140048 0.69554847 1.6238017 -2.5824069e+38
2.1400392 0.69183987 1.6238017 -2.595699e+38
2.1510406 0.69241065 1.6259702 -2.5957509e+38
2.1510315 0.68868113 1.6259702 -2.5823548e+38
2.1510227 0.68495166 1.6259702 -2.5690108e+38
2.1510139 0.68122214 1.6259702 -2.5557185e+38
2.1510048 0.67749262 1.6259702 -2.5556668e+38
2.1509957 0.6737631 1.6259702 -2.5557708e+38
2.1509869 0.67003357 1.6259702 -2.5690633e+38
2.1509781 0.66630405 1.6259702 -2.5824077e+38
2.161979 0.66668618 1.6281388 -2.6089923e+38
2.1619699 0.66293579 1.6281388 -2.6222324e+38
2.1619611 0.65918529 1.6281388 -2.6221286e+38
2.161952 0.65543485 1.6281388 -2.6089401e+38
2.161943 0.65168434 1.6281388 -2.6089401e+38
2.1619339 0.6479339 1.6281388 -2.5956483e+38
2.1729345 0.6481694 1.6303074 -2.5690122e+38
2.1729255 0.64439797 1.6303074 -2.5425315e+38
2.1729164 0.64062655 1.6303074 -2.5294467e+38
2.1729074 0.63685513 1.6303074 -2.5029138e+38
2.1728983 0.6330837 1.6303074 -2.5294982e+38
2.1728892 0.62931228 1.6303074 -2.5426866e+38
2.1728802 0.62554085 1.6303074 -2.5292386e+38
2.1728711 0.62176949 1.6303074 -2.5158944e+38
2.1728621 0.61799806 1.6303074 -2.5291867e+38
2.172853 0.61422664 1.6303074 -2.5291865e+38
2.184854 0.61457497 1.632673 -2.5291865e+38
2.1848447 0.61078072 1.632673 -2.5292382e+38
2.1848357 0.6069864 1.632673 -2.5424785e+38
2.1958356 0.6069057 1.6348417 -2.5425303e+38
2.1958265 0.60309047 1.6348417 -2.5690629e+38
2.2078271 0.60328072 1.6372074 -2.5823554e+38
2.2078176 0.59944272 1.6372074 -2.6089401e+38
2.2078085 0.5956046 1.6372074 -2.6222324e+38
2.2077994 0.59176654 1.6372074 -2.6089403e+38
2.2077899 0.58792841 1.6372074 -2.5957002e+38
2.2197905 0.58798152 1.6395731 -2.5958042e+38
2.2197809 0.58412057 1.6395731 -2.5825641e+38
2.2197719 0.58025968 1.6395731 -2.5693239e+38
2.2317715 0.58022135 1.6419388 -2.5427392e+38
2.2317624 0.57633758 1.6419388 -2.582616e+38
2.243762 0.5762307 1.6443045 -2.6091486e+38
2.2437525 0.57232404 1.6443045 -2.6224409e+38
2.2557526 0.57214856 1.6466702 -2.6224411e+38
2.255743 0.56821907 1.6466702 -2.6092012e+38
2.2557335 0.56428951 1.6466702 -2.5959089e+38
2.255724 0.56036007 1.6466702 -2.609201e+38
2.268724 0.5603736 1.6492331 -2.6225454e+38
2.2687149 0.55641931 1.6492331 -2.6225975e+38
2.2687054 0.55246502 1.6492331 -2.6225973e+38
2.280704 0.55208194 1.6515988 -2.6225454e+38
2.2806945 0.54810476 1.6515988 -2.609201e+38
2.2936945 0.54794693 1.6541617 -2.5957529e+38
2.293685 0.54394501 1.6541617 -2.5824083e+38
2.3066845 0.54371285 1.6567245 -2.5558233e+38
2.3196836 0.54343122 1.6592873 -2.5158944e+38
2.3196735 0.53937984 1.6592873 -2.5158944e+38
2.319664 0.53532839 1.6592873 -2.5026019e+38
2.3196545 0.531277 1.6592873 -2.515998e+38
2.3326535 0.53087145 1.6618502 -2.5159457e+38
2.3456526 0.53041649 1.6644131 -2.5158414e+38
2.3456426 0.52631551 1.6644131 -2.5157895e+38
2.373651 0.52990741 1.6699331 -2.5423224e+38
2.373641 0.52575314 1.6699331 -2.5557187e+38
2.3736315 0.52159882 1.6699331 -2.5691152e+38
2.3736215 0.51744461 1.6699331 -2.582512e+38
2.3736115 0.51329029 1.6699331 -2.6224413e+38
2.3736014 0.50913602 1.6699331 -2.6623701e+38
2.3735914 0.50498176 1.6699331 -2.6090454e+38
2.3735814 0.50082743 1.6699331 -2.556346e+38
2.1406355 0.94031358 1.6200931 nan
2.1406267 0.93660498 1.6200931 nan
2.1406178 0.93289638 1.6200931 nan
2.1406088 0.92918777 1.6200931 nan
2.1406 0.92547923 1.6200931 nan
2.1405911 0.92177069 1.6200931 nan
2.1405821 0.91806209 1.6200931 nan
2.1405733 0.91435361 1.6200931 nan
2.1405644 0.91064501 1.6200931 -3.343456e+38
2.1295424 0.90142095 1.6179454 -2.9969706e+38
2.1405466 0.90322787 1.6200931 -2.8232848e+38
2.1295245 0.89404577 1.6179454 -2.6635682e+38
2.1295156 0.89035815 1.6179454 -2.7161126e+38
2.1295068 0.88667053 1.6179454 -2.7823653e+38
2.118485 0.87757218 1.6157979 -2.7290392e+38
2.1184759 0.8739056 1.6157979 -2.6891623e+38
2.1184673 0.8702389 1.6157979 -2.6757141e+38
2.1184585 0.86657226 1.6157979 -2.662318e+38
2.1184497 0.86290556 1.6157979 -2.6490774e+38
2.1184409 0.85923892 1.6157979 -2.649077e+38
2.118432 0.85557222 1.6157979 -2.6490766e+38
2.1184232 0.85190564 1.6157979 -2.6490764e+38
2.1184144 0.84823895 1.6157979 -2.6490762e+38
2.1184058 0.84457231 1.6157979 -2.6490241e+38
2.1183968 0.84090561 1.6157979 -2.6489717e+38
2.1183882 0.83723897 1.6157979 -2.6488681e+38
2.1183791 0.83357233 1.6157979 -2.63542e+38
2.1293828 0.83504397 1.6179454 -2.6087832e+38
2.129374 0.83135641 1.6179454 -2.5955424e+38
2.1293652 0.82766879 1.6179454 -2.5690108e+38
2.1183441 0.81890571 1.6157979 -2.5558751e+38
2.1183352 0.81523901 1.6157979 -2.5426349e+38
2.1183264 0.81157237 1.6157979 -2.5426349e+38
2.1183176 0.80790573 1.6157979 -2.5559793e+38
2.118309 0.80423909 1.6157979 -2.5693237e+38
2.1183 0.8005724 1.6157979 -2.5827722e+38
2.1182914 0.79690576 1.6157979 -2.6093569e+38
2.1182823 0.79323906 1.6157979 -2.6359415e+38
2.1182737 0.78957248 1.6157979 -2.6492338e+38
2.1182649 0.78590584 1.6157979 -2.6625263e+38
2.1182561 0.78223914 1.6157979 -2.6625784e+38
2.1182473 0.7785725 1.6157979 -2.662734e+38
2.1182384 0.7749058 1.6157979 -2.6493376e+38
2.1182296 0.77123916 1.6157979 -2.6493376e+38
2.1182208 0.76757252 1.6157979 -2.6358894e+38
2.1182122 0.76390588 1.6157979 -2.6357851e+38
2.1182032 0.76023918 1.6157979 -2.6357847e+38
2.1181946 0.75657254 1.6157979 -2.6357847e+38
2.1181855 0.75290585 1.6157979 -2.6357847e+38
2.1291881 0.75391662 1.6179454 -2.6358366e+38
2.1291795 0.750229 1.6179454 -2.6224922e+38
2.1291704 0.74654144 1.6179454 -2.609148e+38
2.1181505 0.73823923 1.6157979 -2.5959077e+38
2.1181417 0.73457259 1.6157979 -2.5825639e+38
2.129144 0.73547858 1.6179454 -2.6091486e+38
2.1291351 0.73179096 1.6179454 -2.6223373e+38
2.1291263 0.7281034 1.6179454 -2.6090452e+38
2.1291175 0.72441578 1.6179454 -2.6089929e+38
2.1291084 0.72072816 1.6179454 -2.5691676e+38
2.1290998 0.71704054 1.6179454 -2.5292907e+38
2.1290908 0.71335292 1.6179454 -2.5160504e+38
2.129082 0.7096653 1.6179454 -2.4894656e+38
2.1290731 0.70597774 1.6179454 -2.4894654e+38
2.1400747 0.70667416 1.6200931 -2.4894652e+38
2.1400659 0.70296562 1.6200931 -2.5160495e+38
2.1400571 0.69925702 1.6200931 -2.5425822e+38
2.140048 0.69554847 1.6200931 -2.5691146e+38
2.1510496 0.69614017 1.6222407 -2.5956468e+38
2.1510406 0.69241065 1.6222407 -2.5956464e+38
2.1510315 0.68868113 1.6222407 -2.5823024e+38
2.1510227 0.68495166 1.6222407 -2.5690102e+38
2.162024 0.68543857 1.6243883 -2.5557702e+38
2.1510048 0.67749262 1.6222407 -2.5557704e+38
2.1509957 0.6737631 1.6222407 -2.5558227e+38
2.1509869 0.67003357 1.6222407 -2.5425307e+38
2.1509781 0.66630405 1.6222407 -2.5425828e+38
2.161979 0.66668618 1.6243883 -2.5690635e+38
2.1619699 0.66293579 1.6243883 -2.5956479e+38
2.1619611 0.65918529 1.6243883 -2.5822515e+38
2.161952 0.65543485 1.6243883 -2.5690631e+38
2.161943 0.65168434 1.6243883 -2.5423745e+38
2.1619339 0.6479339 1.6243883 -2.5291345e+38
2.1729345 0.6481694 1.6265359 -2.5158427e+38
2.1729255 0.64439797 1.6265359 -2.5026025e+38
2.1729164 0.64062655 1.6265359 -2.5027583e+38
2.1729074 0.63685513 1.6265359 -2.4895698e+38
2.1728983 0.6330837 1.6265359 -2.5160504e+38
2.1728892 0.62931228 1.6265359 -2.5293424e+38
2.1728802 0.62554085 1.6265359 -2.5159461e+38
2.1728711 0.62176949 1.6265359 -2.5158944e+38
2.1728621 0.61799806 1.6265359 -2.5158425e+38
2.1848631 0.61836928 1.6288788 -2.5158423e+38
2.184854 0.61457497 1.6288788 -2.515894e+38
2.1848447 0.61078072 1.6288788 -2.5159459e+38
2.1848357 0.6069864 1.6288788 -2.5291861e+38
2.1958356 0.6069057 1.6310264 -2.5558227e+38
2.1958265 0.60309047 1.6310264 -2.5690633e+38
2.2078271 0.60328072 1.6333692 -2.5955959e+38
2.2078176 0.59944272 1.6333692 -2.6089401e+38
2.2078085 0.5956046 1.6333692 -2.6222324e+38
2.2077994 0.59176654 1.6333692 -2.6089401e+38
2.2077899 0.58792841 1.6333692 -2.5957002e+38
2.2077808 0.58409035 1.6333692 -2.582512e+38
2.2197809 0.58412057 1.6357121 -2.569272e+38
2.2197719 0.58025968 1.6357121 -2.5692722e+38
2.2317715 0.58022135 1.638055 -2.5692203e+38
2.2317624 0.57633758 1.638055 -2.5958046e+38
2.243762 0.5762307 1.6403978 -2.6223892e+38
2.2437525 0.57232404 1.6403978 -2.622389e+38
2.2557526 0.57214856 1.6427407 -2.6356815e+38
2.255743 0.56821907 1.6427407 -2.6091488e+38
2.2557335 0.56428951 1.6427407 -2.5958568e+38
2.2687335 0.56432778 1.6452788 -2.6092529e+38
2.268724 0.5603736 1.6452788 -2.6225456e+38
2.2687149 0.55641931 1.6452788 -2.6225977e+38
2.2807136 0.55605906 1.6476216 -2.63589e+38
2.280704 0.55208194 1.6476216 -2.6225458e+38
2.2806945 0.54810476 1.6476216 -2.6224937e+38
2.2936945 0.54794693 1.6501597 -2.609201e+38
2.293685 0.54394501 1.6501597 -2.5825639e+38
2.3066845 0.54371285 1.6526978 -2.5691152e+38
2.3196836 0.54343122 1.655236 -2.5556672e+38
2.3196735 0.53937984 1.655236 -2.5424266e+38
2.3326731 0.53902382 1.657774 -2.5290822e+38
2.3326631 0.53494763 1.657774 -2.5158936e+38
2.3326535 0.53087145 1.657774 -2.5158932e+38
2.3456526 0.53041649 1.6603122 -2.5025486e+38
2.359652 0.53018856 1.6630454 -2.5024449e+38
2.373651 0.52990741 1.6657788 -2.5289778e+38
2.373641 0.52575314 1.6657788 -2.5423224e+38
2.3736315 0.52159882 1.6657788 -2.5424783e+38
2.3736215 0.51744461 1.6657788 -2.5559789e+38
2.3736115 0.51329029 1.6657788 -2.5959081e+38
2.3736014 0.50913602 1.6657788 -2.6358892e+38
2.3735914 0.50498176 1.6657788 -2.5958048e+38
2.3735814 0.50082743 1.6657788 -2.5424311e+38
2.1406446 0.94402206 1.6163845 nan
2.1406355 0.94031358 1.6163845 nan
2.1406267 0.93660498 1.6163845 nan
2.1296041 0.92723423 1.6142578 nan
2.1406088 0.92918777 1.6163845 nan
2.1406 0.92547923 1.6163845 nan
2.1405911 0.92177069 1.6163845 nan
2.1405821 0.91806209 1.6163845 nan
2.12956 0.90879619 1.6142578 nan
2.1295509 0.90510857 1.6142578 -3.329177e+38
2.1295424 0.90142095 1.6142578 -3.0761511e+38
2.1295333 0.89773333 1.6142578 -2.8630021e+38
2.1295245 0.89404577 1.6142578 -2.6499617e+38
2.1295156 0.89035815 1.6142578 -2.6889557e+38
2.1184936 0.88123888 1.6121311 -2.7290396e+38
2.118485 0.87757218 1.6121311 -2.6890583e+38
2.1184759 0.8739056 1.6121311 -2.6358373e+38
2.1184673 0.8702389 1.6121311 -2.622389e+38
2.1184585 0.86657226 1.6121311 -2.6091484e+38
2.1184497 0.86290556 1.6121311 -2.6224924e+38
2.1184409 0.85923892 1.6121311 -2.6224922e+38
2.118432 0.85557222 1.6121311 -2.6224401e+38
2.1184232 0.85190564 1.6121311 -2.6224918e+38
2.1184144 0.84823895 1.6121311 -2.6224916e+38
2.1184058 0.84457231 1.6121311 -2.6224393e+38
2.1183968 0.84090561 1.6121311 -2.6356795e+38
2.1183882 0.83723897 1.6121311 -2.6487638e+38
2.1183791 0.83357233 1.6121311 -2.6219197e+38
2.1293828 0.83504397 1.6142578 -2.5954387e+38
2.129374 0.83135641 1.6142578 -2.5820945e+38
2.1293652 0.82766879 1.6142578 -2.5690106e+38
2.1183441 0.81890571 1.6121311 -2.5558227e+38
2.1183352 0.81523901 1.6121311 -2.5425828e+38
2.1183264 0.81157237 1.6121311 -2.5426349e+38
2.1183176 0.80790573 1.6121311 -2.5427392e+38
2.118309 0.80423909 1.6121311 -2.5561876e+38
2.1183 0.8005724 1.6121311 -2.5562917e+38
2.1182914 0.79690576 1.6121311 -2.5961168e+38
2.1182823 0.79323906 1.6121311 -2.6359936e+38
2.1182737 0.78957248 1.6121311 -2.6359419e+38
2.1182649 0.78590584 1.6121311 -2.6359417e+38
2.1182561 0.78223914 1.6121311 -2.649234e+38
2.1182473 0.7785725 1.6121311 -2.6492857e+38
2.1182384 0.7749058 1.6121311 -2.6492338e+38
2.1182296 0.77123916 1.6121311 -2.6491817e+38
2.1182208 0.76757252 1.6121311 -2.6623699e+38
2.1182122 0.76390588 1.6121311 -2.6623176e+38
2.1182032 0.76023918 1.6121311 -2.6622654e+38
2.1181946 0.75657254 1.6121311 -2.6623174e+38
2.1181855 0.75290585 1.6121311 -2.635733e+38
2.1291881 0.75391662 1.6142578 -2.6092519e+38
2.1291795 0.750229 1.6142578 -2.5960113e+38
2.1291704 0.74654144 1.6142578 -2.5826671e+38
2.1181505 0.73823923 1.6121311 -2.5826152e+38
2.1181417 0.73457259 1.6121311 -2.5826156e+38
2.129144 0.73547858 1.6142578 -2.6092004e+38
2.1291351 0.73179096 1.6142578 -2.6356292e+38
2.1291263 0.7281034 1.6142578 -2.6222852e+38
2.1291175 0.72441578 1.6142578 -2.6089927e+38
2.1291084 0.72072816 1.6142578 -2.5824598e+38
2.1290998 0.71704054 1.6142578 -2.5425828e+38
2.1290908 0.71335292 1.6142578 -2.5159982e+38
2.129082 0.7096653 1.6142578 -2.4894654e+38
2.1400838 0.7103827 1.6163845 -2.489465e+38
2.1400747 0.70667416 1.6163845 -2.489465e+38
2.1400659 0.70296562 1.6163845 -2.5027573e+38
2.1400571 0.69925702 1.6163845 -2.5159974e+38
2.140048 0.69554847 1.6163845 -2.5557704e+38
2.1400392 0.69183987 1.6163845 -2.595647e+38
2.1510406 0.69241065 1.6185112 -2.5955432e+38
2.1510315 0.68868113 1.6185112 -2.5822507e+38
2.1510227 0.68495166 1.6185112 -2.5689065e+38
2.1510139 0.68122214 1.6185112 -2.5557702e+38
2.1510048 0.67749262 1.6185112 -2.5558223e+38
2.1509957 0.6737631 1.6185112 -2.5424783e+38
2.1509869 0.67003357 1.6185112 -2.529238e+38
2.1619878 0.67043668 1.6206379 -2.5025496e+38
2.161979 0.66668618 1.6206379 -2.5423228e+38
2.1619699 0.66293579 1.6206379 -2.568855e+38
2.1619611 0.65918529 1.6206379 -2.5421145e+38
2.161952 0.65543485 1.6206379 -2.5156336e+38
2.161943 0.65168434 1.6206379 -2.4889969e+38
2.1619339 0.6479339 1.6206379 -2.4625685e+38
2.1619248 0.64418346 1.6206379 -2.4626208e+38
2.1619158 0.64043295 1.6206379 -2.4626729e+38
2.1729164 0.64062655 1.6227645 -2.4760695e+38
2.1729074 0.63685513 1.6227645 -2.4760695e+38
2.1728983 0.6330837 1.6227645 -2.5025504e+38
2.1728892 0.62931228 1.6227645 -2.5158944e+38
2.1728802 0.62554085 1.6227645 -2.5158425e+38
2.1728711 0.62176949 1.6227645 -2.50255e+38
2.1728621 0.61799806 1.6227645 -2.5024461e+38
2.1848631 0.61836928 1.6250845 -2.4892575e+38
2.184854 0.61457497 1.6250845 -2.5025498e+38
2.1848447 0.61078072 1.6250845 -2.5026017e+38
2.1958447 0.61072093 1.6272112 -2.5291343e+38
2.1958356 0.6069057 1.6272112 -2.555771e+38
2.2078362 0.60711884 1.6295311 -2.5822519e+38
2.2078271 0.60328072 1.6295311 -2.5955959e+38
2.2078176 0.59944272 1.6295311 -2.6088882e+38
2.2078085 0.5956046 1.6295311 -2.6089403e+38
2.2077994 0.59176654 1.6295311 -2.5956481e+38
2.2077899 0.58792841 1.6295311 -2.5824079e+38
2.2197905 0.58798152 1.6318512 -2.5691678e+38
2.2197809 0.58412057 1.6318512 -2.5559276e+38
2.2197719 0.58025968 1.6318512 -2.5692201e+38
2.2317715 0.58022135 1.6341712 -2.5824602e+38
2.2317624 0.57633758 1.6341712 -2.6089929e+38
2.2317529 0.57245374 1.6341712 -2.6356813e+38
2.2437525 0.57232404 1.6364912 -2.6356813e+38
2.2557526 0.57214856 1.6388111 -2.6356813e+38
2.255743 0.56821907 1.6388111 -2.6090969e+38
2.2557335 0.56428951 1.6388111 -2.5826164e+38
2.255724 0.56036007 1.6388111 -2.5960127e+38
2.268724 0.5603736 1.6413245 -2.6093052e+38
2.2687149 0.55641931 1.6413245 -2.6225458e+38
2.2807136 0.55605906 1.6436446 -2.63589e+38
2.280704 0.55208194 1.6436446 -2.63589e+38
2.293704 0.55194885 1.6461579 -2.6358896e+38
2.2936945 0.54794693 1.6461579 -2.6093048e+38
2.293685 0.54394501 1.6461579 -2.582616e+38
2.3066845 0.54371285 1.6486712 -2.5824596e+38
2.3196836 0.54343122 1.6511846 -2.5823556e+38
2.3196735 0.53937984 1.6511846 -2.5689593e+38
2.319664 0.53532839 1.6511846 -2.5423745e+38
2.3326631 0.53494763 1.6536978 -2.5290822e+38
2.3326535 0.53087145 1.6536978 -2.502497e+38
2.3456526 0.53041649 1.6562111 -2.5024964e+38
2.3456426 0.52631551 1.6562111 -2.4891007e+38
2.373651 0.52990741 1.6616246 -2.5154778e+38
2.373641 0.52575314 1.6616246 -2.5290299e+38
2.3736315 0.52159882 1.6616246 -2.5291341e+38
2.3736215 0.51744461 1.6616246 -2.515998e+38
2.3736115 0.51329029 1.6616246 -2.5692714e+38
2.3736014 0.50913602 1.6616246 -2.6092008e+38
2.3735914 0.50498176 1.6616246 -2.5692207e+38
2.3865895 0.50422573 1.6641378 -2.5296049e+38
2.3735714 0.49667323 1.6616246 -2.8892248e+38
2.1406446 0.94402206 1.6126759 nan
2.129622 0.93460953 1.6105702 nan
2.1296129 0.93092191 1.6105702 nan
2.1296041 0.92723423 1.6105702 nan
2.1295953 0.92354661 1.6105702 nan
2.1406 0.92547923 1.6126759 nan
2.1405911 0.92177069 1.6126759 nan
2.1295686 0.91248381 1.6105702 nan
2.1405733 0.91435361 1.6126759 nan
2.1405644 0.91064501 1.6126759 -3.2894557e+38
2.1405554 0.90693647 1.6126759 -2.8893822e+38
2.1405466 0.90322787 1.6126759 -2.8096731e+38
2.1295245 0.89404577 1.6105702 -2.7165765e+38
2.1295156 0.89035815 1.6105702 -2.7292986e+38
2.1295068 0.88667053 1.6105702 -2.742487e+38
2.118485 0.87757218 1.6084645 -2.6890581e+38
2.1184759 0.8739056 1.6084645 -2.6356813e+38
2.1184673 0.8702389 1.6084645 -2.6224407e+38
2.1184585 0.86657226 1.6084645 -2.6092e+38
2.1184497 0.86290556 1.6084645 -2.5959073e+38
2.1184409 0.85923892 1.6084645 -2.5959073e+38
2.118432 0.85557222 1.6084645 -2.5959073e+38
2.1184232 0.85190564 1.6084645 -2.5959073e+38
2.1184144 0.84823895 1.6084645 -2.6091474e+38
2.1184058 0.84457231 1.6084645 -2.6223874e+38
2.1183968 0.84090561 1.6084645 -2.6355754e+38
2.1183882 0.83723897 1.6084645 -2.6487117e+38
2.1183791 0.83357233 1.6084645 -2.622075e+38
2.1293828 0.83504397 1.6105702 -2.5955426e+38
2.129374 0.83135641 1.6105702 -2.5689061e+38
2.1293652 0.82766879 1.6105702 -2.5557181e+38
2.1183441 0.81890571 1.6084645 -2.5424781e+38
2.1183352 0.81523901 1.6084645 -2.5425307e+38
2.1183264 0.81157237 1.6084645 -2.5426868e+38
2.1183176 0.80790573 1.6084645 -2.5560836e+38
2.118309 0.80423909 1.6084645 -2.569532e+38
2.1183 0.8005724 1.6084645 -2.5963245e+38
2.1182914 0.79690576 1.6084645 -2.6095131e+38
2.1182823 0.79323906 1.6084645 -2.636046e+38
2.1182737 0.78957248 1.6084645 -2.6359421e+38
2.1182649 0.78590584 1.6084645 -2.6358379e+38
2.1182561 0.78223914 1.6084645 -2.6491297e+38
2.1182473 0.7785725 1.6084645 -2.662422e+38
2.1182384 0.7749058 1.6084645 -2.6491297e+38
2.1082191 0.76687276 1.6065502 -2.6490776e+38
2.1182208 0.76757252 1.6084645 -2.6490255e+38
2.1182122 0.76390588 1.6084645 -2.6490253e+38
2.1182032 0.76023918 1.6084645 -2.6490249e+38
2.1181946 0.75657254 1.6084645 -2.649077e+38
2.1181855 0.75290585 1.6084645 -2.6224926e+38
2.1291881 0.75391662 1.6105702 -2.6093038e+38
2.1181681 0.74557257 1.6084645 -2.5826669e+38
2.1181593 0.74190593 1.6084645 -2.5560824e+38
2.1181505 0.73823923 1.6084645 -2.5560304e+38
2.1181417 0.73457259 1.6084645 -2.5559789e+38
2.129144 0.73547858 1.6105702 -2.5824598e+38
2.118124 0.72723931 1.6084645 -2.6089405e+38
2.1291263 0.7281034 1.6105702 -2.5823558e+38
2.1291175 0.72441578 1.6105702 -2.5690635e+38
2.1291084 0.72072816 1.6105702 -2.5558231e+38
2.1290998 0.71704054 1.6105702 -2.5425309e+38
2.1290908 0.71335292 1.6105702 -2.5292903e+38
2.129082 0.7096653 1.6105702 -2.5159976e+38
2.1400838 0.7103827 1.6126759 -2.5027569e+38
2.1400747 0.70667416 1.6126759 -2.5027051e+38
2.1400659 0.70296562 1.6126759 -2.5027051e+38
2.1400571 0.69925702 1.6126759 -2.5026532e+38
2.140048 0.69554847 1.6126759 -2.5291856e+38
2.1400392 0.69183987 1.6126759 -2.5557704e+38
2.1400304 0.68813133 1.6126759 -2.5557187e+38
2.1510315 0.68868113 1.6147816 -2.5556666e+38
2.1510227 0.68495166 1.6147816 -2.5556662e+38
2.1510139 0.68122214 1.6147816 -2.5424779e+38
2.1510048 0.67749262 1.6147816 -2.5291339e+38
2.1509957 0.6737631 1.6147816 -2.5024974e+38
2.1509869 0.67003357 1.6147816 -2.5024972e+38
2.1619878 0.67043668 1.6168873 -2.4891011e+38
2.161979 0.66668618 1.6168873 -2.5023934e+38
2.1619699 0.66293579 1.6168873 -2.5288218e+38
2.1619611 0.65918529 1.6168873 -2.5022368e+38
2.161952 0.65543485 1.6168873 -2.4889963e+38
2.161943 0.65168434 1.6168873 -2.4624113e+38
2.1619339 0.6479339 1.6168873 -2.4491715e+38
2.1619248 0.64418346 1.6168873 -2.4492239e+38
2.1619158 0.64043295 1.6168873 -2.4492762e+38
2.161907 0.63668251 1.6168873 -2.4626727e+38
2.1618979 0.63293201 1.6168873 -2.4892058e+38
2.1728983 0.6330837 1.618993 -2.489206e+38
2.1728892 0.62931228 1.618993 -2.5024465e+38
2.1728802 0.62554085 1.618993 -2.5025504e+38
2.1728711 0.62176949 1.618993 -2.50255e+38
2.1728621 0.61799806 1.618993 -2.5025496e+38
2.1848631 0.61836928 1.6212902 -2.5158421e+38
2.184854 0.61457497 1.6212902 -2.5158421e+38
2.1958537 0.61453623 1.6233959 -2.5291345e+38
2.1958447 0.61072093 1.6233959 -2.5424787e+38
2.2078452 0.61095691 1.6256931 -2.5557712e+38
2.2078362 0.60711884 1.6256931 -2.5557193e+38
2.2078271 0.60328072 1.6256931 -2.5690635e+38
2.2078176 0.59944272 1.6256931 -2.5823556e+38
2.2078085 0.5956046 1.6256931 -2.5957519e+38
2.2077994 0.59176654 1.6256931 -2.5824079e+38
2.2077899 0.58792841 1.6256931 -2.5691676e+38
2.2077808 0.58409035 1.6256931 -2.5558753e+38
2.2197809 0.58412057 1.6279902 -2.5558755e+38
2.2197719 0.58025968 1.6279902 -2.5691158e+38
2.2197623 0.57639873 1.6279902 -2.5824081e+38
2.2197533 0.57253778 1.6279902 -2.5957002e+38
2.2317529 0.57245374 1.6302874 -2.6091484e+38
2.2317438 0.56856996 1.6302874 -2.6223369e+38
2.2437434 0.56841737 1.6325846 -2.6356813e+38
2.2437339 0.5645107 1.6325846 -2.6092006e+38
2.2557335 0.56428951 1.6348816 -2.5827203e+38
2.255724 0.56036007 1.6348816 -2.5827205e+38
2.268724 0.5603736 1.6373702 -2.5960129e+38
2.2687149 0.55641931 1.6373702 -2.595961e+38
2.2687054 0.55246502 1.6373702 -2.6092533e+38
2.280704 0.55208194 1.6396674 -2.6093571e+38
2.2806945 0.54810476 1.6396674 -2.6094089e+38
2.2936945 0.54794693 1.6421559 -2.5960645e+38
2.293685 0.54394501 1.6421559 -2.5959083e+38
2.3066845 0.54371285 1.6446445 -2.595804e+38
2.3196836 0.54343122 1.6471331 -2.6089401e+38
2.3196735 0.53937984 1.6471331 -2.5823033e+38
2.3326731 0.53902382 1.6496217 -2.5688552e+38
2.3326631 0.53494763 1.6496217 -2.5290822e+38
2.3326535 0.53087145 1.6496217 -2.5024451e+38
2.3456526 0.53041649 1.6521102 -2.489152e+38
2.3456426 0.52631551 1.6521102 -2.462464e+38
2.359642 0.52606094 1.6547902 -2.4757567e+38
2.373641 0.52575314 1.6574702 -2.4892569e+38
2.3736315 0.52159882 1.6574702 -2.5026013e+38
2.3736215 0.51744461 1.6574702 -2.5159978e+38
2.3736115 0.51329029 1.6574702 -2.555927e+38
2.3736014 0.50913602 1.6574702 -2.5958568e+38
2.3735914 0.50498176 1.6574702 -2.5825653e+38
2.3735814 0.50082743 1.6574702 -2.582773e+38
2.3735714 0.49667323 1.6574702 -2.8092089e+38
2.1406446 0.94402206 1.6089673 nan
2.1406355 0.94031358 1.6089673 nan
2.1406267 0.93660498 1.6089673 nan
2.1406178 0.93289638 1.6089673 nan
2.1406088 0.92918777 1.6089673 nan
2.1406 0.92547923 1.6089673 nan
2.1405911 0.92177069 1.6089673 nan
2.1295686 0.91248381 1.6068826 nan
2.12956 0.90879619 1.6068826 nan
2.1405644 0.91064501 1.6089673 -3.2620372e+38
2.1405554 0.90693647 1.6089673 -2.7032363e+38
2.1405466 0.90322787 1.6089673 -2.7432113e+38
2.1295245 0.89404577 1.6068826 -2.7827778e+38
2.1295156 0.89035815 1.6068826 -2.7692272e+38
2.1295068 0.88667053 1.6068826 -2.742383e+38
2.129498 0.88298291 1.6068826 -2.6889542e+38
2.1184759 0.8739056 1.6047978 -2.6224926e+38
2.1184673 0.8702389 1.6047978 -2.6225444e+38
2.1184585 0.86657226 1.6047978 -2.6091998e+38
2.1184497 0.86290556 1.6047978 -2.5826146e+38
2.1184409 0.85923892 1.6047978 -2.5559781e+38
2.118432 0.85557222 1.6047978 -2.5559781e+38
2.1184232 0.85190564 1.6047978 -2.5559781e+38
2.1184144 0.84823895 1.6047978 -2.5825107e+38
2.1184058 0.84457231 1.6047978 -2.608991e+38
2.1183968 0.84090561 1.6047978 -2.6354714e+38
2.1183882 0.83723897 1.6047978 -2.6487113e+38
2.1183791 0.83357233 1.6047978 -2.6220225e+38
2.1293828 0.83504397 1.6068826 -2.5954899e+38
2.129374 0.83135641 1.6068826 -2.5689053e+38
2.1293652 0.82766879 1.6068826 -2.5290812e+38
2.1183441 0.81890571 1.6047978 -2.5291339e+38
2.1183352 0.81523901 1.6047978 -2.5292905e+38
2.1183264 0.81157237 1.6047978 -2.5427915e+38
2.1183176 0.80790573 1.6047978 -2.5561357e+38
2.118309 0.80423909 1.6047978 -2.5961166e+38
2.1183 0.8005724 1.6047978 -2.6227011e+38
2.1182914 0.79690576 1.6047978 -2.6360973e+38
2.1182823 0.79323906 1.6047978 -2.6358898e+38
2.1182737 0.78957248 1.6047978 -2.6358379e+38
2.1182649 0.78590584 1.6047978 -2.6224415e+38
2.1182561 0.78223914 1.6047978 -2.6490257e+38
2.1182473 0.7785725 1.6047978 -2.662318e+38
2.1182384 0.7749058 1.6047978 -2.6622658e+38
2.1082191 0.76687276 1.6029027 -2.6489736e+38
2.1182208 0.76757252 1.6047978 -2.6489736e+38
2.1182122 0.76390588 1.6047978 -2.6357328e+38
2.1182032 0.76023918 1.6047978 -2.6356807e+38
2.1181946 0.75657254 1.6047978 -2.6357845e+38
2.1181855 0.75290585 1.6047978 -2.6224924e+38
2.1291881 0.75391662 1.6068826 -2.5959077e+38
2.1181681 0.74557257 1.6047978 -2.5693231e+38
2.1181593 0.74190593 1.6047978 -2.5293942e+38
2.1181505 0.73823923 1.6047978 -2.5293942e+38
2.1181417 0.73457259 1.6047978 -2.515998e+38
2.129144 0.73547858 1.6068826 -2.5423751e+38
2.118124 0.72723931 1.6047978 -2.5690635e+38
2.1181154 0.72357267 1.6047978 -2.5557193e+38
2.1181064 0.71990597 1.6047978 -2.5291867e+38
2.1291084 0.72072816 1.6068826 -2.5425309e+38
2.1290998 0.71704054 1.6068826 -2.5425307e+38
2.1290908 0.71335292 1.6068826 -2.5425307e+38
2.129082 0.7096653 1.6068826 -2.5425824e+38
2.1290731 0.70597774 1.6068826 -2.5293935e+38
2.1400747 0.70667416 1.6089673 -2.5027053e+38
2.1400659 0.70296562 1.6089673 -2.5026534e+38
2.1400571 0.69925702 1.6089673 -2.4893092e+38
2.140048 0.69554847 1.6089673 -2.5026013e+38
2.1400392 0.69183987 1.6089673 -2.5025494e+38
2.1400304 0.68813133 1.6089673 -2.5158419e+38
2.1510315 0.68868113 1.6110522 -2.5290818e+38
2.1510227 0.68495166 1.6110522 -2.5290297e+38
2.1510139 0.68122214 1.6110522 -2.5290818e+38
2.1510048 0.67749262 1.6110522 -2.5024972e+38
2.1509957 0.6737631 1.6110522 -2.4625683e+38
2.1509869 0.67003357 1.6110522 -2.4758604e+38
2.1509781 0.66630405 1.6110522 -2.4758084e+38
2.161979 0.66668618 1.6131369 -2.4758084e+38
2.1619699 0.66293579 1.6131369 -2.4757563e+38
2.1619611 0.65918529 1.6131369 -2.46236e+38
2.161952 0.65543485 1.6131369 -2.4491194e+38
2.161943 0.65168434 1.6131369 -2.4358267e+38
2.1619339 0.6479339 1.6131369 -2.4225868e+38
2.1619248 0.64418346 1.6131369 -2.4358797e+38
2.1619158 0.64043295 1.6131369 -2.4359837e+38
2.161907 0.63668251 1.6131369 -2.4626206e+38
2.1618979 0.63293201 1.6131369 -2.4892054e+38
2.1618891 0.62918156 1.6131369 -2.4891536e+38
2.1728892 0.62931228 1.6152216 -2.4892058e+38
2.1728802 0.62554085 1.6152216 -2.50255e+38
2.1728711 0.62176949 1.6152216 -2.50255e+38
2.1728621 0.61799806 1.6152216 -2.5158421e+38
2.1848631 0.61836928 1.6174959 -2.5291343e+38
2.184854 0.61457497 1.6174959 -2.5423228e+38
2.1958537 0.61453623 1.6195807 -2.5557189e+38
2.1958447 0.61072093 1.6195807 -2.5557708e+38
2.1958356 0.6069057 1.6195807 -2.5424785e+38
2.2078362 0.60711884 1.621855 -2.5424268e+38
2.2078271 0.60328072 1.621855 -2.5424266e+38
2.2078176 0.59944272 1.621855 -2.5557189e+38
2.2078085 0.5956046 1.621855 -2.5690633e+38
2.2077994 0.59176654 1.621855 -2.5557712e+38
2.2077899 0.58792841 1.621855 -2.5425309e+38
2.2077808 0.58409035 1.621855 -2.5558231e+38
2.2197809 0.58412057 1.6241293 -2.5557712e+38
2.2197719 0.58025968 1.6241293 -2.5689599e+38
2.2197623 0.57639873 1.6241293 -2.5822521e+38
2.2197533 0.57253778 1.6241293 -2.5823041e+38
2.2197442 0.56867683 1.6241293 -2.5823562e+38
2.2317438 0.56856996 1.6264036 -2.608889e+38
2.2437434 0.56841737 1.6286778 -2.6356294e+38
2.2437339 0.5645107 1.6286778 -2.6092527e+38
2.2557335 0.56428951 1.6309521 -2.5693241e+38
2.255724 0.56036007 1.6309521 -2.5826166e+38
2.2557144 0.55643052 1.6309521 -2.5826166e+38
2.2687149 0.55641931 1.6334159 -2.5826168e+38
2.2687054 0.55246502 1.6334159 -2.5693765e+38
2.280704 0.55208194 1.6356902 -2.5827728e+38
2.2806945 0.54810476 1.6356902 -2.5828245e+38
