# .PCD v0.7 - Point Cloud Data file format
VERSION 0.7
FIELDS x y z rgb
SIZE 4 4 4 4
TYPE F F F F
COUNT 1 1 1 1
WIDTH 1056
HEIGHT 1
VIEWPOINT 0 0 0 1 0 0 0
POINTS 1056
DATA ascii
2.5785899 -0.53265262 2.1489246 -2.395425e+38
2.5785792 -0.5372088 2.1489246 -2.3954254e+38
2.5785682 -0.54176491 2.1489246 -2.408614e+38
2.5785575 -0.54632115 2.1489246 -2.4218544e+38
2.5785468 -0.55087727 2.1489246 -2.4217507e+38
2.578536 -0.55543351 2.1489246 -2.4084065e+38
2.5785253 -0.55998963 2.1489246 -2.4083548e+38
2.5785143 -0.56454581 2.1489246 -2.3952704e+38
2.5785036 -0.56910199 2.1489246 -2.4353034e+38
2.5954845 -0.57724404 2.1553845 -2.4752318e+38
2.6124649 -0.58545095 2.1618445 -2.4751795e+38
2.6124539 -0.59007186 2.1618445 -2.4750754e+38
2.612443 -0.59469283 2.1618445 -2.4616791e+38
2.612432 -0.59931374 2.1618445 -2.4484387e+38
2.612421 -0.60393471 2.1618445 -2.4218542e+38
2.5954194 -0.60477543 2.1553845 -2.3952694e+38
2.5784175 -0.60555142 2.1489246 -2.4086136e+38
2.5784066 -0.6101076 2.1489246 -2.4085615e+38
2.5783958 -0.61466378 2.1489246 -2.4085096e+38
2.5623937 -0.61554021 2.1428447 -2.4085615e+38
2.5623829 -0.62006587 2.1428447 -2.3952173e+38
2.5623722 -0.62459159 2.1428447 -2.3819779e+38
2.5453711 -0.62511045 2.1363845 -2.395271e+38
2.5453603 -0.62960374 2.1363845 -2.4087203e+38
2.5453498 -0.6340971 2.1363845 -2.4885273e+38
2.5453391 -0.63859034 2.1363845 -2.5553005e+38
2.5453286 -0.64308369 2.1363845 -2.6220219e+38
2.5623081 -0.65174586 2.1428447 -2.6756597e+38
2.5622973 -0.65627158 2.1428447 -2.7157459e+38
2.5782773 -0.66478169 2.1489246 -2.7421219e+38
2.5782666 -0.66933793 2.1489246 -2.7684978e+38
2.5782559 -0.67389411 2.1489246 -2.7821034e+38
2.5782452 -0.67845029 2.1489246 -2.7689688e+38
2.5782342 -0.68300641 2.1489246 -2.7558308e+38
2.5782235 -0.68756258 2.1489246 -2.6496989e+38
2.5782127 -0.69211882 2.1489246 -2.5300195e+38
2.578202 -0.696675 2.1489246 -2.3041578e+38
2.5781913 -0.70123118 2.1489246 -2.0791234e+38
2.5781803 -0.7057873 2.1489246 -2.5709895e+38
2.5781696 -0.71034348 2.1489246 -3.0515413e+38
2.5781589 -0.71489972 2.1489246 nan
2.5781481 -0.7194559 2.1489246 nan
2.5781374 -0.72401202 2.1489246 nan
2.6290932 -0.74262887 2.1683044 nan
2.6290822 -0.74728215 2.1683044 nan
2.6290712 -0.75193548 2.1683044 nan
2.6290603 -0.75658882 2.1683044 nan
2.6290491 -0.76124215 2.1683044 nan
2.6290381 -0.76589549 2.1683044 nan
2.5950503 -0.76078641 2.1553845 nan
2.6300287 -0.34709656 2.1636512 -2.6219158e+38
2.6470129 -0.35371676 2.1700788 -2.6352077e+38
2.6300066 -0.35640323 2.1636512 -2.6351554e+38
2.6299956 -0.36105654 2.1636512 -2.6219148e+38
2.6299846 -0.36570987 2.1636512 -2.6086223e+38
2.5958426 -0.42582166 2.1507959 -2.4883651e+38
2.5958316 -0.43041024 2.1507959 -2.4750732e+38
2.5958209 -0.43499878 2.1507959 -2.4083007e+38
2.5958099 -0.43958735 2.1507959 -2.3413732e+38
2.6127818 -0.45144373 2.1572237 -2.662051e+38
2.6297646 -0.45877627 2.1636512 -2.8884358e+38
2.6297536 -0.46342957 2.1636512 -3.1146123e+38
2.6297424 -0.4680829 2.1636512 -3.248106e+38
2.6297314 -0.47273624 2.1636512 -3.3810878e+38
2.6297204 -0.47738954 2.1636512 nan
2.6297095 -0.48204288 2.1636512 nan
2.6127052 -0.48379031 2.1572237 nan
2.6296875 -0.49134952 2.1636512 nan
2.6126835 -0.49303219 2.1572237 nan
2.5956798 -0.49465007 2.1507959 nan
2.595669 -0.49923861 2.1507959 -3.1950446e+38
2.5956581 -0.50382715 2.1507959 -2.9416049e+38
2.5956473 -0.5084157 2.1507959 -2.754938e+38
2.5956364 -0.5130043 2.1507959 -2.5817236e+38
2.5956256 -0.51759285 2.1507959 -2.5417954e+38
2.5956147 -0.52218139 2.1507959 -2.5150028e+38
2.5956039 -0.52676994 2.1507959 -2.448541e+38
2.5786006 -0.52809638 2.1443684 -2.3954242e+38
2.5785899 -0.53265262 2.1443684 -2.3953725e+38
2.5785792 -0.5372088 2.1443684 -2.3953209e+38
2.5785682 -0.54176491 2.1443684 -2.4085617e+38
2.5785575 -0.54632115 2.1443684 -2.4218021e+38
2.5785468 -0.55087727 2.1443684 -2.4084579e+38
2.5625436 -0.55218041 2.1383188 -2.3950621e+38
2.5625329 -0.55670613 2.1383188 -2.3951145e+38
2.5785143 -0.56454581 2.1443684 -2.4085112e+38
2.5954952 -0.5726555 2.1507959 -2.4220116e+38
2.6124759 -0.58082998 2.1572237 -2.435459e+38
2.6124649 -0.58545095 2.1572237 -2.4485428e+38
2.6124539 -0.59007186 2.1572237 -2.4484385e+38
2.6294343 -0.59837586 2.1636512 -2.448386e+38
2.6294234 -0.60302919 2.1636512 -2.4483858e+38
2.6294124 -0.60768253 2.1636512 -2.421853e+38
2.6124103 -0.60855561 2.1572237 -2.3953727e+38
2.5954084 -0.60936397 2.1507959 -2.3952692e+38
2.5784066 -0.6101076 2.1443684 -2.4085617e+38
2.5783958 -0.61466378 2.1443684 -2.40851e+38
2.5783851 -0.61921996 2.1443684 -2.4085619e+38
2.5623829 -0.62006587 2.1383188 -2.3952175e+38
2.5623722 -0.62459159 2.1383188 -2.3951664e+38
2.5453711 -0.62511045 2.1318913 -2.4085114e+38
2.562351 -0.63364303 2.1383188 -2.4219087e+38
2.5623403 -0.63816875 2.1383188 -2.4884752e+38
2.5623295 -0.64269441 2.1383188 -2.5419045e+38
2.5623188 -0.64722013 2.1383188 -2.5820935e+38
2.5623081 -0.65174586 2.1383188 -2.622387e+38
2.5622973 -0.65627158 2.1383188 -2.6625244e+38
2.5782773 -0.66478169 2.1443684 -2.6893694e+38
2.5782666 -0.66933793 2.1443684 -2.7026104e+38
2.5782559 -0.67389411 2.1443684 -2.716111e+38
2.5782452 -0.67845029 2.1443684 -2.7292481e+38
2.5952239 -0.68736947 2.1507959 -2.7558322e+38
2.5952132 -0.69195801 2.1507959 -2.6896301e+38
2.5952022 -0.69654661 2.1507959 -2.6368761e+38
2.578202 -0.696675 2.1443684 -2.5300184e+38
2.5781913 -0.70123118 2.1443684 -2.4230005e+38
2.5781803 -0.7057873 2.1443684 -2.5963667e+38
2.5781696 -0.71034348 2.1443684 -2.7691241e+38
2.5781589 -0.71489972 2.1443684 -2.9574585e+38
2.5781481 -0.7194559 2.1443684 -3.1598059e+38
2.5781374 -0.72401202 2.1443684 nan
2.5951154 -0.73325503 2.1507959 nan
2.6290822 -0.74728215 2.1636512 nan
2.6290712 -0.75193548 2.1636512 nan
2.6290603 -0.75658882 2.1636512 nan
2.6290491 -0.76124215 2.1636512 nan
2.5950613 -0.75619787 2.1507959 nan
2.5950503 -0.76078641 2.1507959 nan
2.6300397 -0.34244326 2.158998 -2.5819351e+38
2.6300287 -0.34709656 2.158998 -2.6084156e+38
2.6300175 -0.3517499 2.158998 -2.6349998e+38
2.6300066 -0.35640323 2.158998 -2.6349477e+38
2.6299956 -0.36105654 2.158998 -2.621811e+38
2.6299846 -0.36570987 2.158998 -2.6085706e+38
2.5958316 -0.43041024 2.1462073 -2.4884178e+38
2.5958209 -0.43499878 2.1462073 -2.5015545e+38
2.5958099 -0.43958735 2.1462073 -2.5012961e+38
2.5957992 -0.4441759 2.1462073 -2.4748168e+38
2.5957882 -0.44876447 2.1462073 -2.4355641e+38
2.6127708 -0.45606464 2.1526027 -2.8222354e+38
2.6297536 -0.46342957 2.158998 -3.2083373e+38
2.6297424 -0.4680829 2.158998 -3.3819701e+38
2.6297314 -0.47273624 2.158998 nan
2.6297204 -0.47738954 2.158998 nan
2.6297095 -0.48204288 2.158998 nan
2.6127052 -0.48379031 2.1526027 nan
2.6296875 -0.49134952 2.158998 nan
2.6126835 -0.49303219 2.1526027 nan
2.6126726 -0.4976531 2.1526027 nan
2.595669 -0.49923861 2.1462073 -3.2889262e+38
2.5956581 -0.50382715 2.1462073 -3.1283217e+38
2.5956473 -0.5084157 2.1462073 -2.8345868e+38
2.5956364 -0.5130043 2.1462073 -2.5285001e+38
2.5956256 -0.51759285 2.1462073 -2.5151553e+38
2.5956147 -0.52218139 2.1462073 -2.5015531e+38
2.5956039 -0.52676994 2.1462073 -2.4483856e+38
2.5786006 -0.52809638 2.1398122 -2.3953209e+38
2.5785899 -0.53265262 2.1398122 -2.3953215e+38
2.5785792 -0.5372088 2.1398122 -2.3820293e+38
2.5785682 -0.54176491 2.1398122 -2.3952696e+38
2.5625648 -0.54312897 2.1337931 -2.4085096e+38
2.5785468 -0.55087727 2.1398122 -2.3951132e+38
2.5625436 -0.55218041 2.1337931 -2.3818214e+38
2.5625329 -0.55670613 2.1337931 -2.3950619e+38
2.5785143 -0.56454581 2.1398122 -2.4085623e+38
2.5785036 -0.56910199 2.1398122 -2.4086668e+38
2.6124759 -0.58082998 2.1526027 -2.3953739e+38
2.6124649 -0.58545095 2.1526027 -2.4085619e+38
2.6294453 -0.59372258 2.158998 -2.4217497e+38
2.6294343 -0.59837586 2.158998 -2.4350416e+38
2.6294234 -0.60302919 2.158998 -2.4350412e+38
2.6294124 -0.60768253 2.158998 -2.4218526e+38
2.6124103 -0.60855561 2.1526027 -2.3952165e+38
2.5954084 -0.60936397 2.1462073 -2.395113e+38
2.5784066 -0.6101076 2.1398122 -2.3951654e+38
2.5783958 -0.61466378 2.1398122 -2.3951658e+38
2.5623937 -0.61554021 2.1337931 -2.3952177e+38
2.5623829 -0.62006587 2.1337931 -2.4084581e+38
2.5453815 -0.62061709 2.127398 -2.4084587e+38
2.5453711 -0.62511045 2.127398 -2.4217516e+38
2.562351 -0.63364303 2.1337931 -2.4351489e+38
2.5623403 -0.63816875 2.1337931 -2.488319e+38
2.5623295 -0.64269441 2.1337931 -2.5284563e+38
2.5623188 -0.64722013 2.1337931 -2.5552494e+38
2.5623081 -0.65174586 2.1337931 -2.5690619e+38
2.5782881 -0.66022551 2.1398122 -2.6093551e+38
2.5952675 -0.66901523 2.1462073 -2.6360963e+38
2.5952566 -0.67360377 2.1462073 -2.6496492e+38
2.5952456 -0.67819238 2.1462073 -2.6495457e+38
2.5952349 -0.68278086 2.1462073 -2.7027155e+38
2.5952239 -0.68736947 2.1462073 -2.7425919e+38
2.6122026 -0.6963535 2.1526027 -2.7426436e+38
2.5952022 -0.69654661 2.1462073 -2.7427473e+38
2.5951915 -0.70113516 2.1462073 -2.7559355e+38
2.5781913 -0.70123118 2.1398122 -2.7689134e+38
2.5781803 -0.7057873 2.1398122 -2.6357281e+38
2.5781696 -0.71034348 2.1398122 -2.4893607e+38
2.5781589 -0.71489972 2.1398122 -2.2622012e+38
2.5781481 -0.7194559 2.1398122 -2.0399238e+38
2.5781374 -0.72401202 2.1398122 -2.9999846e+38
2.5781264 -0.7285682 2.1398122 nan
2.6290822 -0.74728215 2.158998 nan
2.6290712 -0.75193548 2.158998 nan
2.6290603 -0.75658882 2.158998 nan
2.6290491 -0.76124215 2.158998 nan
2.5950613 -0.75619787 2.1462073 nan
2.5780618 -0.75590527 2.1398122 nan
2.6300287 -0.34709656 2.1543446 -2.595071e+38
2.6300175 -0.3517499 2.1543446 -2.6216035e+38
2.6300066 -0.35640323 2.1543446 -2.6216552e+38
2.6299956 -0.36105654 2.1543446 -2.6217073e+38
2.6299846 -0.36570987 2.1543446 -2.6085708e+38
2.5958426 -0.42582166 2.1416187 -2.4885738e+38
2.5958316 -0.43041024 2.1416187 -2.5017624e+38
2.5958209 -0.43499878 2.1416187 -2.5149508e+38
2.5958099 -0.43958735 2.1416187 -2.5412772e+38
2.5957992 -0.4441759 2.1416187 -2.5145383e+38
2.5957882 -0.44876447 2.1416187 -2.500988e+38
2.6127708 -0.45606464 2.1479816 -2.768912e+38
2.6297536 -0.46342957 2.1543446 -3.036009e+38
2.6297424 -0.4680829 2.1543446 -3.3423077e+38
2.6297314 -0.47273624 2.1543446 nan
2.6297204 -0.47738954 2.1543446 nan
2.6127162 -0.47916934 2.1479816 nan
2.6127052 -0.48379031 2.1479816 nan
2.6126943 -0.48841122 2.1479816 nan
2.6126835 -0.49303219 2.1479816 nan
2.5956798 -0.49465007 2.1416187 nan
2.595669 -0.49923861 2.1416187 -3.3822366e+38
2.5956581 -0.50382715 2.1416187 -3.2220964e+38
2.5956473 -0.5084157 2.1416187 -2.9680276e+38
2.5956364 -0.5130043 2.1416187 -2.7274665e+38
2.5956256 -0.51759285 2.1416187 -2.6343147e+38
2.5956147 -0.52218139 2.1416187 -2.5409091e+38
2.5956039 -0.52676994 2.1416187 -2.4881071e+38
2.5786006 -0.52809638 2.1352561 -2.4350947e+38
2.5785899 -0.53265262 2.1352561 -2.4218552e+38
2.5785792 -0.5372088 2.1352561 -2.4219067e+38
2.5785682 -0.54176491 2.1352561 -2.4085619e+38
2.5785575 -0.54632115 2.1352561 -2.4086134e+38
2.5785468 -0.55087727 2.1352561 -2.3952167e+38
2.5625436 -0.55218041 2.1292675 -2.3818208e+38
2.5625329 -0.55670613 2.1292675 -2.3819248e+38
2.5785143 -0.56454581 2.1352561 -2.382081e+38
2.5785036 -0.56910199 2.1352561 -2.3953217e+38
2.6124759 -0.58082998 2.1479816 -2.40851e+38
2.6294563 -0.58906925 2.1543446 -2.4084576e+38
2.6294453 -0.59372258 2.1543446 -2.4215938e+38
2.6294343 -0.59837586 2.1543446 -2.4216451e+38
2.6294234 -0.60302919 2.1543446 -2.4348852e+38
2.6294124 -0.60768253 2.1543446 -2.4216964e+38
2.6124103 -0.60855561 2.1479816 -2.4084045e+38
2.6123993 -0.61317658 2.1479816 -2.3951126e+38
2.5953977 -0.61395252 2.1416187 -2.3951652e+38
2.5783958 -0.61466378 2.1352561 -2.3951656e+38
2.5783851 -0.61921996 2.1352561 -2.4084581e+38
2.5623829 -0.62006587 2.1292675 -2.4084061e+38
2.5453815 -0.62061709 2.1229045 -2.4083548e+38
2.5453711 -0.62511045 2.1229045 -2.4350436e+38
2.5453603 -0.62960374 2.1229045 -2.4616811e+38
2.5623403 -0.63816875 2.1292675 -2.4883186e+38
2.5623295 -0.64269441 2.1292675 -2.5283003e+38
2.5623188 -0.64722013 2.1292675 -2.5286648e+38
2.5623081 -0.65174586 2.1292675 -2.5424771e+38
2.5782881 -0.66022551 2.1352561 -2.5692702e+38
2.5952675 -0.66901523 2.1416187 -2.609304e+38
2.5952566 -0.67360377 2.1416187 -2.6227011e+38
2.5952456 -0.67819238 2.1416187 -2.6359938e+38
2.6122243 -0.68711162 2.1479816 -2.6627346e+38
2.6122136 -0.69173253 2.1479816 -2.7026631e+38
2.6122026 -0.6963535 2.1479816 -2.7159552e+38
2.5952022 -0.69654661 2.1416187 -2.7291956e+38
2.5951915 -0.70113516 2.1416187 -2.7425396e+38
2.5781913 -0.70123118 2.1352561 -2.7558827e+38
2.5781803 -0.7057873 2.1352561 -2.6626281e+38
2.5781696 -0.71034348 2.1352561 -2.5695274e+38
2.5781589 -0.71489972 2.1352561 -2.3564325e+38
2.5781481 -0.7194559 2.1352561 -2.1567951e+38
2.5781374 -0.72401202 2.1352561 -2.5448737e+38
2.5781264 -0.7285682 2.1352561 -2.9457756e+38
2.5951047 -0.73784363 2.1416187 nan
2.5950937 -0.74243218 2.1416187 nan
2.595083 -0.74702072 2.1416187 nan
2.6290491 -0.76124215 2.1543446 nan
2.5950613 -0.75619787 2.1416187 nan
2.5950503 -0.76078641 2.1416187 nan
2.5950396 -0.76537502 2.1416187 nan
2.6130331 -0.34516209 2.1433606 -2.5683311e+38
2.6300175 -0.3517499 2.1496911 -2.5950193e+38
2.6300066 -0.35640323 2.1496911 -2.6083633e+38
2.6299956 -0.36105654 2.1496911 -2.6218631e+38
2.6299846 -0.36570987 2.1496911 -2.6220188e+38
2.5788376 -0.42786053 2.1306996 -2.5018663e+38
2.5958209 -0.43499878 2.1370301 -2.5417431e+38
2.5958099 -0.43958735 2.1370301 -2.5812048e+38
2.6127927 -0.44682276 2.1433606 -2.5676009e+38
2.6127818 -0.45144373 2.1433606 -2.5551441e+38
2.6297646 -0.45877627 2.1496911 -2.7163696e+38
2.6297536 -0.46342957 2.1496911 -2.8634199e+38
2.6297424 -0.4680829 2.1496911 -3.303108e+38
2.6297314 -0.47273624 2.1496911 nan
2.6297204 -0.47738954 2.1496911 nan
2.6127162 -0.47916934 2.1433606 nan
2.6127052 -0.48379031 2.1433606 nan
2.6126943 -0.48841122 2.1433606 nan
2.6126835 -0.49303219 2.1433606 nan
2.5956798 -0.49465007 2.1370301 nan
2.595669 -0.49923861 2.1370301 nan
2.5956581 -0.50382715 2.1370301 -3.3151978e+38
2.5956473 -0.5084157 2.1370301 -3.1145617e+38
2.5956364 -0.5130043 2.1370301 -2.9142381e+38
2.5956256 -0.51759285 2.1370301 -2.7403434e+38
2.5786221 -0.51898402 2.1306996 -2.5675466e+38
2.5786114 -0.52354026 2.1306996 -2.5147438e+38
2.5786006 -0.52809638 2.1306996 -2.4616272e+38
2.5785899 -0.53265262 2.1306996 -2.4616799e+38
2.5785792 -0.5372088 2.1306996 -2.4483872e+38
2.5785682 -0.54176491 2.1306996 -2.4218025e+38
2.5785575 -0.54632115 2.1306996 -2.3952696e+38
2.5785468 -0.55087727 2.1306996 -2.3819254e+38
2.5625436 -0.55218041 2.1247416 -2.3686331e+38
2.5785143 -0.56454581 2.1306996 -2.355497e+38
2.5785036 -0.56910199 2.1306996 -2.3953741e+38
2.6124759 -0.58082998 2.1433606 -2.4218023e+38
2.6294563 -0.58906925 2.1496911 -2.4216461e+38
2.6294453 -0.59372258 2.1496911 -2.408353e+38
2.6294343 -0.59837586 2.1496911 -2.4215927e+38
2.6294234 -0.60302919 2.1496911 -2.4215925e+38
2.6294124 -0.60768253 2.1496911 -2.4216443e+38
2.6124103 -0.60855561 2.1433606 -2.4083005e+38
2.6123993 -0.61317658 2.1433606 -2.3949567e+38
2.5953977 -0.61395252 2.1370301 -2.3817686e+38
2.5624044 -0.61101454 2.1247416 -2.4084057e+38
2.5623937 -0.61554021 2.1247416 -2.4217501e+38
2.5623829 -0.62006587 2.1247416 -2.4216986e+38
2.5453815 -0.62061709 2.1184111 -2.4084067e+38
2.5453711 -0.62511045 2.1184111 -2.448284e+38
2.5453603 -0.62960374 2.1184111 -2.4882136e+38
2.5623403 -0.63816875 2.1247416 -2.5014549e+38
2.5623295 -0.64269441 2.1247416 -2.5150598e+38
2.5623188 -0.64722013 2.1247416 -2.5152685e+38
2.5623081 -0.65174586 2.1247416 -2.5023924e+38
2.5782881 -0.66022551 2.1306996 -2.5425299e+38
2.5952675 -0.66901523 2.1370301 -2.569271e+38
2.6122463 -0.67786974 2.1433606 -2.5957527e+38
2.6122353 -0.68249065 2.1433606 -2.6225973e+38
2.6122243 -0.68711162 2.1433606 -2.6360458e+38
2.6122136 -0.69173253 2.1433606 -2.6493898e+38
2.6122026 -0.6963535 2.1433606 -2.6759741e+38
2.5952022 -0.69654661 2.1370301 -2.7025587e+38
2.5951915 -0.70113516 2.1370301 -2.7157992e+38
2.5781913 -0.70123118 2.1306996 -2.7291952e+38
2.5621903 -0.70152855 2.1247416 -2.6892662e+38
2.5781696 -0.71034348 2.1306996 -2.6363551e+38
2.5781589 -0.71489972 2.1306996 -2.4505731e+38
2.5781481 -0.7194559 2.1306996 -2.2637566e+38
2.5781374 -0.72401202 2.1306996 -2.1034729e+38
2.5781264 -0.7285682 2.1306996 -1.9325447e+38
2.5951047 -0.73784363 2.1370301 -2.6644531e+38
2.5950937 -0.74243218 2.1370301 -3.397559e+38
2.6120715 -0.75180477 2.1433606 nan
2.6120605 -0.75642568 2.1433606 nan
2.6120496 -0.76104665 2.1433606 nan
2.6120386 -0.76566762 2.1433606 nan
2.6130331 -0.34516209 2.1387398 -2.5683832e+38
2.6300175 -0.3517499 2.1450379 -2.621656e+38
2.6130114 -0.35440397 2.1387398 -2.6483442e+38
2.6130004 -0.35902491 2.1387398 -2.6751882e+38
2.6299846 -0.36570987 2.1450379 -2.648759e+38
2.5788376 -0.42786053 2.1261435 -2.5418469e+38
2.5958209 -0.43499878 2.1324418 -2.5416912e+38
2.6128037 -0.44220182 2.1387398 -2.5545149e+38
2.6127927 -0.44682276 2.1387398 -2.4483312e+38
2.6127818 -0.45144373 2.1387398 -2.3425721e+38
2.6297646 -0.45877627 2.1450379 -2.5829831e+38
2.6297536 -0.46342957 2.1450379 -2.8234942e+38
2.6297424 -0.4680829 2.1450379 -3.2632334e+38
2.6297314 -0.47273624 2.1450379 nan
2.6297204 -0.47738954 2.1450379 nan
2.6127162 -0.47916934 2.1387398 nan
2.6127052 -0.48379031 2.1387398 nan
2.6126943 -0.48841122 2.1387398 nan
2.6126835 -0.49303219 2.1387398 nan
2.5956798 -0.49465007 2.1324418 nan
2.595669 -0.49923861 2.1324418 nan
2.5956581 -0.50382715 2.1324418 nan
2.5956473 -0.5084157 2.1324418 -3.1549653e+38
2.5956364 -0.5130043 2.1324418 -2.8752488e+38
2.5956256 -0.51759285 2.1324418 -2.7143318e+38
2.5786221 -0.51898402 2.1261435 -2.5538919e+38
2.5786114 -0.52354026 2.1261435 -2.4748671e+38
2.5786006 -0.52809638 2.1261435 -2.4083542e+38
2.5785899 -0.53265262 2.1261435 -2.4483353e+38
2.5785792 -0.5372088 2.1261435 -2.4881602e+38
2.5785682 -0.54176491 2.1261435 -2.4749718e+38
2.5785575 -0.54632115 2.1261435 -2.4616797e+38
2.5785468 -0.55087727 2.1261435 -2.4351473e+38
2.6294563 -0.58906925 2.1450379 -2.4217497e+38
2.6294453 -0.59372258 2.1450379 -2.4217489e+38
2.612443 -0.59469283 2.1387398 -2.4216441e+38
2.612432 -0.59931374 2.1387398 -2.4215921e+38
2.612421 -0.60393471 2.1387398 -2.4082996e+38
2.6124103 -0.60855561 2.1387398 -2.3949559e+38
2.6123993 -0.61317658 2.1387398 -2.381664e+38
2.5784066 -0.6101076 2.1261435 -2.3684242e+38
2.5624044 -0.61101454 2.1202159 -2.3685285e+38
2.5623937 -0.61554021 2.1202159 -2.3686329e+38
2.5453923 -0.6161238 2.1139178 -2.3685816e+38
2.5453815 -0.62061709 2.1139178 -2.3686339e+38
2.5453711 -0.62511045 2.1139178 -2.3952187e+38
2.5453603 -0.62960374 2.1139178 -2.4218041e+38
2.5623403 -0.63816875 2.1202159 -2.4617335e+38
2.5623295 -0.64269441 2.1202159 -2.4885267e+38
2.5623188 -0.64722013 2.1202159 -2.4754431e+38
2.5782988 -0.65566939 2.1261435 -2.4624634e+38
2.5782881 -0.66022551 2.1261435 -2.5026009e+38
2.5952675 -0.66901523 2.1324418 -2.5294459e+38
2.6122463 -0.67786974 2.1387398 -2.5560312e+38
2.6122353 -0.68249065 2.1387398 -2.5960123e+38
2.6122243 -0.68711162 2.1387398 -2.6093567e+38
2.6122136 -0.69173253 2.1387398 -2.6226488e+38
2.6291924 -0.70074898 2.1450379 -2.6492332e+38
2.6121917 -0.70097446 2.1387398 -2.6758701e+38
2.6121807 -0.70559531 2.1387398 -2.6892145e+38
2.5951805 -0.7057237 2.1324418 -2.6894228e+38
2.5781803 -0.7057873 2.1261435 -2.6761311e+38
2.5621796 -0.70605421 2.1202159 -2.6631502e+38
2.5781589 -0.71489972 2.1261435 -2.5567079e+38
2.5781481 -0.7194559 2.1261435 -2.4505238e+38
2.5781374 -0.72401202 2.1261435 -2.38323e+38
2.5781264 -0.7285682 2.1261435 -2.3293337e+38
2.5951047 -0.73784363 2.1324418 -2.6098733e+38
2.6120822 -0.7471838 2.1387398 -2.9031959e+38
2.6120715 -0.75180477 2.1387398 nan
2.6120605 -0.75642568 2.1387398 nan
2.6120496 -0.76104665 2.1387398 nan
2.5960379 -0.34322762 2.1278532 -2.5682792e+38
2.6130223 -0.34978303 2.1341188 -2.6347925e+38
2.6130114 -0.35440397 2.1341188 -2.6880655e+38
2.6130004 -0.35902491 2.1341188 -2.7284094e+38
2.6299846 -0.36570987 2.1403847 -2.6889995e+38
2.6299736 -0.37036318 2.1403847 -2.6488107e+38
2.6299627 -0.37501651 2.1403847 -2.6219661e+38
2.5788376 -0.42786053 2.1215873 -2.5685875e+38
2.5958209 -0.43499878 2.1278532 -2.5551392e+38
2.6128037 -0.44220182 2.1341188 -2.5282429e+38
2.6297865 -0.44946963 2.1403847 -2.328547e+38
2.6297755 -0.45412293 2.1403847 -2.1163425e+38
2.6297646 -0.45877627 2.1403847 -2.4495368e+38
2.6467471 -0.46617359 2.1466503 -2.7700632e+38
2.6467359 -0.47085932 2.1466503 -3.2106357e+38
2.6297314 -0.47273624 2.1403847 nan
2.6297204 -0.47738954 2.1403847 nan
2.6127162 -0.47916934 2.1341188 nan
2.6127052 -0.48379031 2.1341188 nan
2.6126943 -0.48841122 2.1341188 nan
2.6126835 -0.49303219 2.1341188 nan
2.5956798 -0.49465007 2.1278532 nan
2.595669 -0.49923861 2.1278532 nan
2.5956581 -0.50382715 2.1278532 nan
2.5956473 -0.5084157 2.1278532 -3.1947371e+38
2.5786438 -0.50987172 2.1215873 -2.8220805e+38
2.5956256 -0.51759285 2.1278532 -2.6745101e+38
2.5786221 -0.51898402 2.1215873 -2.5284007e+38
2.5786114 -0.52354026 2.1215873 -2.4491164e+38
2.5786006 -0.52809638 2.1215873 -2.3557583e+38
2.5785899 -0.53265262 2.1215873 -2.4484402e+38
2.6124649 -0.58545095 2.1341188 -2.4350937e+38
2.6124539 -0.59007186 2.1341188 -2.435041e+38
2.612443 -0.59469283 2.1341188 -2.421696e+38
2.612432 -0.59931374 2.1341188 -2.4082999e+38
2.5954301 -0.60018682 2.1278532 -2.3949556e+38
2.5954194 -0.60477543 2.1278532 -2.3683713e+38
2.5954084 -0.60936397 2.1278532 -2.3550792e+38
2.5784066 -0.6101076 2.1215873 -2.341891e+38
2.5624044 -0.61101454 2.1156902 -2.3286508e+38
2.5623937 -0.61554021 2.1156902 -2.3021188e+38
2.5623829 -0.62006587 2.1156902 -2.3153078e+38
2.5623722 -0.62459159 2.1156902 -2.3287563e+38
2.5453711 -0.62511045 2.1094246 -2.3420488e+38
2.562351 -0.63364303 2.1156902 -2.3553419e+38
2.5623403 -0.63816875 2.1156902 -2.4086156e+38
2.5623295 -0.64269441 2.1156902 -2.4619416e+38
2.5623188 -0.64722013 2.1156902 -2.4487541e+38
2.5782988 -0.65566939 2.1215873 -2.422534e+38
2.5952783 -0.66442662 2.1278532 -2.4627236e+38
2.5952675 -0.66901523 2.1278532 -2.4894648e+38
2.6122463 -0.67786974 2.1341188 -2.5293944e+38
2.6122353 -0.68249065 2.1341188 -2.5560312e+38
2.6292143 -0.69144231 2.1403847 -2.5826162e+38
2.6292033 -0.69609565 2.1403847 -2.5959602e+38
2.6291924 -0.70074898 2.1403847 -2.6224928e+38
2.6121917 -0.70097446 2.1341188 -2.6491815e+38
2.6121807 -0.70559531 2.1341188 -2.6492336e+38
2.5781913 -0.70123118 2.1215873 -2.6492855e+38
2.5781803 -0.7057873 2.1215873 -2.6759222e+38
2.5621796 -0.70605421 2.1156902 -2.6892145e+38
2.5781589 -0.71489972 2.1215873 -2.6624743e+38
2.5781481 -0.7194559 2.1215873 -2.6362524e+38
2.5951264 -0.72866648 2.1278532 -2.6761802e+38
2.5781264 -0.7285682 2.1215873 -2.7155364e+38
2.6120822 -0.7471838 2.1341188 -2.4111183e+38
2.5960379 -0.34322762 2.1232646 -2.5416425e+38
2.6130223 -0.34978303 2.129498 -2.6080522e+38
2.6130114 -0.35440397 2.129498 -2.6349485e+38
2.6130004 -0.35902491 2.129498 -2.6751886e+38
2.6299846 -0.36570987 2.1357312 -2.6488632e+38
2.6299736 -0.37036318 2.1357312 -2.6355186e+38
2.6299627 -0.37501651 2.1357312 -2.6219663e+38
2.6129568 -0.37750867 2.129498 -2.6083619e+38
2.6129458 -0.38212961 2.129498 -2.594913e+38
2.5788269 -0.43241668 2.1170311 -2.5551911e+38
2.6128037 -0.44220182 2.129498 -2.5550881e+38
2.6127927 -0.44682276 2.129498 -2.4350947e+38
2.6127818 -0.45144373 2.129498 -2.3283427e+38
2.6297646 -0.45877627 2.1357312 -2.4755977e+38
2.6297536 -0.46342957 2.1357312 -2.6364634e+38
2.6297424 -0.4680829 2.1357312 -3.0502977e+38
2.6297314 -0.47273624 2.1357312 nan
2.6127272 -0.4745484 2.129498 nan
2.5957232 -0.4762958 2.1232646 nan
2.5957124 -0.48088437 2.1232646 nan
2.6126943 -0.48841122 2.129498 nan
2.5956907 -0.49006149 2.1232646 nan
2.5956798 -0.49465007 2.1232646 nan
2.595669 -0.49923861 2.1232646 nan
2.5956581 -0.50382715 2.1232646 nan
2.5956473 -0.5084157 2.1232646 -3.3153008e+38
2.5786438 -0.50987172 2.1170311 -2.9426466e+38
2.5786331 -0.5144279 2.1170311 -2.9020915e+38
2.5786221 -0.51898402 2.1170311 -2.8614898e+38
2.5786114 -0.52354026 2.1170311 -2.7553092e+38
2.5786006 -0.52809638 2.1170311 -2.6487097e+38
2.6124759 -0.58082998 2.129498 -2.435198e+38
2.6124649 -0.58545095 2.129498 -2.4218012e+38
2.6124539 -0.59007186 2.129498 -2.4216449e+38
2.612443 -0.59469283 2.129498 -2.3950595e+38
2.5954411 -0.59559834 2.1232646 -2.3683713e+38
2.5954301 -0.60018682 2.1232646 -2.355079e+38
2.5784283 -0.60099524 2.1170311 -2.3417867e+38
2.5784175 -0.60555142 2.1170311 -2.3285462e+38
2.5784066 -0.6101076 2.1170311 -2.3153577e+38
2.5624044 -0.61101454 2.1111646 -2.3020655e+38
2.5623937 -0.61554021 2.1111646 -2.302118e+38
2.5453923 -0.6161238 2.1049314 -2.3154109e+38
2.5623722 -0.62459159 2.1111646 -2.3420997e+38
2.5623617 -0.62911731 2.1111646 -2.3552883e+38
2.5453603 -0.62960374 2.1049314 -2.3685814e+38
2.5623403 -0.63816875 2.1111646 -2.4086148e+38
2.5623295 -0.64269441 2.1111646 -2.4485965e+38
2.5623188 -0.64722013 2.1111646 -2.435513e+38
2.5782988 -0.65566939 2.1170311 -2.4357738e+38
2.5952783 -0.66442662 2.1232646 -2.4625673e+38
2.5952675 -0.66901523 2.1232646 -2.4893605e+38
2.6122463 -0.67786974 2.129498 -2.5027055e+38
2.6122353 -0.68249065 2.129498 -2.5293944e+38
2.6292143 -0.69144231 2.1357312 -2.5559274e+38
2.6292033 -0.69609565 2.1357312 -2.5825641e+38
2.6291924 -0.70074898 2.1357312 -2.6091486e+38
2.6121917 -0.70097446 2.129498 -2.6357851e+38
2.6121807 -0.70559531 2.129498 -2.6357851e+38
2.5781913 -0.70123118 2.1170311 -2.6357847e+38
2.5781803 -0.7057873 2.1170311 -2.662317e+38
2.5781696 -0.71034348 2.1170311 -2.6887464e+38
2.5781589 -0.71489972 2.1170311 -2.675766e+38
2.5781481 -0.7194559 2.1170311 -2.6760254e+38
2.5951264 -0.72866648 2.1232646 -2.6893175e+38
2.5951154 -0.73325503 2.1232646 -2.7159513e+38
2.6120932 -0.74256289 2.129498 -2.5827663e+38
2.6120822 -0.7471838 2.129498 -2.4631415e+38
2.6120715 -0.75180477 2.129498 -2.7040176e+38
2.595072 -0.75160927 2.1232646 -2.9458297e+38
2.5950613 -0.75619787 2.1232646 nan
2.5960379 -0.34322762 2.1186759 -2.5149531e+38
2.5960271 -0.34781617 2.1186759 -2.5681741e+38
2.6130114 -0.35440397 2.124877 -2.5949666e+38
2.6130004 -0.35902491 2.124877 -2.6219665e+38
2.6299846 -0.36570987 2.1310778 -2.6223819e+38
2.6299736 -0.37036318 2.1310778 -2.6088815e+38
2.6299627 -0.37501651 2.1310778 -2.6220178e+38
2.6129568 -0.37750867 2.124877 -2.6349982e+38
2.6129458 -0.38212961 2.124877 -2.6214459e+38
2.5789454 -0.38229874 2.1124749 -2.5948615e+38
2.5789347 -0.38685492 2.1124749 -2.6081021e+38
2.5629289 -0.38925514 2.1066389 -2.6212907e+38
2.5789132 -0.39596727 2.1124749 -2.6078946e+38
2.5789022 -0.40052342 2.1124749 -2.581829e+38
2.5788915 -0.40507963 2.1124749 -2.6085692e+38
2.5788808 -0.40963581 2.1124749 -2.6219134e+38
2.5628753 -0.41188365 2.1066389 -2.6352576e+38
2.5788593 -0.41874817 2.1124749 -2.6485495e+38
2.5628541 -0.42093503 2.1066389 -2.6087761e+38
2.5788376 -0.42786053 2.1124749 -2.5686396e+38
2.5788269 -0.43241668 2.1124749 -2.568484e+38
2.5788162 -0.43697286 2.1124749 -2.5684327e+38
2.5788054 -0.44152907 2.1124749 -2.5549853e+38
2.6127818 -0.45144373 2.124877 -2.5414336e+38
2.6297646 -0.45877627 2.1310778 -2.5145379e+38
2.6297536 -0.46342957 2.1310778 -2.4898313e+38
2.6297424 -0.4680829 2.1310778 -2.8913603e+38
2.6127381 -0.46992746 2.124877 -3.2902853e+38
2.6127272 -0.4745484 2.124877 nan
2.5957232 -0.4762958 2.1186759 nan
2.5957124 -0.48088437 2.1186759 nan
2.5957015 -0.48547292 2.1186759 nan
2.5956907 -0.49006149 2.1186759 nan
2.5956798 -0.49465007 2.1186759 nan
2.578676 -0.49620315 2.1124749 nan
2.5786653 -0.50075936 2.1124749 nan
2.5786545 -0.50531554 2.1124749 nan
2.5786438 -0.50987172 2.1124749 -3.0497702e+38
2.5786331 -0.5144279 2.1124749 -3.1164888e+38
2.5626292 -0.51597482 2.1066389 -3.1819109e+38
2.5626185 -0.52050048 2.1066389 -3.0618642e+38
2.6124759 -0.58082998 2.124877 -2.4351459e+38
2.6294563 -0.58906925 2.1310778 -2.4217493e+38
2.6124539 -0.59007186 2.124877 -2.395112e+38
2.612443 -0.59469283 2.124877 -2.3684228e+38
2.612432 -0.59931374 2.124877 -2.328494e+38
2.5954301 -0.60018682 2.1186759 -2.315202e+38
2.5784283 -0.60099524 2.1124749 -2.3019097e+38
2.5784175 -0.60555142 2.1124749 -2.3020137e+38
2.5624151 -0.60648882 2.1066389 -2.2887215e+38
2.5454135 -0.60713714 2.1004379 -2.2887217e+38
2.545403 -0.6116305 2.1004379 -2.2888261e+38
2.5453923 -0.6161238 2.1004379 -2.3154111e+38
2.5453815 -0.62061709 2.1004379 -2.3419441e+38
2.5453711 -0.62511045 2.1004379 -2.3551851e+38
2.562351 -0.63364303 2.1066389 -2.3686335e+38
2.5623403 -0.63816875 2.1066389 -2.4086668e+38
2.5623295 -0.64269441 2.1066389 -2.435356e+38
2.5783098 -0.65111321 2.1124749 -2.4355128e+38
2.5782988 -0.65566939 2.1124749 -2.4356176e+38
2.5952783 -0.66442662 2.1186759 -2.462307e+38
2.5952675 -0.66901523 2.1186759 -2.4758078e+38
2.6122463 -0.67786974 2.124877 -2.489205e+38
2.6122353 -0.68249065 2.124877 -2.4893092e+38
2.6122243 -0.68711162 2.124877 -2.5291867e+38
2.6122136 -0.69173253 2.124877 -2.5558753e+38
2.6291924 -0.70074898 2.1310778 -2.5824081e+38
2.6121917 -0.70097446 2.124877 -2.6090965e+38
2.6121807 -0.70559531 2.124877 -2.6090446e+38
2.5781913 -0.70123118 2.1124749 -2.6090965e+38
2.5781803 -0.7057873 2.1124749 -2.6488695e+38
2.5621796 -0.70605421 2.1066389 -2.6755581e+38
2.5781264 -0.7285682 2.1124749 -2.7026601e+38
2.595072 -0.75160927 2.1186759 -1.9997892e+38
2.5780725 -0.75134909 2.1124749 -3.2535812e+38
2.5960379 -0.34322762 2.1140873 -2.4750231e+38
2.5960271 -0.34781617 2.1140873 -2.5281405e+38
2.579021 -0.35040548 2.1079187 -2.5417962e+38
2.57901 -0.35496166 2.1079187 -2.5687964e+38
2.6299846 -0.36570987 2.1264246 -2.5820889e+38
2.6299736 -0.37036318 2.1264246 -2.5821925e+38
2.6299627 -0.37501651 2.1264246 -2.6085692e+38
2.6129568 -0.37750867 2.1202559 -2.6216538e+38
2.5959511 -0.37993607 2.1140873 -2.6216016e+38
2.5789454 -0.38229874 2.1079187 -2.6214461e+38
2.5789347 -0.38685492 2.1079187 -2.6346347e+38
2.5789239 -0.39141107 2.1079187 -2.6610635e+38
2.5789132 -0.39596727 2.1079187 -2.6349982e+38
2.5789022 -0.40052342 2.1079187 -2.6223288e+38
2.5788915 -0.40507963 2.1079187 -2.6354649e+38
2.5788808 -0.40963581 2.1079187 -2.6488612e+38
2.5788701 -0.41419196 2.1079187 -2.6486537e+38
2.5788593 -0.41874817 2.1079187 -2.6483937e+38
2.5628541 -0.42093503 2.1021132 -2.6085682e+38
2.5628433 -0.42546076 2.1021132 -2.5818284e+38
2.5788269 -0.43241668 2.1079187 -2.5685366e+38
2.5788162 -0.43697286 2.1079187 -2.568485e+38
2.5788054 -0.44152907 2.1079187 -2.5551413e+38
2.6127818 -0.45144373 2.1202559 -2.5550885e+38
2.6297646 -0.45877627 2.1264246 -2.4750225e+38
2.6297536 -0.46342957 2.1264246 -2.4088298e+38
2.6127491 -0.46530652 2.1202559 -2.8368917e+38
2.6127381 -0.46992746 2.1202559 -3.2638575e+38
2.6127272 -0.4745484 2.1202559 nan
2.5957232 -0.4762958 2.1140873 nan
2.5957124 -0.48088437 2.1140873 nan
2.5957015 -0.48547292 2.1140873 nan
2.5956907 -0.49006149 2.1140873 nan
2.578687 -0.49164701 2.1079187 nan
2.578676 -0.49620315 2.1079187 nan
2.5786653 -0.50075936 2.1079187 nan
2.5786545 -0.50531554 2.1079187 nan
2.5786438 -0.50987172 2.1079187 -3.2098033e+38
2.5786331 -0.5144279 2.1079187 -3.2364381e+38
2.5626292 -0.51597482 2.1021132 -3.2757402e+38
2.5456262 -0.51727074 2.0959444 -3.0356447e+38
2.5785143 -0.56454581 2.1079187 -2.448646e+38
2.5954952 -0.5726555 2.1140873 -2.4484381e+38
2.6124759 -0.58082998 2.1202559 -2.4483341e+38
2.6124649 -0.58545095 2.1202559 -2.4351972e+38
2.6124539 -0.59007186 2.1202559 -2.4351444e+38
2.5954518 -0.59100974 2.1140873 -2.3950589e+38
2.5954411 -0.59559834 2.1140873 -2.3549746e+38
2.578439 -0.59643906 2.1079187 -2.3417861e+38
2.5784283 -0.60099524 2.1079187 -2.3284423e+38
2.5624259 -0.6019631 2.1021132 -2.3152541e+38
2.5454242 -0.60264379 2.0959444 -2.2887219e+38
2.5454135 -0.60713714 2.0959444 -2.3020663e+38
2.545403 -0.6116305 2.0959444 -2.3154109e+38
2.5294008 -0.61241364 2.0901389 -2.341892e+38
2.5453815 -0.62061709 2.0959444 -2.3683733e+38
2.5453711 -0.62511045 2.0959444 -2.381822e+38
2.562351 -0.63364303 2.1021132 -2.4085108e+38
2.5623403 -0.63816875 2.1021132 -2.421959e+38
2.5623295 -0.64269441 2.1021132 -2.435356e+38
2.5783098 -0.65111321 2.1079187 -2.4221682e+38
2.5782988 -0.65566939 2.1079187 -2.4089286e+38
2.5952783 -0.66442662 2.1140873 -2.4356178e+38
2.5952675 -0.66901523 2.1140873 -2.449015e+38
2.6122463 -0.67786974 2.1202559 -2.4624121e+38
2.6122353 -0.68249065 2.1202559 -2.4758088e+38
2.6122243 -0.68711162 2.1202559 -2.5025496e+38
2.6122136 -0.69173253 2.1202559 -2.5292384e+38
2.6122026 -0.6963535 2.1202559 -2.5425828e+38
2.6121917 -0.70097446 2.1202559 -2.5692195e+38
2.6121807 -0.70559531 2.1202559 -2.5692714e+38
2.5951805 -0.7057237 2.1140873 -2.582616e+38
2.5951698 -0.71031225 2.1140873 -2.6223892e+38
2.5781696 -0.71034348 2.1079187 -2.6623699e+38
2.5960379 -0.34322762 2.1094987 -2.4483345e+38
2.5960271 -0.34781617 2.1094987 -2.475075e+38
2.5960162 -0.35240474 2.1094987 -2.5019196e+38
2.6130004 -0.35902491 2.1156349 -2.5152636e+38
2.6299846 -0.36570987 2.1217713 -2.5417443e+38
2.6299736 -0.37036318 2.1217713 -2.5552441e+38
2.6299627 -0.37501651 2.1217713 -2.5817248e+38
2.6129568 -0.37750867 2.1156349 -2.6084132e+38
2.6129458 -0.38212961 2.1156349 -2.6217574e+38
2.5959404 -0.38452464 2.1094987 -2.6348422e+38
2.5789347 -0.38685492 2.1033626 -2.6611675e+38
2.5789239 -0.39141107 2.1033626 -2.6880636e+38
2.5789132 -0.39596727 2.1033626 -2.6752389e+38
2.5789022 -0.40052342 2.1033626 -2.6488097e+38
2.5788915 -0.40507963 2.1033626 -2.6621537e+38
2.5788808 -0.40963581 2.1033626 -2.6754979e+38
2.5788701 -0.41419196 2.1033626 -2.6620496e+38
2.5788593 -0.41874817 2.1033626 -2.6485497e+38
2.5788484 -0.42330432 2.1033626 -2.6218613e+38
2.5788376 -0.42786053 2.1033626 -2.5819327e+38
2.5788269 -0.43241668 2.1033626 -2.5686406e+38
2.5788162 -0.43697286 2.1033626 -2.5552449e+38
2.5957992 -0.4441759 2.1094987 -2.5551934e+38
2.5957882 -0.44876447 2.1094987 -2.5550366e+38
2.6127708 -0.45606464 2.1156349 -2.4481779e+38
2.6127598 -0.46068558 2.1156349 -2.3293861e+38
2.6127491 -0.46530652 2.1156349 -2.7835123e+38
2.5957448 -0.46711868 2.1094987 -3.2235111e+38
2.5957341 -0.47170725 2.1094987 nan
2.5957232 -0.4762958 2.1094987 nan
2.5957124 -0.48088437 2.1094987 nan
2.5787084 -0.48253465 2.1033626 nan
2.5786977 -0.48709083 2.1033626 nan
2.578687 -0.49164701 2.1033626 nan
2.578676 -0.49620315 2.1033626 nan
2.5786653 -0.50075936 2.1033626 nan
2.5786545 -0.50531554 2.1033626 nan
2.5786438 -0.50987172 2.1033626 -3.3567479e+38
2.5786331 -0.5144279 2.1033626 -3.3702483e+38
2.5626292 -0.51597482 2.0975873 -3.369308e+38
2.529633 -0.51423103 2.085676 -3.022353e+38
2.5136299 -0.51562369 2.0799007 -2.6759699e+38
2.5955169 -0.56347841 2.1094987 -2.4619902e+38
2.5785143 -0.56454581 2.1033626 -2.4751269e+38
2.5954952 -0.5726555 2.1094987 -2.4748154e+38
2.6124759 -0.58082998 2.1156349 -2.4617314e+38
2.6124649 -0.58545095 2.1156349 -2.4620434e+38
2.5954628 -0.58642119 2.1094987 -2.4621989e+38
2.5784605 -0.58732671 2.1033626 -2.4216988e+38
2.5784497 -0.59188288 2.1033626 -2.3684248e+38
2.5624473 -0.59291172 2.0975873 -2.3684238e+38
2.5624366 -0.59743738 2.0975873 -2.3551833e+38
2.5624259 -0.6019631 2.0975873 -2.3285985e+38
2.5454242 -0.60264379 2.0914512 -2.288774e+38
2.5454135 -0.60713714 2.0914512 -2.3154111e+38
2.545403 -0.6116305 2.0914512 -2.3286518e+38
2.5453923 -0.6161238 2.0914512 -2.355081e+38
2.5453815 -0.62061709 2.0914512 -2.3818216e+38
2.5453711 -0.62511045 2.0914512 -2.4085623e+38
2.562351 -0.63364303 2.0975873 -2.4351992e+38
2.5623403 -0.63816875 2.0975873 -2.4351994e+38
2.5623295 -0.64269441 2.0975873 -2.4221154e+38
2.5783098 -0.65111321 2.1033626 -2.4088755e+38
2.5782988 -0.65566939 2.1033626 -2.3822917e+38
2.5952783 -0.66442662 2.1094987 -2.4088769e+38
2.5952675 -0.66901523 2.1094987 -2.4223257e+38
2.6122463 -0.67786974 2.1156349 -2.4356708e+38
2.6122353 -0.68249065 2.1156349 -2.4491711e+38
2.6122243 -0.68711162 2.1156349 -2.4759121e+38
2.6122136 -0.69173253 2.1156349 -2.4893086e+38
2.6122026 -0.6963535 2.1156349 -2.5027571e+38
2.6121917 -0.70097446 2.1156349 -2.5160495e+38
2.6121807 -0.70559531 2.1156349 -2.5293939e+38
2.5951805 -0.7057237 2.1094987 -2.5426347e+38
2.5951698 -0.71031225 2.1094987 -2.5957525e+38
2.5781696 -0.71034348 2.1033626 -2.6489734e+38
2.5960379 -0.34322762 2.1049104 -2.4883669e+38
2.5960271 -0.34781617 2.1049104 -2.5016596e+38
2.5960162 -0.35240474 2.1049104 -2.5150561e+38
2.6130004 -0.35902491 2.1110141 -2.5282443e+38
2.6299846 -0.36570987 2.1171179 -2.5284516e+38
2.6299736 -0.37036318 2.1171179 -2.5419516e+38
2.6299627 -0.37501651 2.1171179 -2.5551918e+38
2.6129568 -0.37750867 2.1110141 -2.56864e+38
2.6129458 -0.38212961 2.1110141 -2.5951726e+38
2.5959404 -0.38452464 2.1049104 -2.621654e+38
2.5959294 -0.38911319 2.1049104 -2.6349467e+38
2.5959187 -0.39370176 2.1049104 -2.661791e+38
2.5959077 -0.39829034 2.1049104 -2.6619987e+38
2.5789022 -0.40052342 2.0988064 -2.6620504e+38
2.5788915 -0.40507963 2.0988064 -2.675706e+38
2.5788808 -0.40963581 2.0988064 -2.6889459e+38
2.5788701 -0.41419196 2.0988064 -2.6754975e+38
2.5788593 -0.41874817 2.0988064 -2.6752385e+38
2.5788484 -0.42330432 2.0988064 -2.621914e+38
2.5788376 -0.42786053 2.0988064 -2.5818814e+38
2.5788269 -0.43241668 2.0988064 -2.5818812e+38
2.5788162 -0.43697286 2.0988064 -2.5685374e+38
2.5788054 -0.44152907 2.0988064 -2.5552455e+38
2.5957882 -0.44876447 2.1049104 -2.5419518e+38
2.5957775 -0.45335302 2.1049104 -2.4218526e+38
2.5957665 -0.45794159 2.1049104 -2.3151056e+38
2.5957558 -0.46253017 2.1049104 -2.6366193e+38
2.5957448 -0.46711868 2.1049104 -2.9442155e+38
2.5957341 -0.47170725 2.1049104 -3.2240326e+38
2.5957232 -0.4762958 2.1049104 nan
2.5957124 -0.48088437 2.1049104 nan
2.5787084 -0.48253465 2.0988064 nan
2.5786977 -0.48709083 2.0988064 nan
2.578687 -0.49164701 2.0988064 nan
2.578676 -0.49620315 2.0988064 nan
2.5786653 -0.50075936 2.0988064 -3.3702998e+38
2.5786545 -0.50531554 2.0988064 -3.3172349e+38
2.5786438 -0.50987172 2.0988064 -3.2774125e+38
2.5786331 -0.5144279 2.0988064 -3.2374859e+38
2.5626292 -0.51597482 2.0930617 -3.2107379e+38
2.5456262 -0.51727074 2.0869579 -2.9695999e+38
2.5136299 -0.51562369 2.0754683 -2.7297627e+38
2.578536 -0.55543351 2.0988064 -2.4486466e+38
2.5955169 -0.56347841 2.1049104 -2.4618864e+38
2.5955062 -0.56806701 2.1049104 -2.4617829e+38
2.5954952 -0.5726555 2.1049104 -2.395166e+38
2.5954845 -0.57724404 2.1049104 -2.3420502e+38
2.5954735 -0.58183259 2.1049104 -2.5293376e+38
2.5784714 -0.58277053 2.0988064 -2.7291897e+38
2.5624685 -0.58386028 2.0930617 -2.5287674e+38
2.562458 -0.588386 2.0930617 -2.3285504e+38
2.5624473 -0.59291172 2.0930617 -2.3552366e+38
2.5454454 -0.5936572 2.0869579 -2.3818725e+38
2.5454347 -0.59815049 2.0869579 -2.3552871e+38
2.5454242 -0.60264379 2.0869579 -2.3286512e+38
2.5454135 -0.60713714 2.0869579 -2.3287038e+38
2.545403 -0.6116305 2.0869579 -2.3286522e+38
2.5294008 -0.61241364 2.081213 -2.3552891e+38
2.5453815 -0.62061709 2.0869579 -2.3819777e+38
2.5623617 -0.62911731 2.0930617 -2.3953739e+38
2.562351 -0.63364303 2.0930617 -2.4087704e+38
2.5623403 -0.63816875 2.0930617 -2.4088225e+38
2.5783205 -0.64655703 2.0988064 -2.4089268e+38
2.5783098 -0.65111321 2.0988064 -2.3955828e+38
2.5782988 -0.65566939 2.0988064 -2.3822911e+38
2.5952783 -0.66442662 2.1049104 -2.4088763e+38
2.5952675 -0.66901523 2.1049104 -2.4355653e+38
2.6122463 -0.67786974 2.1110141 -2.4356176e+38
2.6122353 -0.68249065 2.1110141 -2.4490663e+38
2.6122243 -0.68711162 2.1110141 -2.475807e+38
2.6122136 -0.69173253 2.1110141 -2.5025479e+38
2.6122026 -0.6963535 2.1110141 -2.5159445e+38
2.6121917 -0.70097446 2.1110141 -2.5425814e+38
2.6121807 -0.70559531 2.1110141 -2.555926e+38
2.5951805 -0.7057237 2.1049104 -2.5691669e+38
2.5951698 -0.71031225 2.1049104 -2.6224405e+38
2.5781696 -0.71034348 2.0988064 -2.6756094e+38
2.5960379 -0.34322762 2.1003218 -2.5283484e+38
2.5960271 -0.34781617 2.1003218 -2.5282963e+38
2.5960162 -0.35240474 2.1003218 -2.5282963e+38
2.5960054 -0.35699326 2.1003218 -2.5282443e+38
2.6299846 -0.36570987 2.1124644 -2.5283482e+38
2.6299736 -0.37036318 2.1124644 -2.5151596e+38
2.6299627 -0.37501651 2.1124644 -2.5285036e+38
2.6129568 -0.37750867 2.1063931 -2.5286591e+38
2.6129458 -0.38212961 2.1063931 -2.568536e+38
2.6129348 -0.38675055 2.1063931 -2.5951207e+38
2.5959294 -0.38911319 2.1003218 -2.6216538e+38
2.5959187 -0.39370176 2.1003218 -2.6353101e+38
2.5959077 -0.39829034 2.1003218 -2.6489665e+38
2.595897 -0.40287888 2.1003218 -2.6625705e+38
2.595886 -0.40746745 2.1003218 -2.6763822e+38
2.595875 -0.41205597 2.1003218 -2.6893104e+38
2.5958643 -0.41664454 2.1003218 -2.6891021e+38
2.5958533 -0.42123309 2.1003218 -2.688635e+38
2.5788484 -0.42330432 2.0942502 -2.6352584e+38
2.5788376 -0.42786053 2.0942502 -2.5819333e+38
2.5788269 -0.43241668 2.0942502 -2.5818812e+38
2.5958099 -0.43958735 2.1003218 -2.5818818e+38
2.5957992 -0.4441759 2.1003218 -2.5552461e+38
2.5957882 -0.44876447 2.1003218 -2.5153176e+38
2.5957775 -0.45335302 2.1003218 -2.408772e+38
2.5957665 -0.45794159 2.1003218 -2.3029587e+38
2.5957558 -0.46253017 2.1003218 -2.4904065e+38
2.5957448 -0.46711868 2.1003218 -2.6644038e+38
2.5957341 -0.47170725 2.1003218 -2.9308761e+38
2.5957232 -0.4762958 2.1003218 -3.1977616e+38
2.5787191 -0.47797847 2.0942502 -3.3443418e+38
2.5787084 -0.48253465 2.0942502 nan
2.5786977 -0.48709083 2.0942502 nan
2.578687 -0.49164701 2.0942502 nan
2.578676 -0.49620315 2.0942502 -3.3440801e+38
2.5786653 -0.50075936 2.0942502 -3.2643273e+38
2.5786545 -0.50531554 2.0942502 -3.2245551e+38
2.5786438 -0.50987172 2.0942502 -3.1844708e+38
2.5786331 -0.5144279 2.0942502 -3.1180094e+38
2.5626292 -0.51597482 2.088536 -3.0503988e+38
2.5456262 -0.51727074 2.0824645 -2.9155479e+38
2.5296226 -0.51869386 2.0767503 -2.7690154e+38
2.5456047 -0.5262574 2.0824645 -2.568327e+38
2.5135984 -0.52892077 2.0710359 -2.4220623e+38
2.545573 -0.53973734 2.0824645 -2.4618874e+38
2.5625544 -0.54765469 2.088536 -2.461784e+38
2.578536 -0.55543351 2.0942502 -2.4618355e+38
2.5785253 -0.55998963 2.0942502 -2.4618353e+38
2.5955062 -0.56806701 2.1003218 -2.4484393e+38
2.5954952 -0.5726555 2.1003218 -2.3285494e+38
2.5784929 -0.57365817 2.0942502 -2.2100663e+38
2.5784822 -0.57821435 2.0942502 -2.597313e+38
2.5784714 -0.58277053 2.0942502 -2.9822669e+38
2.5624685 -0.58386028 2.088536 -2.6355225e+38
2.562458 -0.588386 2.088536 -2.2892977e+38
2.5454559 -0.5891639 2.0824645 -2.3419973e+38
2.5454454 -0.5936572 2.0824645 -2.3952694e+38
2.5294433 -0.59456229 2.0767503 -2.3819763e+38
2.5294325 -0.59902507 2.0767503 -2.3553398e+38
2.5454135 -0.60713714 2.0824645 -2.3420995e+38
2.545403 -0.6116305 2.0824645 -2.3288078e+38
2.5453923 -0.6161238 2.0824645 -2.3554968e+38
2.5623722 -0.62459159 2.088536 -2.3688412e+38
2.5623617 -0.62911731 2.088536 -2.3688934e+38
2.562351 -0.63364303 2.088536 -2.3689457e+38
2.5783312 -0.64200079 2.0942502 -2.3822901e+38
2.5783205 -0.64655703 2.0942502 -2.3955305e+38
2.5783098 -0.65111321 2.0942502 -2.3954268e+38
2.5782988 -0.65566939 2.0942502 -2.3822386e+38
2.5952783 -0.66442662 2.1003218 -2.4087716e+38
2.5952675 -0.66901523 2.1003218 -2.4353047e+38
2.5952566 -0.67360377 2.1003218 -2.4486493e+38
2.5952456 -0.67819238 2.1003218 -2.4489095e+38
2.5952349 -0.68278086 2.1003218 -2.4889427e+38
2.5952239 -0.68736947 2.1003218 -2.5156836e+38
2.6122026 -0.6963535 2.1063931 -2.5423729e+38
2.6121917 -0.70097446 2.1063931 -2.5558734e+38
2.5951915 -0.70113516 2.1003218 -2.5825625e+38
2.5951805 -0.7057237 2.1003218 -2.5959071e+38
2.5951698 -0.71031225 2.1003218 -2.6491285e+38
2.5781696 -0.71034348 2.0942502 -2.7023494e+38
2.5621688 -0.71057993 2.088536 -2.7288301e+38
2.5960379 -0.34322762 2.0957332 -2.541849e+38
2.6130223 -0.34978303 2.1017723 -2.5416409e+38
2.5960162 -0.35240474 2.0957332 -2.5415883e+38
2.6130004 -0.35902491 2.1017723 -2.5281407e+38
2.6129894 -0.36364585 2.1017723 -2.5150044e+38
2.6299736 -0.37036318 2.1078112 -2.5017117e+38
2.6299627 -0.37501651 2.1078112 -2.5018671e+38
2.6129568 -0.37750867 2.1017723 -2.5153149e+38
2.6129458 -0.38212961 2.1017723 -2.5286587e+38
2.6129348 -0.38675055 2.1017723 -2.5553992e+38
2.5959294 -0.38911319 2.0957332 -2.581984e+38
2.5959187 -0.39370176 2.0957332 -2.6088292e+38
2.6129019 -0.40061337 2.1017723 -2.6091417e+38
2.595897 -0.40287888 2.0957332 -2.6096618e+38
2.595886 -0.40746745 2.0957332 -2.6229028e+38
2.595875 -0.41205597 2.0957332 -2.63635e+38
2.5958643 -0.41664454 2.0957332 -2.6357261e+38
2.5958533 -0.42123309 2.0957332 -2.6486547e+38
2.5958426 -0.42582166 2.0957332 -2.6086219e+38
2.5788376 -0.42786053 2.089694 -2.5818814e+38
2.5958209 -0.43499878 2.0957332 -2.5685887e+38
2.5958099 -0.43958735 2.0957332 -2.5685899e+38
2.5957992 -0.4441759 2.0957332 -2.5419544e+38
2.5957882 -0.44876447 2.0957332 -2.528768e+38
2.5957775 -0.45335302 2.0957332 -2.4488604e+38
2.5957665 -0.45794159 2.0957332 -2.3697347e+38
2.5957558 -0.46253017 2.0957332 -2.6368313e+38
2.5957448 -0.46711868 2.0957332 -2.9168547e+38
2.5957341 -0.47170725 2.0957332 -3.0907474e+38
2.5787299 -0.47342229 2.089694 -3.2642252e+38
2.5787191 -0.47797847 2.089694 -3.3440858e+38
2.5787084 -0.48253465 2.089694 nan
2.5786977 -0.48709083 2.089694 -3.3972521e+38
2.578687 -0.49164701 2.089694 -3.370771e+38
2.578676 -0.49620315 2.089694 -3.3176532e+38
2.5786653 -0.50075936 2.089694 -3.2778295e+38
2.5786545 -0.50531554 2.089694 -3.2377981e+38
2.5786438 -0.50987172 2.089694 -3.1976596e+38
2.5786331 -0.5144279 2.089694 -3.1706574e+38
2.5626292 -0.51597482 2.0840101 -3.156736e+38
2.5626185 -0.52050048 2.0840101 -2.8628978e+38
2.5626078 -0.5250262 2.0840101 -2.5700456e+38
2.562597 -0.52955186 2.0840101 -2.4886754e+38
2.5625863 -0.53407758 2.0840101 -2.4082487e+38
2.5455835 -0.53524405 2.0779712 -2.4218544e+38
2.5625648 -0.54312897 2.0840101 -2.4484913e+38
2.5625544 -0.54765469 2.0840101 -2.4618359e+38
2.578536 -0.55543351 2.089694 -2.4884204e+38
2.5785253 -0.55998963 2.089694 -2.5016089e+38
2.5785143 -0.56454581 2.089694 -2.5282456e+38
2.5785036 -0.56910199 2.089694 -2.4221671e+38
2.5784929 -0.57365817 2.089694 -2.3166167e+38
2.56249 -0.57480884 2.0840101 -2.7036594e+38
2.5624793 -0.57933456 2.0840101 -3.0897004e+38
2.5454774 -0.58017719 2.0779712 -2.7426927e+38
2.5454667 -0.58467054 2.0779712 -2.4093967e+38
2.5454559 -0.5891639 2.0779712 -2.4221152e+38
2.5454454 -0.5936572 2.0779712 -2.4485951e+38
2.5294433 -0.59456229 2.0722873 -2.4219578e+38
2.5294325 -0.59902507 2.0722873 -2.4085611e+38
2.5454135 -0.60713714 2.0779712 -2.395372e+38
2.545403 -0.6116305 2.0779712 -2.3820806e+38
2.5453923 -0.6161238 2.0779712 -2.3821333e+38
2.5623722 -0.62459159 2.0840101 -2.3954779e+38
2.5623617 -0.62911731 2.0840101 -2.3822378e+38
2.578342 -0.63744467 2.089694 -2.3822382e+38
2.5783312 -0.64200079 2.089694 -2.3822384e+38
2.5623295 -0.64269441 2.0840101 -2.3821343e+38
2.5783098 -0.65111321 2.089694 -2.382186e+38
2.5782988 -0.65566939 2.089694 -2.3822382e+38
2.5952783 -0.66442662 2.0957332 -2.3953747e+38
2.5952675 -0.66901523 2.0957332 -2.4216998e+38
2.5952566 -0.67360377 2.0957332 -2.4486481e+38
2.5952456 -0.67819238 2.0957332 -2.4886815e+38
2.5952349 -0.68278086 2.0957332 -2.5287149e+38
2.5952239 -0.68736947 2.0957332 -2.555508e+38
2.5952132 -0.69195801 2.0957332 -2.582301e+38
2.5952022 -0.69654661 2.0957332 -2.609146e+38
2.5951915 -0.70113516 2.0957332 -2.6224391e+38
2.5951805 -0.7057237 2.0957332 -2.6358356e+38
2.5951698 -0.71031225 2.0957332 -2.6892126e+38
2.5621796 -0.70605421 2.0840101 -2.7425375e+38
2.5621688 -0.71057993 2.0840101 -2.7821548e+38
2.5960379 -0.34322762 2.0911446 -2.5552976e+38
2.5960271 -0.34781617 2.0911446 -2.5550895e+38
2.5960162 -0.35240474 2.0911446 -2.541589e+38
2.6130004 -0.35902491 2.0971513 -2.5282447e+38
2.6129894 -0.36364585 2.0971513 -2.5150044e+38
2.6299736 -0.37036318 2.103158 -2.4884194e+38
2.6129675 -0.37288773 2.0971513 -2.4884709e+38
2.6129568 -0.37750867 2.0971513 -2.4886265e+38
2.6129458 -0.38212961 2.0971513 -2.5020226e+38
2.6129348 -0.38675055 2.0971513 -2.515419e+38
2.5959294 -0.38911319 2.0911446 -2.5553999e+38
2.6129129 -0.39599243 2.0971513 -2.582141e+38
2.6129019 -0.40061337 2.0971513 -2.5690053e+38
2.595897 -0.40287888 2.0911446 -2.5559213e+38
2.595886 -0.40746745 2.0911446 -2.5692661e+38
2.595875 -0.41205597 2.0911446 -2.5691617e+38
