# .PCD v0.7 - Point Cloud Data file format
VERSION 0.7
FIELDS x y z rgb
SIZE 4 4 4 4
TYPE F F F F
COUNT 1 1 1 1
WIDTH 1039
HEIGHT 1
VIEWPOINT 0 0 0 1 0 0 0
POINTS 1039
DATA ascii
4.1413741 -0.15031651 1.567416 -2.4750241e+38
4.141356 -0.15784411 1.567416 -2.4882129e+38
4.0963407 -0.16427781 1.5636873 -2.5017653e+38
4.0963225 -0.17171969 1.5636873 -2.5151101e+38
4.0963049 -0.17916158 1.5636873 -2.515318e+38
4.0962868 -0.18660346 1.5636873 -2.5420066e+38
4.0962691 -0.19404534 1.5636873 -2.5552993e+38
4.096251 -0.20148723 1.5636873 -2.5553514e+38
4.0962334 -0.20892912 1.5636873 -2.542111e+38
4.0532188 -0.21475239 1.5601245 -2.5421627e+38
4.0532012 -0.22211236 1.5601245 -2.5288707e+38
4.0531836 -0.22947234 1.5601245 -2.5288709e+38
4.01017 -0.23496799 1.5565617 -2.528923e+38
4.0101528 -0.24224608 1.5565617 -2.5289751e+38
4.0101352 -0.24952413 1.5565617 -2.5156828e+38
4.053113 -0.25891227 1.5601245 -2.5289234e+38
4.0101004 -0.26408029 1.5565617 -2.5289234e+38
4.0530772 -0.27363223 1.5601245 -2.5687483e+38
4.0530596 -0.28099221 1.5601245 -2.5953331e+38
4.0100474 -0.28591451 1.5565617 -2.582041e+38
4.0530243 -0.29571217 1.5601245 -2.5688008e+38
4.0530066 -0.30307215 1.5601245 -2.6086779e+38
4.009995 -0.30774873 1.5565617 -2.6353665e+38
4.0099778 -0.31502682 1.5565617 -2.6486592e+38
4.0099602 -0.3223049 1.5565617 -2.64866e+38
4.0099425 -0.32958299 1.5565617 -2.5155301e+38
4.0099254 -0.33686101 1.5565617 -2.3831251e+38
4.0099077 -0.3441391 1.5565617 -3.2096852e+38
4.0098901 -0.35141718 1.5565617 nan
3.9678805 -0.35551429 1.5530816 nan
4.1878114 0.031505726 1.5636121 nan
4.1877933 0.02389051 1.5636121 -3.1404679e+38
4.1877747 0.016275287 1.5636121 -2.408356e+38
4.1877565 0.0086600706 1.5636121 -2.5155788e+38
4.141736 0.00023545325 1.5598884 -2.6354166e+38
4.1417179 -0.0072921403 1.5598884 -2.622072e+38
4.1416998 -0.014819745 1.5598884 -2.6086761e+38
4.0966806 -0.022882011 1.5562454 -2.5820915e+38
4.0966625 -0.030323893 1.5562454 -2.5687994e+38
4.0966449 -0.037765775 1.5562454 -2.5687477e+38
4.0966268 -0.045207661 1.5562454 -2.5686439e+38
4.0966091 -0.052649546 1.5562454 -2.5553514e+38
4.096591 -0.060091432 1.5562454 -2.5552993e+38
4.0965734 -0.067533314 1.5562454 -2.5287145e+38
4.0965552 -0.0749752 1.5562454 -2.5154218e+38
4.0965371 -0.082417086 1.5562454 -2.4887328e+38
4.1415191 -0.090095721 1.5598884 -2.4753886e+38
4.1415009 -0.097623318 1.5598884 -2.4487521e+38
4.1414828 -0.10515092 1.5598884 -2.4354077e+38
4.1874633 -0.11318339 1.5636121 -2.4352517e+38
4.1874452 -0.12079861 1.5636121 -2.4351477e+38
4.187427 -0.12841383 1.5636121 -2.4351475e+38
4.1414104 -0.13526131 1.5598884 -2.4350953e+38
4.1413922 -0.14278892 1.5598884 -2.4616797e+38
4.1413741 -0.15031651 1.5598884 -2.4749205e+38
4.141356 -0.15784411 1.5598884 -2.4883689e+38
4.0963407 -0.16427781 1.5562454 -2.4885251e+38
4.0963225 -0.17171969 1.5562454 -2.5019733e+38
4.0963049 -0.17916158 1.5562454 -2.5021293e+38
4.0962868 -0.18660346 1.5562454 -2.528662e+38
4.0962691 -0.19404534 1.5562454 -2.555299e+38
4.096251 -0.20148723 1.5562454 -2.5553514e+38
4.0532365 -0.20739239 1.5527645 -2.5553514e+38
4.0532188 -0.21475239 1.5527645 -2.5421629e+38
4.0532012 -0.22211236 1.5527645 -2.5421631e+38
4.0531836 -0.22947234 1.5527645 -2.5421633e+38
4.0531659 -0.23683232 1.5527645 -2.5422155e+38
4.0101528 -0.24224608 1.5492835 -2.5289232e+38
4.0101352 -0.24952413 1.5492835 -2.5289232e+38
4.053113 -0.25891227 1.5527645 -2.5422155e+38
4.0530949 -0.26627225 1.5527645 -2.5422155e+38
4.0530772 -0.27363223 1.5527645 -2.5687479e+38
4.0530596 -0.28099221 1.5527645 -2.5953329e+38
4.0100474 -0.28591451 1.5492835 -2.5953331e+38
4.0530243 -0.29571217 1.5527645 -2.5953854e+38
4.0530066 -0.30307215 1.5527645 -2.6087298e+38
4.009995 -0.30774873 1.5492835 -2.6353669e+38
4.0529714 -0.31779209 1.5527645 -2.6354192e+38
4.0529537 -0.3251521 1.5527645 -2.648816e+38
4.0529361 -0.33251208 1.5527645 -2.5155301e+38
4.052918 -0.33987206 1.5527645 -2.3955347e+38
4.0099077 -0.3441391 1.5492835 -3.2355431e+38
4.0528827 -0.35459203 1.5527645 nan
4.0098724 -0.35869527 1.5492835 nan
4.0528474 -0.36931193 1.5527645 nan
4.1878114 0.031505726 1.5559969 nan
4.1877933 0.02389051 1.5559969 -3.1656998e+38
4.1877747 0.016275287 1.5559969 -2.2491065e+38
4.1877565 0.0086600706 1.5559969 -2.436188e+38
4.141736 0.00023545325 1.5523607 -2.6088838e+38
4.1417179 -0.0072921403 1.5523607 -2.6088316e+38
4.1416998 -0.014819745 1.5523607 -2.5953838e+38
4.0966806 -0.022882011 1.5488036 -2.5820398e+38
4.0966625 -0.030323893 1.5488036 -2.5687475e+38
4.0966449 -0.037765775 1.5488036 -2.5686958e+38
4.0966268 -0.045207661 1.5488036 -2.5686437e+38
4.0966091 -0.052649546 1.5488036 -2.5553514e+38
4.096591 -0.060091432 1.5488036 -2.542007e+38
4.0965734 -0.067533314 1.5488036 -2.5286626e+38
4.0965552 -0.0749752 1.5488036 -2.5020257e+38
4.0965371 -0.082417086 1.5488036 -2.4886813e+38
4.1415191 -0.090095721 1.5523607 -2.4620446e+38
4.1415009 -0.097623318 1.5523607 -2.4487523e+38
4.1414828 -0.10515092 1.5523607 -2.4220637e+38
4.1874633 -0.11318339 1.5559969 -2.4352e+38
4.1874452 -0.12079861 1.5559969 -2.4351996e+38
4.1414285 -0.12773371 1.5523607 -2.4351475e+38
4.1414104 -0.13526131 1.5523607 -2.4351473e+38
4.1413922 -0.14278892 1.5523607 -2.4616799e+38
4.1413741 -0.15031651 1.5523607 -2.4749724e+38
4.141356 -0.15784411 1.5523607 -2.4751286e+38
4.1413379 -0.16537172 1.5523607 -2.4753365e+38
4.0963225 -0.17171969 1.5488036 -2.488733e+38
4.0963049 -0.17916158 1.5488036 -2.4886296e+38
4.0962868 -0.18660346 1.5488036 -2.5152143e+38
4.0962691 -0.19404534 1.5488036 -2.542007e+38
4.096251 -0.20148723 1.5488036 -2.5554033e+38
4.0962334 -0.20892912 1.5488036 -2.5554035e+38
4.0532188 -0.21475239 1.5454044 -2.5554554e+38
4.0532012 -0.22211236 1.5454044 -2.5421633e+38
4.0531836 -0.22947234 1.5454044 -2.5421633e+38
4.0531659 -0.23683232 1.5454044 -2.5421633e+38
4.0101528 -0.24224608 1.5420054 -2.5421114e+38
4.0101352 -0.24952413 1.5420054 -2.5421633e+38
4.053113 -0.25891227 1.5454044 -2.5554558e+38
4.0101004 -0.26408029 1.5420054 -2.5554556e+38
4.0100827 -0.27135837 1.5420054 -2.5819883e+38
4.0100651 -0.27863646 1.5420054 -2.5952807e+38
4.0100474 -0.28591451 1.5420054 -2.6085732e+38
4.0530243 -0.29571217 1.5454044 -2.6086775e+38
4.0530066 -0.30307215 1.5454044 -2.6220221e+38
4.052989 -0.31043211 1.5454044 -2.6353667e+38
4.0529714 -0.31779209 1.5454044 -2.6353673e+38
4.0529537 -0.3251521 1.5454044 -2.6353679e+38
4.0529361 -0.33251208 1.5454044 -2.5155305e+38
4.052918 -0.33987206 1.5454044 -2.3963661e+38
4.0529003 -0.34723198 1.5454044 -3.2625958e+38
4.0528827 -0.35459203 1.5454044 nan
4.052865 -0.36195195 1.5454044 nan
4.0528474 -0.36931193 1.5454044 nan
4.1878114 0.031505726 1.5483817 nan
4.1877933 0.02389051 1.5483817 -3.2471122e+38
4.1877747 0.016275287 1.5483817 -2.3287547e+38
4.1877565 0.0086600706 1.5483817 -2.4758046e+38
4.141736 0.00023545325 1.5448331 -2.6089353e+38
4.1417179 -0.0072921403 1.5448331 -2.6088316e+38
4.0966983 -0.015440121 1.5413617 -2.5953319e+38
4.0966806 -0.022882011 1.5413617 -2.5820917e+38
4.0966625 -0.030323893 1.5413617 -2.5687477e+38
4.0966449 -0.037765775 1.5413617 -2.5554035e+38
4.0966268 -0.045207661 1.5413617 -2.5420591e+38
4.0966091 -0.052649546 1.5413617 -2.542007e+38
4.096591 -0.060091432 1.5413617 -2.5286628e+38
4.0965734 -0.067533314 1.5413617 -2.5153703e+38
4.0965552 -0.0749752 1.5413617 -2.501974e+38
4.0965371 -0.082417086 1.5413617 -2.4753892e+38
4.1415191 -0.090095721 1.5448331 -2.4487006e+38
4.1415009 -0.097623318 1.5448331 -2.4221158e+38
4.1414828 -0.10515092 1.5448331 -2.4087195e+38
4.1414647 -0.11267851 1.5448331 -2.4086674e+38
4.1414466 -0.12020612 1.5448331 -2.4086672e+38
4.1414285 -0.12773371 1.5448331 -2.4086148e+38
4.1414104 -0.13526131 1.5448331 -2.4218552e+38
4.1413922 -0.14278892 1.5448331 -2.4217511e+38
4.1413741 -0.15031651 1.5448331 -2.4350436e+38
4.141356 -0.15784411 1.5448331 -2.674876e+38
4.0963407 -0.16427781 1.5413617 -2.9273778e+38
4.0963225 -0.17171969 1.5413617 -2.6613769e+38
4.0963049 -0.17916158 1.5413617 -2.4085645e+38
4.0962868 -0.18660346 1.5413617 -2.4620975e+38
4.0962691 -0.19404534 1.5413617 -2.5287668e+38
4.096251 -0.20148723 1.5413617 -2.542111e+38
4.0962334 -0.20892912 1.5413617 -2.5553516e+38
4.0532188 -0.21475239 1.5380445 -2.5554037e+38
4.0532012 -0.22211236 1.5380445 -2.5554037e+38
4.0531836 -0.22947234 1.5380445 -2.5554037e+38
4.0531659 -0.23683232 1.5380445 -2.568696e+38
4.0101528 -0.24224608 1.5347273 -2.5554035e+38
4.0101352 -0.24952413 1.5347273 -2.5421633e+38
4.053113 -0.25891227 1.5380445 -2.5554556e+38
4.0101004 -0.26408029 1.5347273 -2.5554556e+38
4.0100827 -0.27135837 1.5347273 -2.5819883e+38
4.0530596 -0.28099221 1.5380445 -2.5952807e+38
4.0530419 -0.28835219 1.5380445 -2.5953327e+38
4.0530243 -0.29571217 1.5380445 -2.595385e+38
4.0530066 -0.30307215 1.5380445 -2.6087296e+38
4.009995 -0.30774873 1.5347273 -2.6087302e+38
4.0529714 -0.31779209 1.5380445 -2.6087827e+38
4.0529537 -0.3251521 1.5380445 -2.6221278e+38
4.0529361 -0.33251208 1.5380445 -2.5155307e+38
4.052918 -0.33987206 1.5380445 -2.4086724e+38
4.0529003 -0.34723198 1.5380445 -3.1954082e+38
4.0528827 -0.35459203 1.5380445 nan
4.052865 -0.36195195 1.5380445 nan
4.0528474 -0.36931193 1.5380445 nan
4.1418085 0.030345842 1.5373055 nan
4.1877933 0.02389051 1.5407665 -3.325674e+38
4.1877747 0.016275287 1.5407665 -2.4086655e+38
4.1417542 0.0077630505 1.5373055 -2.5160972e+38
4.141736 0.00023545325 1.5373055 -2.6090393e+38
4.0967164 -0.007998243 1.5339198 -2.6089355e+38
4.0966983 -0.015440121 1.5339198 -2.5954874e+38
4.0966806 -0.022882011 1.5339198 -2.5821434e+38
4.0966625 -0.030323893 1.5339198 -2.5554552e+38
4.0966449 -0.037765775 1.5339198 -2.5421631e+38
4.0966268 -0.045207661 1.5339198 -2.5154745e+38
4.0966091 -0.052649546 1.5339198 -2.5153705e+38
4.096591 -0.060091432 1.5339198 -2.5154222e+38
4.0965734 -0.067533314 1.5339198 -2.5021297e+38
4.0965552 -0.0749752 1.5339198 -2.4887851e+38
4.0965371 -0.082417086 1.5339198 -2.4621484e+38
4.1415191 -0.090095721 1.5373055 -2.4221673e+38
4.1415009 -0.097623318 1.5373055 -2.4088229e+38
4.1414828 -0.10515092 1.5373055 -2.3954787e+38
4.1874633 -0.11318339 1.5407665 -2.3821345e+38
4.1414466 -0.12020612 1.5373055 -2.3687901e+38
4.1414285 -0.12773371 1.5373055 -2.3953226e+38
4.1414104 -0.13526131 1.5373055 -2.4085104e+38
4.1413922 -0.14278892 1.5373055 -2.3949581e+38
4.1413741 -0.15031651 1.5373055 -2.382186e+38
4.141356 -0.15784411 1.5373055 -2.8752476e+38
4.0963407 -0.16427781 1.5339198 -3.3668534e+38
4.0963225 -0.17171969 1.5339198 -2.8473116e+38
4.0963049 -0.17916158 1.5339198 -2.3157253e+38
4.0962868 -0.18660346 1.5339198 -2.4091878e+38
4.0962691 -0.19404534 1.5339198 -2.5022338e+38
4.096251 -0.20148723 1.5339198 -2.5288185e+38
4.0962334 -0.20892912 1.5339198 -2.5554033e+38
4.0532188 -0.21475239 1.5306845 -2.5554556e+38
4.0532012 -0.22211236 1.5306845 -2.5554037e+38
4.0531836 -0.22947234 1.5306845 -2.568696e+38
4.01017 -0.23496799 1.5274493 -2.5819883e+38
4.0101528 -0.24224608 1.5274493 -2.5686439e+38
4.0101352 -0.24952413 1.5274493 -2.5421112e+38
4.0101175 -0.2568022 1.5274493 -2.5553518e+38
4.0101004 -0.26408029 1.5274493 -2.5554037e+38
4.0530772 -0.27363223 1.5306845 -2.5819883e+38
4.0530596 -0.28099221 1.5306845 -2.5953325e+38
4.0530419 -0.28835219 1.5306845 -2.5952807e+38
4.0530243 -0.29571217 1.5306845 -2.5820927e+38
4.0530066 -0.30307215 1.5306845 -2.5820929e+38
4.052989 -0.31043211 1.5306845 -2.5821974e+38
4.0529714 -0.31779209 1.5306845 -2.5955422e+38
4.0529537 -0.3251521 1.5306845 -2.595543e+38
4.0529361 -0.33251208 1.5306845 -2.5157382e+38
4.052918 -0.33987206 1.5306845 -2.422847e+38
4.0529003 -0.34723198 1.5306845 -3.1289464e+38
4.0528827 -0.35459203 1.5306845 nan
4.052865 -0.36195195 1.5306845 nan
4.0528474 -0.36931193 1.5306845 nan
4.2347956 0.024986081 1.5365978 -3.3669033e+38
4.2347775 0.017281339 1.5365978 -2.3811997e+38
4.1877565 0.0086600706 1.5331511 -2.5155784e+38
4.141736 0.00023545325 1.5297778 -2.6489683e+38
4.1417179 -0.0072921403 1.5297778 -2.6222276e+38
4.0966983 -0.015440121 1.5264778 -2.6088836e+38
4.0966806 -0.022882011 1.5264778 -2.5820913e+38
4.0966625 -0.030323893 1.5264778 -2.5553512e+38
4.0966449 -0.037765775 1.5264778 -2.5288187e+38
4.0966268 -0.045207661 1.5264778 -2.5153705e+38
4.0966091 -0.052649546 1.5264778 -2.502078e+38
4.096591 -0.060091432 1.5264778 -2.4888374e+38
4.0965734 -0.067533314 1.5264778 -2.4888372e+38
4.0965552 -0.0749752 1.5264778 -2.4887849e+38
4.0965371 -0.082417086 1.5264778 -2.4753882e+38
4.1415191 -0.090095721 1.5297778 -2.4619919e+38
4.1415009 -0.097623318 1.5297778 -2.4354069e+38
4.1414828 -0.10515092 1.5297778 -2.422011e+38
4.1414647 -0.11267851 1.5297778 -2.422011e+38
4.1414466 -0.12020612 1.5297778 -2.421959e+38
4.1414285 -0.12773371 1.5297778 -2.461784e+38
4.1414104 -0.13526131 1.5297778 -2.5149521e+38
4.1413922 -0.14278892 1.5297778 -2.5677048e+38
4.1413741 -0.15031651 1.5297778 -2.6342201e+38
4.0963583 -0.15683591 1.5264778 -3.1554247e+38
4.0963407 -0.16427781 1.5264778 nan
4.0963225 -0.17171969 1.5264778 -3.0074404e+38
4.0963049 -0.17916158 1.5264778 -2.3156206e+38
4.0962868 -0.18660346 1.5264778 -2.4223758e+38
4.0962691 -0.19404534 1.5264778 -2.5288701e+38
4.096251 -0.20148723 1.5264778 -2.5421623e+38
4.0962334 -0.20892912 1.5264778 -2.5687473e+38
4.0962152 -0.216371 1.5264778 -2.5686958e+38
4.0532012 -0.22211236 1.5233245 -2.5685921e+38
4.0531836 -0.22947234 1.5233245 -2.568696e+38
4.01017 -0.23496799 1.5201712 -2.5819883e+38
4.0101528 -0.24224608 1.5201712 -2.5686958e+38
4.0101352 -0.24952413 1.5201712 -2.5686958e+38
4.053113 -0.25891227 1.5233245 -2.5686439e+38
4.0530949 -0.26627225 1.5233245 -2.5686958e+38
4.0530772 -0.27363223 1.5233245 -2.5687477e+38
4.0530596 -0.28099221 1.5233245 -2.5820921e+38
4.0530419 -0.28835219 1.5233245 -2.5820923e+38
4.0530243 -0.29571217 1.5233245 -2.5821444e+38
4.0530066 -0.30307215 1.5233245 -2.5688524e+38
4.052989 -0.31043211 1.5233245 -2.5689049e+38
4.0529714 -0.31779209 1.5233245 -2.5689574e+38
4.0529537 -0.3251521 1.5233245 -2.5823024e+38
4.0529361 -0.33251208 1.5233245 -2.462465e+38
4.052918 -0.33987206 1.5233245 -2.3424179e+38
4.0529003 -0.34723198 1.5233245 -3.0354326e+38
4.0528827 -0.35459203 1.5233245 nan
4.052865 -0.36195195 1.5233245 nan
4.0958395 -0.37265056 1.5264778 nan
4.1877933 0.02389051 1.5255359 nan
4.1877747 0.016275287 1.5255359 -2.3551861e+38
4.1877565 0.0086600706 1.5255359 -2.5159944e+38
4.141736 0.00023545325 1.5222502 -2.6753456e+38
4.1417179 -0.0072921403 1.5222502 -2.648605e+38
4.1416998 -0.014819745 1.5222502 -2.6087282e+38
4.0966806 -0.022882011 1.5190359 -2.5819879e+38
4.0966625 -0.030323893 1.5190359 -2.542111e+38
4.0966449 -0.037765775 1.5190359 -2.5288707e+38
4.0966268 -0.045207661 1.5190359 -2.5021301e+38
4.0966091 -0.052649546 1.5190359 -2.4887857e+38
4.096591 -0.060091432 1.5190359 -2.4622529e+38
4.0965734 -0.067533314 1.5190359 -2.475493e+38
4.0965552 -0.0749752 1.5190359 -2.4887849e+38
4.0965371 -0.082417086 1.5190359 -2.5019731e+38
4.1415191 -0.090095721 1.5222502 -2.5019727e+38
4.1415009 -0.097623318 1.5222502 -2.4753878e+38
4.1414828 -0.10515092 1.5222502 -2.4354073e+38
4.1414647 -0.11267851 1.5222502 -2.4487e+38
4.1414466 -0.12020612 1.5222502 -2.4618884e+38
4.1414285 -0.12773371 1.5222502 -2.5415382e+38
4.1414104 -0.13526131 1.5222502 -2.6077907e+38
4.1413922 -0.14278892 1.5222502 -2.7400375e+38
4.1413741 -0.15031651 1.5222502 -2.8754595e+38
4.141356 -0.15784411 1.5222502 nan
4.0963407 -0.16427781 1.5190359 nan
4.0963225 -0.17171969 1.5190359 -3.1659103e+38
4.0963049 -0.17916158 1.5190359 -2.3155172e+38
4.0962868 -0.18660346 1.5190359 -2.4358239e+38
4.0962691 -0.19404534 1.5190359 -2.5421623e+38
4.096251 -0.20148723 1.5190359 -2.5554546e+38
4.0962334 -0.20892912 1.5190359 -2.5687473e+38
4.0962152 -0.216371 1.5190359 -2.5819881e+38
4.0532012 -0.22211236 1.5159645 -2.5819881e+38
4.0531836 -0.22947234 1.5159645 -2.5819881e+38
4.01017 -0.23496799 1.5128931 -2.5686439e+38
4.0101528 -0.24224608 1.5128931 -2.5819361e+38
4.0101352 -0.24952413 1.5128931 -2.5819361e+38
4.0101175 -0.2568022 1.5128931 -2.5818842e+38
4.0101004 -0.26408029 1.5128931 -2.5819881e+38
4.0530772 -0.27363223 1.5159645 -2.568696e+38
4.0530596 -0.28099221 1.5159645 -2.5554556e+38
4.0530419 -0.28835219 1.5159645 -2.5687481e+38
4.0530243 -0.29571217 1.5159645 -2.5688002e+38
4.0530066 -0.30307215 1.5159645 -2.5687483e+38
4.052989 -0.31043211 1.5159645 -2.5555603e+38
4.0529714 -0.31779209 1.5159645 -2.5556126e+38
4.0529537 -0.3251521 1.5159645 -2.5556653e+38
4.0529361 -0.33251208 1.5159645 -2.4093994e+38
4.052918 -0.33987206 1.5159645 -2.2502023e+38
4.0529003 -0.34723198 1.5159645 -2.9426977e+38
4.0528827 -0.35459203 1.5159645 nan
4.052865 -0.36195195 1.5159645 nan
4.0958395 -0.37265056 1.5190359 nan
4.2347956 0.024986081 1.5211883 -3.3268172e+38
4.1877747 0.016275287 1.5179207 -2.2346729e+38
4.1417542 0.0077630505 1.5147226 -2.4488584e+38
4.141736 0.00023545325 1.5147226 -2.6751385e+38
4.0967164 -0.007998243 1.5115941 -2.6352614e+38
4.0966983 -0.015440121 1.5115941 -2.6086247e+38
4.0966806 -0.022882011 1.5115941 -2.58204e+38
4.0966625 -0.030323893 1.5115941 -2.5421112e+38
4.0966449 -0.037765775 1.5115941 -2.5155265e+38
4.0966268 -0.045207661 1.5115941 -2.5021301e+38
4.0966091 -0.052649546 1.5115941 -2.4888374e+38
4.096591 -0.060091432 1.5115941 -2.4888892e+38
4.0965734 -0.067533314 1.5115941 -2.5021293e+38
4.0965552 -0.0749752 1.5115941 -2.5020774e+38
4.0965371 -0.082417086 1.5115941 -2.5020253e+38
4.1415191 -0.090095721 1.5147226 -2.5019729e+38
4.1415009 -0.097623318 1.5147226 -2.475388e+38
4.1414828 -0.10515092 1.5147226 -2.4487e+38
4.1414647 -0.11267851 1.5147226 -2.4752849e+38
4.1414466 -0.12020612 1.5147226 -2.4885253e+38
4.1414285 -0.12773371 1.5147226 -2.5681751e+38
4.1414104 -0.13526131 1.5147226 -2.6478237e+38
4.1413922 -0.14278892 1.5147226 -2.7542646e+38
4.1413741 -0.15031651 1.5147226 -2.8490879e+38
4.141356 -0.15784411 1.5147226 nan
4.0963407 -0.16427781 1.5115941 nan
4.0963225 -0.17171969 1.5115941 -3.1939495e+38
4.0963049 -0.17916158 1.5115941 -2.3150503e+38
4.0962868 -0.18660346 1.5115941 -2.4488046e+38
4.0962691 -0.19404534 1.5115941 -2.5819873e+38
4.096251 -0.20148723 1.5115941 -2.5819873e+38
4.0962334 -0.20892912 1.5115941 -2.5819877e+38
4.0532188 -0.21475239 1.5086045 -2.5819879e+38
4.0532012 -0.22211236 1.5086045 -2.5819879e+38
4.0531836 -0.22947234 1.5086045 -2.5686437e+38
4.01017 -0.23496799 1.505615 -2.56854e+38
4.0101528 -0.24224608 1.505615 -2.5818842e+38
4.0101352 -0.24952413 1.505615 -2.5818842e+38
4.0101175 -0.2568022 1.505615 -2.5819361e+38
4.0101004 -0.26408029 1.505615 -2.5952805e+38
4.0100827 -0.27135837 1.505615 -2.5819883e+38
4.0100651 -0.27863646 1.505615 -2.5820404e+38
4.0530419 -0.28835219 1.5086045 -2.5820404e+38
4.0530243 -0.29571217 1.5086045 -2.5953327e+38
4.0530066 -0.30307215 1.5086045 -2.5820923e+38
4.052989 -0.31043211 1.5086045 -2.5688522e+38
4.0529714 -0.31779209 1.5086045 -2.5689562e+38
4.0529537 -0.3251521 1.5086045 -2.5823014e+38
4.0529361 -0.33251208 1.5086045 -2.4759121e+38
4.095911 -0.34288305 1.5115941 -2.3828651e+38
4.0958934 -0.35032493 1.5115941 -2.9688665e+38
4.0958753 -0.35776681 1.5115941 nan
4.0958576 -0.36520869 1.5115941 nan
4.0958395 -0.37265056 1.5115941 nan
4.1877933 0.02389051 1.5103054 -3.2459234e+38
4.1417723 0.015290648 1.507195 -2.1157188e+38
4.1417542 0.0077630505 1.507195 -2.3961572e+38
4.141736 0.00023545325 1.507195 -2.6618985e+38
4.0967164 -0.007998243 1.5041521 -2.6352616e+38
4.0966983 -0.015440121 1.5041521 -2.6086767e+38
4.0966806 -0.022882011 1.5041521 -2.5820919e+38
4.0966625 -0.030323893 1.5041521 -2.5421629e+38
4.0966449 -0.037765775 1.5041521 -2.5155782e+38
4.0966268 -0.045207661 1.5041521 -2.4888896e+38
4.0966091 -0.052649546 1.5041521 -2.5021295e+38
4.096591 -0.060091432 1.5041521 -2.5154218e+38
4.0965734 -0.067533314 1.5041521 -2.5153697e+38
4.0965552 -0.0749752 1.5041521 -2.5153178e+38
4.0965371 -0.082417086 1.5041521 -2.5019738e+38
4.1415191 -0.090095721 1.507195 -2.4886813e+38
4.1415009 -0.097623318 1.507195 -2.4754409e+38
4.1414828 -0.10515092 1.507195 -2.4620967e+38
4.1414647 -0.11267851 1.507195 -2.4886293e+38
4.1414466 -0.12020612 1.507195 -2.515162e+38
4.1414285 -0.12773371 1.507195 -2.6080522e+38
4.1414104 -0.13526131 1.507195 -2.6876485e+38
4.1413922 -0.14278892 1.507195 -2.7535371e+38
4.1413741 -0.15031651 1.507195 -2.8227102e+38
4.0963583 -0.15683591 1.5041521 nan
4.0963407 -0.16427781 1.5041521 nan
4.0963225 -0.17171969 1.5041521 -3.21908e+38
4.0963049 -0.17916158 1.5041521 -2.3154139e+38
4.0962868 -0.18660346 1.5041521 -2.4624091e+38
4.0962691 -0.19404534 1.5041521 -2.608572e+38
4.096251 -0.20148723 1.5041521 -2.608572e+38
4.0962334 -0.20892912 1.5041521 -2.5952799e+38
4.0962152 -0.216371 1.5041521 -2.5819361e+38
4.0532012 -0.22211236 1.5012445 -2.5686439e+38
4.0531836 -0.22947234 1.5012445 -2.56854e+38
4.01017 -0.23496799 1.4983369 -2.5685919e+38
4.0101528 -0.24224608 1.4983369 -2.5818323e+38
4.0101352 -0.24952413 1.4983369 -2.5818842e+38
4.0101175 -0.2568022 1.4983369 -2.5952803e+38
4.0101004 -0.26408029 1.4983369 -2.5952803e+38
4.0100827 -0.27135837 1.4983369 -2.5952803e+38
4.0100651 -0.27863646 1.4983369 -2.5953323e+38
4.0100474 -0.28591451 1.4983369 -2.6086247e+38
4.0530243 -0.29571217 1.5012445 -2.6086767e+38
4.0530066 -0.30307215 1.5012445 -2.5953844e+38
4.052989 -0.31043211 1.5012445 -2.568852e+38
4.0529714 -0.31779209 1.5012445 -2.5822485e+38
4.0529537 -0.3251521 1.5012445 -2.5955414e+38
4.0529361 -0.33251208 1.5012445 -2.5556134e+38
4.052918 -0.33987206 1.5012445 -2.5025467e+38
4.0958934 -0.35032493 1.5041521 -3.0080156e+38
4.0958753 -0.35776681 1.5041521 nan
4.0958576 -0.36520869 1.5041521 nan
4.0958395 -0.37265056 1.5041521 nan
4.1417904 0.022818245 1.4996674 -3.2474314e+38
4.1417723 0.015290648 1.4996674 -2.1013375e+38
4.1417542 0.0077630505 1.4996674 -2.3820867e+38
4.141736 0.00023545325 1.4996674 -2.6751393e+38
4.1417179 -0.0072921403 1.4996674 -2.6352616e+38
4.0966983 -0.015440121 1.4967102 -2.6086769e+38
4.0966806 -0.022882011 1.4967102 -2.5687996e+38
4.0966625 -0.030323893 1.4967102 -2.5421629e+38
4.0966449 -0.037765775 1.4967102 -2.5288703e+38
4.0966268 -0.045207661 1.4967102 -2.5155259e+38
4.0966091 -0.052649546 1.4967102 -2.5154735e+38
4.096591 -0.060091432 1.4967102 -2.528662e+38
4.0965734 -0.067533314 1.4967102 -2.528662e+38
4.0965552 -0.0749752 1.4967102 -2.5286102e+38
4.0965371 -0.082417086 1.4967102 -2.5152662e+38
4.1415191 -0.090095721 1.4996674 -2.5019742e+38
4.1415009 -0.097623318 1.4996674 -2.488734e+38
4.1414828 -0.10515092 1.4996674 -2.4755454e+38
4.1414647 -0.11267851 1.4996674 -2.5019738e+38
4.1414466 -0.12020612 1.4996674 -2.5285583e+38
4.1414285 -0.12773371 1.4996674 -2.608156e+38
4.1414104 -0.13526131 1.4996674 -2.6879079e+38
4.1413922 -0.14278892 1.4996674 -2.7005751e+38
4.1413741 -0.15031651 1.4996674 -2.7280019e+38
4.0963583 -0.15683591 1.4967102 nan
4.0963407 -0.16427781 1.4967102 nan
4.0963225 -0.17171969 1.4967102 -3.2473259e+38
4.0963049 -0.17916158 1.4967102 -2.381564e+38
4.0962868 -0.18660346 1.4967102 -2.5020786e+38
4.0962691 -0.19404534 1.4967102 -2.6218647e+38
4.096251 -0.20148723 1.4967102 -2.6085722e+38
4.0962334 -0.20892912 1.4967102 -2.5952801e+38
4.0532188 -0.21475239 1.4938846 -2.5819361e+38
4.0532012 -0.22211236 1.4938846 -2.5818844e+38
4.0101876 -0.22768991 1.4910588 -2.5818844e+38
4.01017 -0.23496799 1.4910588 -2.5819363e+38
4.0101528 -0.24224608 1.4910588 -2.5818842e+38
4.0101352 -0.24952413 1.4910588 -2.5818842e+38
4.0101175 -0.2568022 1.4910588 -2.5952282e+38
4.0101004 -0.26408029 1.4910588 -2.5952801e+38
4.0100827 -0.27135837 1.4910588 -2.5952799e+38
4.0100651 -0.27863646 1.4910588 -2.6086243e+38
4.0100474 -0.28591451 1.4910588 -2.6086245e+38
4.0530243 -0.29571217 1.4938846 -2.6086765e+38
4.0530066 -0.30307215 1.4938846 -2.5953842e+38
4.052989 -0.31043211 1.4938846 -2.5953846e+38
4.0529714 -0.31779209 1.4938846 -2.5954367e+38
4.0529537 -0.3251521 1.4938846 -2.6087296e+38
4.0529361 -0.33251208 1.4938846 -2.555509e+38
4.095911 -0.34288305 1.4967102 -2.5022865e+38
4.0958934 -0.35032493 1.4967102 -2.9284169e+38
4.0958753 -0.35776681 1.4967102 -3.3549655e+38
4.0958576 -0.36520869 1.4967102 nan
4.0958395 -0.37265056 1.4967102 nan
4.1417723 0.015290648 1.4921397 -2.088928e+38
4.1417542 0.0077630505 1.4921397 -2.382242e+38
4.141736 0.00023545325 1.4921397 -2.675035e+38
4.1417179 -0.0072921403 1.4921397 -2.6352097e+38
4.1416998 -0.014819745 1.4921397 -2.5953844e+38
4.1416817 -0.022347338 1.4921397 -2.5687994e+38
4.0966625 -0.030323893 1.4892683 -2.5421627e+38
4.0966449 -0.037765775 1.4892683 -2.5421106e+38
4.0966268 -0.045207661 1.4892683 -2.5421104e+38
4.0966091 -0.052649546 1.4892683 -2.5421104e+38
4.096591 -0.060091432 1.4892683 -2.5287141e+38
4.0965734 -0.067533314 1.4892683 -2.5287141e+38
4.0965552 -0.0749752 1.4892683 -2.5286102e+38
4.0965371 -0.082417086 1.4892683 -2.5285585e+38
4.1415191 -0.090095721 1.4921397 -2.5152664e+38
4.1415009 -0.097623318 1.4921397 -2.5020263e+38
4.1414828 -0.10515092 1.4921397 -2.4753894e+38
4.1414647 -0.11267851 1.4921397 -2.5018697e+38
4.1414466 -0.12020612 1.4921397 -2.5284023e+38
4.1414285 -0.12773371 1.4921397 -2.6080522e+38
4.1874084 -0.13602903 1.495075 -2.6740438e+38
4.1413922 -0.14278892 1.4921397 -2.6460549e+38
4.1413741 -0.15031651 1.4921397 -2.6224945e+38
4.141356 -0.15784411 1.4921397 -3.3721709e+38
4.0963407 -0.16427781 1.4892683 nan
4.0963225 -0.17171969 1.4892683 -3.2733424e+38
4.0963049 -0.17916158 1.4892683 -2.4488578e+38
4.0962868 -0.18660346 1.4892683 -2.5424232e+38
4.0962691 -0.19404534 1.4892683 -2.6219687e+38
4.096251 -0.20148723 1.4892683 -2.6085205e+38
4.0962334 -0.20892912 1.4892683 -2.5819361e+38
4.0532188 -0.21475239 1.4865245 -2.5819363e+38
4.0532012 -0.22211236 1.4865245 -2.5819361e+38
4.0101876 -0.22768991 1.4837807 -2.5818842e+38
4.01017 -0.23496799 1.4837807 -2.5818842e+38
4.0101528 -0.24224608 1.4837807 -2.5818842e+38
4.0101352 -0.24952413 1.4837807 -2.5818842e+38
4.0101175 -0.2568022 1.4837807 -2.5951765e+38
4.0101004 -0.26408029 1.4837807 -2.5952282e+38
4.0100827 -0.27135837 1.4837807 -2.6085724e+38
4.0100651 -0.27863646 1.4837807 -2.6086243e+38
4.0100474 -0.28591451 1.4837807 -2.6086245e+38
4.0530243 -0.29571217 1.4865245 -2.6086765e+38
4.0530066 -0.30307215 1.4865245 -2.6087282e+38
4.052989 -0.31043211 1.4865245 -2.6087284e+38
4.0529714 -0.31779209 1.4865245 -2.6220211e+38
4.0529537 -0.3251521 1.4865245 -2.6219698e+38
4.0959291 -0.33544111 1.4892683 -2.555457e+38
4.095911 -0.34288305 1.4892683 -2.4890987e+38
4.0958934 -0.35032493 1.4892683 -2.8483531e+38
4.0958753 -0.35776681 1.4892683 -3.1953547e+38
4.0958576 -0.36520869 1.4892683 nan
4.0958395 -0.37265056 1.4892683 nan
4.1417723 0.015290648 1.4846121 -2.3665601e+38
4.1417542 0.0077630505 1.4846121 -2.5281452e+38
4.141736 0.00023545325 1.4846121 -2.7017752e+38
4.1417179 -0.0072921403 1.4846121 -2.6485537e+38
4.1416998 -0.014819745 1.4846121 -2.5953323e+38
4.1416817 -0.022347338 1.4846121 -2.5687473e+38
4.0966625 -0.030323893 1.4818264 -2.5553512e+38
4.0966449 -0.037765775 1.4818264 -2.555351e+38
4.0966268 -0.045207661 1.4818264 -2.5554029e+38
4.0966091 -0.052649546 1.4818264 -2.5420068e+38
4.096591 -0.060091432 1.4818264 -2.5419546e+38
4.0965734 -0.067533314 1.4818264 -2.5286622e+38
4.0965552 -0.0749752 1.4818264 -2.515318e+38
4.0965371 -0.082417086 1.4818264 -2.515318e+38
4.1415191 -0.090095721 1.4846121 -2.5285585e+38
4.1415009 -0.097623318 1.4846121 -2.5152664e+38
4.1414828 -0.10515092 1.4846121 -2.5018699e+38
4.1414647 -0.11267851 1.4846121 -2.5151099e+38
4.1414466 -0.12020612 1.4846121 -2.5283502e+38
4.1414285 -0.12773371 1.4846121 -2.5814674e+38
4.1874084 -0.13602903 1.4874598 -2.6212895e+38
4.1413922 -0.14278892 1.4846121 -2.5807865e+38
4.1413741 -0.15031651 1.4846121 -2.554579e+38
4.141356 -0.15784411 1.4846121 -3.2096009e+38
4.1413379 -0.16537172 1.4846121 nan
4.0963225 -0.17171969 1.4818264 -3.1013244e+38
4.0963049 -0.17916158 1.4818264 -2.3424173e+38
4.0962868 -0.18660346 1.4818264 -2.4756504e+38
4.0962691 -0.19404534 1.4818264 -2.608625e+38
4.096251 -0.20148723 1.4818264 -2.5952284e+38
4.0962334 -0.20892912 1.4818264 -2.5951767e+38
4.0532188 -0.21475239 1.4791645 -2.5819363e+38
4.0102053 -0.22041184 1.4765027 -2.5819881e+38
4.0101876 -0.22768991 1.4765027 -2.5819359e+38
4.01017 -0.23496799 1.4765027 -2.5818323e+38
4.0101528 -0.24224608 1.4765027 -2.5818842e+38
4.0101352 -0.24952413 1.4765027 -2.5819361e+38
4.0101175 -0.2568022 1.4765027 -2.5819361e+38
4.0101004 -0.26408029 1.4765027 -2.5952284e+38
4.0100827 -0.27135837 1.4765027 -2.6085724e+38
4.0100651 -0.27863646 1.4765027 -2.6219168e+38
4.0530419 -0.28835219 1.4791645 -2.6219168e+38
4.0530243 -0.29571217 1.4791645 -2.6219685e+38
4.0530066 -0.30307215 1.4791645 -2.6219683e+38
4.052989 -0.31043211 1.4791645 -2.6219685e+38
4.0529714 -0.31779209 1.4791645 -2.6219687e+38
4.0529537 -0.3251521 1.4791645 -2.6219696e+38
4.0529361 -0.33251208 1.4791645 -2.5953339e+38
4.095911 -0.34288305 1.4818264 -2.5687493e+38
4.0958934 -0.35032493 1.4818264 -2.728568e+38
4.0528827 -0.35459203 1.4791645 -2.8885425e+38
4.0958576 -0.36520869 1.4818264 nan
4.0958395 -0.37265056 1.4818264 nan
4.1417904 0.022818245 1.4770845 nan
4.1417723 0.015290648 1.4770845 -2.6345844e+38
4.1417542 0.0077630505 1.4770845 -2.6884813e+38
4.141736 0.00023545325 1.4770845 -2.7283066e+38
4.1417179 -0.0072921403 1.4770845 -2.6619494e+38
4.1416998 -0.014819745 1.4770845 -2.5820917e+38
4.1416817 -0.022347338 1.4770845 -2.5687473e+38
4.0966625 -0.030323893 1.4743845 -2.555351e+38
4.1416454 -0.037402537 1.4770845 -2.555299e+38
4.0966268 -0.045207661 1.4743845 -2.555299e+38
4.0966091 -0.052649546 1.4743845 -2.5551954e+38
4.1415915 -0.059985332 1.4770845 -2.5419546e+38
4.0965734 -0.067533314 1.4743845 -2.5286622e+38
4.0965552 -0.0749752 1.4743845 -2.5020257e+38
4.1415372 -0.082568124 1.4770845 -2.515318e+38
4.1415191 -0.090095721 1.4770845 -2.5286102e+38
4.1875 -0.097952962 1.4798445 -2.5285585e+38
4.1874819 -0.10556817 1.4798445 -2.515162e+38
4.1414647 -0.11267851 1.4770845 -2.5282983e+38
4.1414466 -0.12020612 1.4770845 -2.5282983e+38
4.187427 -0.12841383 1.4798445 -2.5548309e+38
4.1874084 -0.13602903 1.4798445 -2.5680697e+38
4.1873903 -0.14364426 1.4798445 -2.5278797e+38
4.1413741 -0.15031651 1.4770845 -2.4752882e+38
4.141356 -0.15784411 1.4770845 -3.0487321e+38
4.1413379 -0.16537172 1.4770845 nan
4.1413198 -0.17289931 1.4770845 -2.9265491e+38
4.0963049 -0.17916158 1.4743845 -2.2225256e+38
4.0962868 -0.18660346 1.4743845 -2.409085e+38
4.0962691 -0.19404534 1.4743845 -2.5952286e+38
4.096251 -0.20148723 1.4743845 -2.5952286e+38
4.0962334 -0.20892912 1.4743845 -2.5952286e+38
4.0532188 -0.21475239 1.4718045 -2.5952805e+38
4.0102053 -0.22041184 1.4692245 -2.5819881e+38
4.0101876 -0.22768991 1.4692245 -2.5819881e+38
4.01017 -0.23496799 1.4692245 -2.5686439e+38
4.0101528 -0.24224608 1.4692245 -2.5686439e+38
4.0101352 -0.24952413 1.4692245 -2.5686958e+38
4.0101175 -0.2568022 1.4692245 -2.5819883e+38
4.0101004 -0.26408029 1.4692245 -2.5952805e+38
4.0100827 -0.27135837 1.4692245 -2.6085728e+38
4.0100651 -0.27863646 1.4692245 -2.621917e+38
4.0100474 -0.28591451 1.4692245 -2.621917e+38
4.0530243 -0.29571217 1.4718045 -2.6219687e+38
4.0100126 -0.30047065 1.4692245 -2.6219683e+38
4.052989 -0.31043211 1.4718045 -2.6219685e+38
4.0099778 -0.31502682 1.4692245 -2.621969e+38
4.0529537 -0.3251521 1.4718045 -2.6086254e+38
4.0529361 -0.33251208 1.4718045 -2.6219184e+38
4.095911 -0.34288305 1.4743845 -2.6352111e+38
4.0958934 -0.35032493 1.4743845 -2.6085751e+38
4.0528827 -0.35459203 1.4718045 -2.5831837e+38
4.0958576 -0.36520869 1.4743845 nan
4.1417904 0.022818245 1.4695569 nan
4.1417723 0.015290648 1.4695569 -2.9128897e+38
4.1417542 0.0077630505 1.4695569 -2.7409214e+38
4.141736 0.00023545325 1.4695569 -2.5818307e+38
4.1417179 -0.0072921403 1.4695569 -2.5820394e+38
4.1416998 -0.014819745 1.4695569 -2.5953317e+38
4.1416817 -0.022347338 1.4695569 -2.5819875e+38
4.0966625 -0.030323893 1.4669425 -2.5685394e+38
4.0966449 -0.037765775 1.4669425 -2.5552471e+38
4.0966268 -0.045207661 1.4669425 -2.5551954e+38
4.0966091 -0.052649546 1.4669425 -2.5286108e+38
4.1415915 -0.059985332 1.4695569 -2.5153184e+38
4.1415734 -0.067512929 1.4695569 -2.5020257e+38
4.0965552 -0.0749752 1.4669425 -2.5019738e+38
4.1415372 -0.082568124 1.4695569 -2.4887332e+38
4.1415191 -0.090095721 1.4695569 -2.4887332e+38
4.1875 -0.097952962 1.4722292 -2.5018697e+38
4.1874819 -0.10556817 1.4722292 -2.5151101e+38
4.1414647 -0.11267851 1.4695569 -2.5150579e+38
4.1414466 -0.12020612 1.4695569 -2.5283502e+38
4.187427 -0.12841383 1.4722292 -2.5416423e+38
4.1874084 -0.13602903 1.4722292 -2.5550382e+38
4.1873903 -0.14364426 1.4722292 -2.5012977e+38
4.1413741 -0.15031651 1.4695569 -2.4477648e+38
4.141356 -0.15784411 1.4695569 -3.1014743e+38
4.1413379 -0.16537172 1.4695569 nan
4.1413198 -0.17289931 1.4695569 -3.140521e+38
4.0963049 -0.17916158 1.4669425 -2.5413312e+38
4.0962868 -0.18660346 1.4669425 -2.5817284e+38
4.0962691 -0.19404534 1.4669425 -2.6351055e+38
4.096251 -0.20148723 1.4669425 -2.6085728e+38
4.0962334 -0.20892912 1.4669425 -2.5952286e+38
4.0532188 -0.21475239 1.4644445 -2.5819363e+38
4.0532012 -0.22211236 1.4644445 -2.5685921e+38
4.0531836 -0.22947234 1.4644445 -2.5553516e+38
4.01017 -0.23496799 1.4619464 -2.5553516e+38
4.0101528 -0.24224608 1.4619464 -2.5421112e+38
4.0101352 -0.24952413 1.4619464 -2.5422153e+38
4.0101175 -0.2568022 1.4619464 -2.5687479e+38
4.0101004 -0.26408029 1.4619464 -2.5953327e+38
4.0100827 -0.27135837 1.4619464 -2.608573e+38
4.0100651 -0.27863646 1.4619464 -2.6218653e+38
4.0100474 -0.28591451 1.4619464 -2.608625e+38
4.0530243 -0.29571217 1.4644445 -2.6086765e+38
4.0100126 -0.30047065 1.4619464 -2.6086761e+38
4.009995 -0.30774873 1.4619464 -2.6219687e+38
4.0529714 -0.31779209 1.4644445 -2.621917e+38
4.0529537 -0.3251521 1.4644445 -2.6218659e+38
4.0529361 -0.33251208 1.4644445 -2.6484511e+38
4.095911 -0.34288305 1.4669425 -2.6617961e+38
4.0958934 -0.35032493 1.4669425 -2.5952836e+38
4.0958753 -0.35776681 1.4669425 -2.5290285e+38
4.0958576 -0.36520869 1.4669425 -3.3823289e+38
4.1417904 0.022818245 1.4620292 nan
4.1417723 0.015290648 1.4620292 -3.1940025e+38
4.1417542 0.0077630505 1.4620292 -2.807019e+38
4.141736 0.00023545325 1.4620292 -2.4220116e+38
4.1417179 -0.0072921403 1.4620292 -2.5155782e+38
4.1416998 -0.014819745 1.4620292 -2.6085722e+38
4.1416817 -0.022347338 1.4620292 -2.595228e+38
4.1416636 -0.029874939 1.4620292 -2.5818317e+38
4.1416454 -0.037402537 1.4620292 -2.5684875e+38
4.1416278 -0.044930134 1.4620292 -2.5419548e+38
4.1416097 -0.052457731 1.4620292 -2.5153705e+38
4.1415915 -0.059985332 1.4620292 -2.4887336e+38
4.1415734 -0.067512929 1.4620292 -2.4886813e+38
4.1415553 -0.075040527 1.4620292 -2.4886811e+38
4.1415372 -0.082568124 1.4620292 -2.4753888e+38
4.1875186 -0.090337738 1.464614 -2.4487523e+38
4.1875 -0.097952962 1.464614 -2.4751292e+38
4.1874819 -0.10556817 1.464614 -2.5018176e+38
4.1414647 -0.11267851 1.4620292 -2.515006e+38
4.1414466 -0.12020612 1.4620292 -2.5150577e+38
4.1414285 -0.12773371 1.4620292 -2.5283498e+38
4.1874084 -0.13602903 1.464614 -2.5281932e+38
4.1413922 -0.14278892 1.4620292 -2.4744521e+38
4.1413741 -0.15031651 1.4620292 -2.4092397e+38
4.141356 -0.15784411 1.4620292 -3.1567778e+38
4.1413379 -0.16537172 1.4620292 nan
4.0963225 -0.17171969 1.4595007 -3.3680513e+38
4.0963049 -0.17916158 1.4595007 -2.8481977e+38
4.0962868 -0.18660346 1.4595007 -2.7546317e+38
4.0962691 -0.19404534 1.4595007 -2.6616379e+38
4.096251 -0.20148723 1.4595007 -2.621917e+38
4.0962334 -0.20892912 1.4595007 -2.5819363e+38
4.0532188 -0.21475239 1.4570845 -2.5685402e+38
4.0532012 -0.22211236 1.4570845 -2.5420074e+38
4.0531836 -0.22947234 1.4570845 -2.5420593e+38
4.01017 -0.23496799 1.4546683 -2.5288189e+38
4.0101528 -0.24224608 1.4546683 -2.5288189e+38
4.0531306 -0.25155228 1.4570845 -2.5155786e+38
4.053113 -0.25891227 1.4570845 -2.5554037e+38
4.0530949 -0.26627225 1.4570845 -2.5819885e+38
4.0100827 -0.27135837 1.4546683 -2.6085215e+38
4.0100651 -0.27863646 1.4546683 -2.6219176e+38
4.0100474 -0.28591451 1.4546683 -2.6086254e+38
4.0530243 -0.29571217 1.4570845 -2.5820923e+38
4.0100126 -0.30047065 1.4546683 -2.5953323e+38
4.009995 -0.30774873 1.4546683 -2.6086245e+38
4.0529714 -0.31779209 1.4570845 -2.621917e+38
4.0529537 -0.3251521 1.4570845 -2.6351578e+38
4.0959291 -0.33544111 1.4595007 -2.661691e+38
4.095911 -0.34288305 1.4595007 -2.6881715e+38
4.0958934 -0.35032493 1.4595007 -2.5816254e+38
4.0528827 -0.35459203 1.4570845 -2.4629295e+38
4.0958576 -0.36520869 1.4595007 -3.3562125e+38
4.1878114 0.031505726 1.4569988 nan
4.1877933 0.02389051 1.4569988 nan
4.1417723 0.015290648 1.4545016 -3.381083e+38
4.1877565 0.0086600706 1.4569988 -2.9007393e+38
4.141736 0.00023545325 1.4545016 -2.4349402e+38
4.1417179 -0.0072921403 1.4545016 -2.5153186e+38
4.1416998 -0.014819745 1.4545016 -2.6084684e+38
4.1416817 -0.022347338 1.4545016 -2.5818838e+38
4.1416636 -0.029874939 1.4545016 -2.5684877e+38
4.1416454 -0.037402537 1.4545016 -2.5552471e+38
4.1416278 -0.044930134 1.4545016 -2.5286626e+38
4.1416097 -0.052457731 1.4545016 -2.5153703e+38
4.1415915 -0.059985332 1.4545016 -2.4887334e+38
4.1415734 -0.067512929 1.4545016 -2.4754407e+38
4.1415553 -0.075040527 1.4545016 -2.4754405e+38
4.1415372 -0.082568124 1.4545016 -2.4488038e+38
4.1875186 -0.090337738 1.4569988 -2.4354598e+38
4.1875 -0.097952962 1.4569988 -2.4619925e+38
4.1874819 -0.10556817 1.4569988 -2.4753367e+38
4.1414647 -0.11267851 1.4545016 -2.4752328e+38
4.1874452 -0.12079861 1.4569988 -2.4752326e+38
4.187427 -0.12841383 1.4569988 -2.5017648e+38
4.1874084 -0.13602903 1.4569988 -2.515004e+38
4.1873903 -0.14364426 1.4569988 -2.4350412e+38
4.1413741 -0.15031651 1.4545016 -2.3555534e+38
4.141356 -0.15784411 1.4545016 -3.1691407e+38
4.1413379 -0.16537172 1.4545016 nan
4.1413198 -0.17289931 1.4545016 nan
4.0963049 -0.17916158 1.4520588 -3.1008565e+38
4.0962868 -0.18660346 1.4520588 -2.8079043e+38
4.0962691 -0.19404534 1.4520588 -2.5153188e+38
4.096251 -0.20148723 1.4520588 -2.5288191e+38
4.0962334 -0.20892912 1.4520588 -2.5553518e+38
4.0532188 -0.21475239 1.4497244 -2.5420593e+38
4.0532012 -0.22211236 1.4497244 -2.5420593e+38
4.0531836 -0.22947234 1.4497244 -2.5287668e+38
4.0531659 -0.23683232 1.4497244 -2.5155267e+38
4.0531483 -0.2441923 1.4497244 -2.5154747e+38
4.0531306 -0.25155228 1.4497244 -2.5155267e+38
4.053113 -0.25891227 1.4497244 -2.5420593e+38
4.0530949 -0.26627225 1.4497244 -2.5686445e+38
4.0100827 -0.27135837 1.4473902 -2.5819891e+38
4.0100651 -0.27863646 1.4473902 -2.6086777e+38
4.0100474 -0.28591451 1.4473902 -2.6086258e+38
4.0530243 -0.29571217 1.4497244 -2.6086773e+38
4.0530066 -0.30307215 1.4497244 -2.6218134e+38
4.052989 -0.31043211 1.4497244 -2.6350535e+38
4.0529714 -0.31779209 1.4497244 -2.6351053e+38
4.0529537 -0.3251521 1.4497244 -2.6483979e+38
4.0959291 -0.33544111 1.4520588 -2.6881711e+38
4.095911 -0.34288305 1.4520588 -2.7279948e+38
4.0958934 -0.35032493 1.4520588 -2.6213438e+38
4.0528827 -0.35459203 1.4497244 -2.5279882e+38
4.0958576 -0.36520869 1.4520588 -3.3687786e+38
4.1878114 0.031505726 1.4493835 nan
4.1877933 0.02389051 1.4493835 nan
4.1877747 0.016275287 1.4493835 nan
4.1417542 0.0077630505 1.446974 -3.006403e+38
4.141736 0.00023545325 1.446974 -2.4351479e+38
4.1417179 -0.0072921403 1.446974 -2.5155263e+38
4.1416998 -0.014819745 1.446974 -2.5951761e+38
4.1416817 -0.022347338 1.446974 -2.5818321e+38
4.1416636 -0.029874939 1.446974 -2.5551954e+38
4.1416454 -0.037402537 1.446974 -2.541955e+38
4.1416278 -0.044930134 1.446974 -2.5153703e+38
4.1416097 -0.052457731 1.446974 -2.502078e+38
4.1415915 -0.059985332 1.446974 -2.4887334e+38
4.1415734 -0.067512929 1.446974 -2.4754409e+38
4.1415553 -0.075040527 1.446974 -2.4488562e+38
4.1415372 -0.082568124 1.446974 -2.4355117e+38
4.1875186 -0.090337738 1.4493835 -2.4221675e+38
4.1875 -0.097952962 1.4493835 -2.43546e+38
4.1414828 -0.10515092 1.446974 -2.4487002e+38
4.1414647 -0.11267851 1.446974 -2.4486481e+38
4.1414466 -0.12020612 1.446974 -2.4353554e+38
4.1414285 -0.12773371 1.446974 -2.475232e+38
4.1874084 -0.13602903 1.4493835 -2.5017632e+38
4.1413922 -0.14278892 1.446974 -2.4085084e+38
4.1413741 -0.15031651 1.446974 -2.3026421e+38
4.141356 -0.15784411 1.446974 -3.1959297e+38
4.1413379 -0.16537172 1.446974 nan
4.1413198 -0.17289931 1.446974 nan
4.0963049 -0.17916158 1.4446169 -3.3408441e+38
4.0962868 -0.18660346 1.4446169 -2.8474185e+38
4.0962691 -0.19404534 1.4446169 -2.3558639e+38
4.096251 -0.20148723 1.4446169 -2.4491695e+38
4.0962334 -0.20892912 1.4446169 -2.5288191e+38
4.0532188 -0.21475239 1.4423645 -2.528767e+38
4.0532012 -0.22211236 1.4423645 -2.5287668e+38
4.0531836 -0.22947234 1.4423645 -2.5153707e+38
4.0531659 -0.23683232 1.4423645 -2.5021303e+38
4.0531483 -0.2441923 1.4423645 -2.5153709e+38
4.0531306 -0.25155228 1.4423645 -2.5154228e+38
4.053113 -0.25891227 1.4423645 -2.5287153e+38
4.0530949 -0.26627225 1.4423645 -2.5420597e+38
4.0530772 -0.27363223 1.4423645 -2.5686964e+38
4.0530596 -0.28099221 1.4423645 -2.5819887e+38
4.0100474 -0.28591451 1.4401121 -2.6085734e+38
4.0530243 -0.29571217 1.4423645 -2.6351059e+38
4.0530066 -0.30307215 1.4423645 -2.648242e+38
4.052989 -0.31043211 1.4423645 -2.6483456e+38
4.0529714 -0.31779209 1.4423645 -2.661586e+38
4.0529537 -0.3251521 1.4423645 -2.661586e+38
4.0959291 -0.33544111 1.4446169 -2.7146514e+38
4.095911 -0.34288305 1.4446169 -2.7544228e+38
4.0958934 -0.35032493 1.4446169 -2.674356e+38
4.0958753 -0.35776681 1.4446169 -2.5955393e+38
4.0958576 -0.36520869 1.4446169 -3.3827978e+38
4.2348328 0.040395558 1.4441407 nan
4.1878114 0.031505726 1.4417683 nan
4.1877933 0.02389051 1.4417683 nan
4.1877747 0.016275287 1.4417683 nan
4.1417542 0.0077630505 1.4394464 -2.9275841e+38
4.141736 0.00023545325 1.4394464 -2.4615769e+38
4.1417179 -0.0072921403 1.4394464 -2.5285589e+38
4.1416998 -0.014819745 1.4394464 -2.6083647e+38
4.1416817 -0.022347338 1.4394464 -2.5818321e+38
4.1416636 -0.029874939 1.4394464 -2.568436e+38
4.1416454 -0.037402537 1.4394464 -2.541955e+38
4.1416278 -0.044930134 1.4394464 -2.5286106e+38
4.1416097 -0.052457731 1.4394464 -2.5153182e+38
4.1415915 -0.059985332 1.4394464 -2.4887336e+38
4.1415734 -0.067512929 1.4394464 -2.475493e+38
4.1415553 -0.075040527 1.4394464 -2.4489083e+38
4.1415372 -0.082568124 1.4394464 -2.448804e+38
4.1875186 -0.090337738 1.4417683 -2.43546e+38
4.1875 -0.097952962 1.4417683 -2.43546e+38
4.1874819 -0.10556817 1.4417683 -2.4486483e+38
4.1414647 -0.11267851 1.4394464 -2.4353556e+38
4.1874452 -0.12079861 1.4417683 -2.4354071e+38
4.187427 -0.12841383 1.4417683 -2.448699e+38
4.1874084 -0.13602903 1.4417683 -2.4620939e+38
4.1413922 -0.14278892 1.4394464 -2.3152024e+38
4.1413741 -0.15031651 1.4394464 -2.1676927e+38
4.141356 -0.15784411 1.4394464 -3.141667e+38
4.1413379 -0.16537172 1.4394464 nan
4.1413198 -0.17289931 1.4394464 nan
4.0963049 -0.17916158 1.437175 -3.3544475e+38
4.0962868 -0.18660346 1.437175 -2.8877115e+38
4.0962691 -0.19404534 1.437175 -2.4222738e+38
4.096251 -0.20148723 1.437175 -2.4888908e+38
4.0532365 -0.20739239 1.4350045 -2.5421633e+38
4.0532188 -0.21475239 1.4350045 -2.5420591e+38
4.0532012 -0.22211236 1.4350045 -2.5287668e+38
4.0531836 -0.22947234 1.4350045 -2.5153707e+38
4.0531659 -0.23683232 1.4350045 -2.5153188e+38
4.0531483 -0.2441923 1.4350045 -2.5020784e+38
4.0531306 -0.25155228 1.4350045 -2.5021305e+38
4.053113 -0.25891227 1.4350045 -2.5021307e+38
4.0530949 -0.26627225 1.4350045 -2.5154749e+38
4.0530772 -0.27363223 1.4350045 -2.5420593e+38
4.0530596 -0.28099221 1.4350045 -2.5686441e+38
4.0100474 -0.28591451 1.432834 -2.5819885e+38
4.0530243 -0.29571217 1.4350045 -2.5952286e+38
4.0530066 -0.30307215 1.4350045 -2.6084688e+38
4.052989 -0.31043211 1.4350045 -2.621813e+38
4.0529714 -0.31779209 1.4350045 -2.6084686e+38
4.0959468 -0.32799923 1.437175 -2.6083647e+38
4.0959291 -0.33544111 1.437175 -2.5684358e+38
4.095911 -0.34288305 1.437175 -2.5417975e+38
4.0958934 -0.35032493 1.437175 -2.5813607e+38
4.0958753 -0.35776681 1.437175 -2.6343252e+38
4.0958576 -0.36520869 1.437175 nan
4.1878295 0.039120942 1.4341531 nan
4.1878114 0.031505726 1.4341531 nan
4.1877933 0.02389051 1.4341531 nan
4.1877747 0.016275287 1.4341531 -3.2348677e+38
4.1417542 0.0077630505 1.4319187 -2.8601879e+38
4.141736 0.00023545325 1.4319187 -2.4882653e+38
4.1417179 -0.0072921403 1.4319187 -2.5552473e+38
4.1416998 -0.014819745 1.4319187 -2.6084167e+38
4.1416817 -0.022347338 1.4319187 -2.5951763e+38
4.1416636 -0.029874939 1.4319187 -2.5685398e+38
4.1416454 -0.037402537 1.4319187 -2.5552993e+38
4.1416278 -0.044930134 1.4319187 -2.5419029e+38
4.1416097 -0.052457731 1.4319187 -2.5153182e+38
4.1875916 -0.059876874 1.4341531 -2.4887336e+38
4.1875734 -0.06749209 1.4341531 -2.4755452e+38
4.1415553 -0.075040527 1.4319187 -2.4488564e+38
4.1415372 -0.082568124 1.4319187 -2.4488042e+38
4.1875186 -0.090337738 1.4341531 -2.4487523e+38
4.1875 -0.097952962 1.4341531 -2.4487523e+38
4.1874819 -0.10556817 1.4341531 -2.435356e+38
4.1874633 -0.11318339 1.4341531 -2.4353558e+38
4.1874452 -0.12079861 1.4341531 -2.4220629e+38
4.1414285 -0.12773371 1.4319187 -2.4220625e+38
4.1874084 -0.13602903 1.4341531 -2.4220613e+38
4.1873903 -0.14364426 1.4341531 -2.2357087e+38
4.1413741 -0.15031651 1.4319187 -2.0363286e+38
4.141356 -0.15784411 1.4319187 -3.0755708e+38
4.1413379 -0.16537172 1.4319187 nan
4.1413198 -0.17289931 1.4319187 nan
4.0963049 -0.17916158 1.429733 -3.3677404e+38
4.0962868 -0.18660346 1.429733 -2.9267047e+38
4.0962691 -0.19404534 1.429733 -2.4884231e+38
4.096251 -0.20148723 1.429733 -2.5286636e+38
4.0962334 -0.20892912 1.429733 -2.5552479e+38
4.0532188 -0.21475239 1.4276445 -2.5418516e+38
4.0532012 -0.22211236 1.4276445 -2.528611e+38
4.0531836 -0.22947234 1.4276445 -2.5285591e+38
4.0531659 -0.23683232 1.4276445 -2.5152668e+38
4.0531483 -0.2441923 1.4276445 -2.5019748e+38
4.0531306 -0.25155228 1.4276445 -2.4754943e+38
4.053113 -0.25891227 1.4276445 -2.4888389e+38
4.0101004 -0.26408029 1.4255559 -2.4888387e+38
4.0100827 -0.27135837 1.4255559 -2.5153713e+38
4.0100651 -0.27863646 1.4255559 -2.5420597e+38
4.0100474 -0.28591451 1.4255559 -2.5554041e+38
4.0100303 -0.2931926 1.4255559 -2.5554039e+38
4.0530066 -0.30307215 1.4276445 -2.5686441e+38
4.052989 -0.31043211 1.4276445 -2.5819361e+38
4.0529714 -0.31779209 1.4276445 -2.5685917e+38
4.0529537 -0.3251521 1.4276445 -2.5552473e+38
4.0959291 -0.33544111 1.429733 -2.4355647e+38
4.095911 -0.34288305 1.429733 -2.3157248e+38
4.0958934 -0.35032493 1.429733 -2.4882115e+38
4.0958753 -0.35776681 1.429733 -2.6624685e+38
4.0958576 -0.36520869 1.429733 nan
4.1878114 0.031505726 1.4265379 nan
4.1877933 0.02389051 1.4265379 nan
4.1877747 0.016275287 1.4265379 -3.0620674e+38
4.1417542 0.0077630505 1.4243912 -2.8077455e+38
4.141736 0.00023545325 1.4243912 -2.5677591e+38
4.1417179 -0.0072921403 1.4243912 -2.5950203e+38
4.1416998 -0.014819745 1.4243912 -2.6217609e+38
4.1416817 -0.022347338 1.4243912 -2.5951763e+38
4.1416636 -0.029874939 1.4243912 -2.5685398e+38
4.1416454 -0.037402537 1.4243912 -2.5552473e+38
4.1416278 -0.044930134 1.4243912 -2.541851e+38
4.1876101 -0.052261658 1.4265379 -2.5152662e+38
4.1875916 -0.059876874 1.4265379 -2.4886298e+38
4.1875734 -0.06749209 1.4265379 -2.4620971e+38
4.1875548 -0.075107306 1.4265379 -2.4488046e+38
4.1875367 -0.082722522 1.4265379 -2.4487525e+38
4.1875186 -0.090337738 1.4265379 -2.4487006e+38
4.1875 -0.097952962 1.4265379 -2.4354081e+38
4.1874819 -0.10556817 1.4265379 -2.4220118e+38
4.1874633 -0.11318339 1.4265379 -2.4352519e+38
4.1874452 -0.12079861 1.4265379 -2.4485438e+38
4.187427 -0.12841383 1.4265379 -2.4353548e+38
4.1874084 -0.13602903 1.4265379 -2.4355095e+38
4.1873903 -0.14364426 1.4265379 -2.2487935e+38
4.1413741 -0.15031651 1.4243912 -2.0619795e+38
4.141356 -0.15784411 1.4243912 -3.1023647e+38
4.1413379 -0.16537172 1.4243912 nan
4.1413198 -0.17289931 1.4243912 nan
4.0963049 -0.17916158 1.4222912 -3.035953e+38
4.0962868 -0.18660346 1.4222912 -2.7945597e+38
4.0962691 -0.19404534 1.4222912 -2.5546243e+38
4.096251 -0.20148723 1.4222912 -2.5549881e+38
4.0962334 -0.20892912 1.4222912 -2.5417478e+38
4.0962152 -0.216371 1.4222912 -2.5285074e+38
4.0532012 -0.22211236 1.4202845 -2.5152151e+38
4.0531836 -0.22947234 1.4202845 -2.5152149e+38
